ply
format ascii 1.0
comment Created by Open3D
element vertex 1271
property double x
property double y
property double z
property uchar red
property uchar green
property uchar blue
end_header
0.142169 -0.927532 -0.745901 146 9 32
-0.320883 0.161402 0.062543 87 148 135
-0.201897 -0.91126 0.267747 102 11 162
0.474694 -0.927532 -0.0688084 188 9 119
-0.213806 -0.983727 0.394899 100 2 178
0.620908 -0.927532 0.430069 207 9 182
0.653012 -0.983727 -0.257622 211 2 95
-0.379036 -0.168001 -0.131789 79 106 111
-0.159782 -0.91126 -0.54016 107 11 59
-0.2551 -0.927532 -0.734829 95 9 34
-0.539563 -1 0.3332 59 0 170
0.168801 -1 -0.26383 149 0 94
0.676666 -0.927532 0.235597 214 9 158
0.0589199 -0.91126 -0.662269 135 11 43
-0.346 -0.983727 -0.154348 83 2 108
0.505778 -0.983727 0.208326 192 2 154
-0.724953 -0.875054 -0.239742 35 16 97
-0.701482 -0.655722 -0.000912049 38 44 127
-0.451381 0.611255 0.0743211 70 205 137
-0.581695 -1 0.00595677 53 0 128
0.592846 0.495967 -0.0182839 203 191 125
0.771504 -0.927532 -0.19852 226 9 102
0.0543826 -0.949565 -0.144782 134 6 109
0.404587 -0.927532 0.410649 179 9 180
0.0100968 -0.927532 0.406212 129 9 179
0.229884 -0.548477 -0.0232279 157 58 125
-0.523985 -1 -0.0551919 61 0 120
0.22482 -1 0.124518 156 0 143
-0.459448 -0.322685 -0.291558 69 86 90
0.887987 -0.977441 -0.552443 241 3 57
-0.625622 -0.927532 -0.361139 48 9 81
0.138976 -0.91126 -0.270186 145 11 93
-0.02223 -0.983727 0.628494 125 2 208
0.616811 -0.91126 -0.28639 206 11 91
0.88865 -0.960873 -0.74757 241 5 32
-0.70461 -0.655789 0.0310167 38 44 131
0.308663 -1 -0.0392596 167 0 122
0.0055537 -0.91126 0.679389 128 11 214
-0.377592 -0.91126 -0.70219 79 11 38
-0.151529 -0.927532 0.545557 108 9 197
0.54395 -0.91126 -0.72216 197 11 35
-0.803777 -0.91126 0.204497 25 11 154
0.686992 -0.983727 -0.0386452 215 2 123
0.164051 -0.927532 -0.337211 148 9 85
0.327114 0.731752 -0.177902 169 221 105
-0.733649 -0.91126 -0.60867 34 11 50
0.718415 -0.983727 0.684794 219 2 215
0.853435 -1 0.433718 236 0 183
-0.771217 -0.91126 0.771158 29 11 226
-0.888193 -0.975848 0.114404 14 3 142
-0.845437 -0.91126 0.53135 20 11 195
0.208197 -0.987864 0.799482 154 2 229
0.495828 -0.129663 -0.28798 191 111 91
-0.151048 -0.975758 -0.0291847 108 3 124
-0.841343 -0.927532 0.0358573 20 9 132
-0.690548 -0.91126 0.310134 39 11 167
-0.161175 -0.725644 -0.0304944 107 35 124
0.360764 -1 -0.275705 173 0 92
0.875974 -0.91126 -0.00313402 239 11 127
-0.339829 -0.971814 0.0979276 84 4 140
-0.485662 0.709371 0.0888947 66 218 139
-0.273135 -0.983727 0.131805 93 2 144
0.54859 -1 -0.494125 197 0 64
-0.186028 -0.927532 0.606068 104 9 205
0.861006 -0.927532 0.073296 237 9 137
0.570103 0.3609 -0.300972 200 174 89
0.671798 -0.983727 0.512016 213 2 193
-0.0432963 -1 0.773421 122 0 226
-0.732192 -0.943578 0.0449142 34 7 133
0.331644 -0.767086 -0.389059 170 30 78
0.212582 -0.927532 -0.624381 155 9 48
0.660261 -1 0.348786 212 0 172
0.191064 -1 -0.720467 152 0 36
-0.868528 -0.91126 -0.345777 17 11 83
-0.266603 -0.983727 -0.517168 94 2 62
-0.39737 -0.953709 0.78321 77 6 227
0.753013 -0.983727 -0.704207 224 2 38
-0.470625 -0.91126 0.666057 67 11 212
-0.387743 -0.983727 -0.463148 78 2 68
0.397715 -1 0.214212 178 0 155
-0.0103673 -1 -0.573632 126 0 54
-0.162355 -0.983727 0.327641 107 2 169
0.417036 0.418545 -0.205766 181 181 101
0.31667 -0.983727 0.706056 168 2 218
-0.586982 -0.927536 -0.340464 53 9 84
-0.440299 -0.831619 0.235396 71 21 158
0.886746 -0.930622 -0.407235 241 9 76
-0.864273 -0.927532 0.0731495 17 9 137
0.617207 -0.895287 0.23124 206 13 157
0.882312 -0.91126 -0.362983 240 11 81
-0.541626 -0.983727 -0.622286 58 2 48
-0.849733 -0.983727 0.118046 19 2 143
0.646983 0.691754 -0.0530573 210 216 121
-0.276629 -0.860051 0.200634 92 18 153
0.0700282 -0.99211 0.79852 136 1 229
-0.623095 -0.424323 -0.139108 48 73 110
0.531849 -1 -0.323441 195 0 86
-0.179855 -1 -0.533123 105 0 60
-0.676348 -1 -0.308722 41 0 88
-0.312193 0.20425 -0.0280876 88 154 124
0.869926 -0.91126 0.512109 238 11 193
0.367992 -0.807441 -0.450413 174 25 70
-0.281471 -0.983727 -0.575173 92 2 54
0.78753 -0.927532 0.186389 228 9 151
0.628037 0.92404 -0.0941132 208 245 116
0.46352 0.561343 0.191547 187 199 152
0.69646 -0.927532 -0.146496 216 9 109
-0.890112 -0.91126 0.0452166 14 11 133
0.502315 -0.91126 0.773855 192 11 226
0.345307 -1 -0.664972 172 0 43
0.407051 -1 0.0969037 179 0 140
0.352155 0.36239 -0.167611 172 174 106
-0.389221 -0.468853 -0.315849 78 68 87
0.306306 -0.979079 0.782313 167 3 227
-0.623774 -0.324966 0.0920714 48 86 139
0.771291 -0.91126 0.476476 226 11 188
0.140744 -0.927532 -0.694695 145 9 39
-0.262191 -0.86497 0.184131 94 17 151
0.583029 -0.485991 0.0581923 202 66 135
-0.19133 -0.983727 0.677686 103 2 214
-0.617587 -0.983727 -0.513559 49 2 62
-0.382122 -0.420362 0.140788 79 74 145
0.484341 -0.955618 0.78321 189 6 227
0.504157 -1 -0.116988 192 0 113
-0.87612 -0.983727 -0.170805 16 2 106
0.491786 -0.0154662 -0.222776 190 126 99
0.603894 0.531835 0.0448773 204 195 133
0.863009 -0.91126 0.666402 238 11 212
0.415872 1 -0.101282 181 255 115
0.515086 -0.983727 0.332591 193 2 170
-0.667014 -0.983727 0.713022 42 2 218
0.255078 -0.927532 0.509619 160 9 192
0.651068 -0.831197 0.228685 211 22 157
-0.213658 -0.847967 -0.352764 100 19 83
-0.0204713 -0.927532 0.372173 125 9 175
0.119928 -0.983727 -0.369138 143 2 80
0.606473 -0.927532 0.0717 205 9 137
-0.335719 -0.00230622 -0.0148616 85 127 126
-0.499293 -1 -0.287518 64 0 91
0.336984 0.254235 -0.177575 170 160 105
0.291638 -0.983727 0.221409 165 2 156
0.78079 -0.91126 -0.23549 227 11 97
-0.798084 -0.927532 -0.434775 26 9 72
0.685299 -1 -0.777495 215 0 28
-0.379728 -0.257853 -0.170985 79 95 106
0.483735 0.72523 0.0925639 189 220 139
0.131926 -0.91126 0.423018 144 11 181
0.774415 -0.927532 0.656123 226 9 211
-0.467293 -0.490156 0.216055 68 65 155
0.886 -0.981532 -0.619832 240 2 48
0.543171 -0.983727 -0.543263 197 2 58
0.358179 -1 0.237513 173 0 158
-0.541149 -1 -0.0208438 59 0 125
-0.650041 -0.0749205 -0.189425 45 118 103
0.719341 -0.983727 0.231673 219 2 157
-0.538067 -0.927532 0.509953 59 9 193
-0.364935 -0.983727 0.204912 81 2 154
-0.416585 -0.91126 0.324358 74 11 169
-0.895382 -0.999781 0.741703 13 0 222
-0.0267161 -1 -0.421338 124 0 74
-0.75255 -0.951814 -0.799482 32 6 26
-0.0631087 -0.91126 -0.352219 119 11 83
-0.565566 -1 0.592641 55 0 203
-0.397686 -0.302466 0.168229 77 89 149
0.411455 -0.983727 0.744762 180 2 222
-0.680421 -0.91126 0.746 41 11 223
-0.338852 -0.927532 0.699549 84 9 217
-0.153323 -0.983727 0.439022 108 2 183
0.104667 -0.91126 -0.273072 141 11 93
0.434894 -0.983727 0.253068 183 2 160
0.174207 -0.927532 0.128304 150 9 144
0.734562 -0.91126 -0.304153 221 11 89
0.216803 -0.653217 -0.267173 155 44 93
0.0388608 -1 -0.0496226 132 0 121
0.403417 -0.927532 0.452758 179 9 185
-0.307625 -0.714498 -0.360475 88 36 82
0.325046 -0.983727 -0.456198 169 2 69
-0.0474397 -0.983727 0.116531 121 2 142
0.904922 -0.95595 -0.685689 243 6 40
-0.559069 -0.948466 -0.359628 56 7 82
0.676934 -0.927532 -0.23437 214 9 98
-0.363041 -0.983727 0.0706546 81 2 137
-0.750148 -0.907596 -0.260246 32 12 94
-0.531906 -0.927532 -0.558465 60 9 56
0.216479 -0.547233 -0.142529 155 58 109
-0.330366 -0.405186 0.0172844 85 76 130
-0.568683 -0.738447 0.210748 55 33 154
-0.260671 -1 -0.598876 94 0 51
0.0286205 -0.983727 -0.481653 131 2 66
0.747683 -0.70221 0.0819406 223 38 138
0.232279 -0.744418 -0.277263 157 33 92
-0.713461 -0.91126 0.221223 37 11 156
0.196029 -0.927532 0.43325 152 9 183
0.14562 -0.91126 0.706612 146 11 218
-0.771612 -1 -0.0499725 29 0 121
0.545271 0.505203 -0.13905 197 192 110
0.722708 -1 0.621834 220 0 207
0.315255 0.548161 -0.0193125 168 197 125
-0.236277 -0.866038 0.163425 97 17 148
-0.612987 -0.965312 -0.799482 49 4 26
-0.479939 -1 0.348591 66 0 172
-0.657707 -0.983727 0.736858 44 2 221
0.767336 -0.983727 -0.0558991 225 2 120
0.640855 -0.91126 -0.259356 209 11 94
-0.65558 -0.927532 -0.442885 44 9 71
-0.609049 0.103007 -0.195643 50 141 103
-0.040821 -0.860587 -0.0147165 122 18 126
-0.588007 -0.644626 0.212114 53 45 155
-0.60648 -0.256191 -0.212813 50 95 100
-0.629321 0.467094 0.0585177 47 187 135
-0.778913 -0.91126 0.355766 28 11 173
-0.161913 -0.717227 -0.231315 107 36 98
-0.416767 -0.851248 -0.343234 74 19 84
0.709603 -0.91126 -0.477786 218 11 67
-0.623483 0.642303 0.0673501 48 209 136
-0.17223 -0.927532 0.374695 106 9 175
-0.61906 -0.291574 0.0756296 49 90 137
-0.303363 -0.983727 0.223942 89 2 156
0.773415 -0.927532 -0.601489 226 9 51
-0.226313 -0.91126 -0.558533 99 11 56
0.503574 0.456256 0.172655 192 186 150
-0.598351 -0.476913 -0.211388 51 67 101
0.42515 -0.804398 -0.346989 182 25 83
-0.537447 -1 0.189008 59 0 152
0.575946 -0.14736 -0.167823 201 109 106
0.715789 -0.927532 -0.156561 219 9 108
0.440082 -0.927532 -0.696554 184 9 39
-0.242163 -0.91126 0.326264 97 11 169
0.754762 -0.983727 0.319881 224 2 168
-0.44042 -1 0.0593553 71 0 135
-0.516793 0.181147 -0.187072 62 151 104
0.296294 -0.00525309 -0.00845287 165 127 126
-0.594698 -0.195641 0.107826 52 103 141
0.482763 0.5036 -0.25029 189 192 96
0.500089 -1 -0.372922 191 0 80
-0.603791 -0.983727 0.23664 51 2 158
0.047163 -0.983525 -0.0914813 134 2 116
0.00662694 -0.983727 -0.535381 128 2 59
0.308699 0.251844 0.126993 167 160 144
-0.61043 0.0103489 0.0221811 50 129 130
-0.409504 -0.91126 -0.487681 75 11 65
0.247709 -0.983727 0.0183866 159 2 130
-0.406325 0.250882 0.125886 76 159 144
0.184429 0.230046 -0.0431446 151 157 122
-0.305524 -1 0.784719 89 0 228
-0.02964 -0.857669 -0.18103 124 18 104
-0.381824 -0.927532 0.658481 79 9 211
0.694176 -0.927532 -0.450558 216 9 70
0.627163 -0.927532 -0.545817 207 9 58
-0.559307 -0.955305 0.241351 56 6 158
0.158115 -1 -0.0675223 148 0 119
-0.481657 -1 0.772801 66 0 226
-0.840433 -1 0.55909 20 0 199
0.668636 -1 -0.638842 213 0 46
-0.703912 -0.927532 -0.761689 38 9 30
-0.78209 -1 -0.185219 28 0 104
-0.489194 -0.0465585 -0.218006 65 122 100
-0.779509 -0.893022 -0.122074 28 14 112
0.457978 -0.983727 0.0221535 186 2 130
-0.566788 -0.927532 -0.753482 55 9 31
-0.362496 -0.232392 0.122431 81 98 143
0.443547 -0.927532 -0.751974 184 9 32
0.449928 -0.621223 0.12782 185 48 144
0.88865 -0.965076 0.691106 241 4 216
0.38708 -0.870446 -0.450548 177 17 70
-0.529972 -0.927532 -0.523839 60 9 61
0.641749 -1 0.0924443 209 0 139
0.886451 -0.91126 -0.0548241 241 11 121
-0.172809 -0.927532 0.730559 105 9 221
-0.261634 -1 -0.315214 94 0 87
-0.368883 -0.983727 0.623704 80 2 207
0.585506 -0.91126 -0.637279 202 11 46
0.0551598 -0.955509 0.0251072 135 6 131
-0.26614 -0.927532 -0.75209 94 9 32
-0.551155 -0.983727 -0.711037 57 2 37
-0.390356 -0.971364 0.0546024 78 4 134
-0.634503 -0.983727 -0.374732 47 2 80
0.110262 -0.91126 -0.14853 142 11 109
0.476877 -0.719058 0.206632 188 36 154
0.734835 -0.927532 0.730957 221 9 221
-0.679504 -0.568199 0.022316 41 55 130
0.50701 -0.91126 0.531077 192 11 195
0.259507 -1 0.00269422 161 0 128
0.352269 0.209054 0.102606 172 154 141
-0.589643 -0.983727 0.391846 52 2 177
-0.277766 -0.619271 -0.313541 92 49 88
-0.113053 -0.91126 0.581776 113 11 202
0.364786 -0.927532 0.0626013 174 9 135
-0.264404 -0.91126 -0.725453 94 11 35
-0.499985 0.204708 -0.177604 64 154 105
0.0290937 -0.983727 -0.239671 131 2 97
0.374536 -0.592009 -0.194738 175 52 103
0.814293 -0.983727 -0.451209 231 2 70
-0.403705 -0.791104 -0.320221 76 27 87
-0.44633 -0.79746 0.230999 71 26 157
0.764018 -1 -0.331146 225 0 85
-0.613938 -0.170126 -0.233723 49 106 98
-0.159591 -0.721551 -0.139192 107 36 110
-0.448897 -0.655577 -0.334098 70 44 85
-0.460543 -0.91126 0.441387 69 11 184
0.346409 -1 -0.310246 172 0 88
0.187015 -0.927532 -0.626065 151 9 48
0.420949 -1 -0.396798 181 0 77
0.0744296 -0.983727 0.732163 137 2 221
0.154639 -0.91126 -0.305457 147 11 89
0.185356 0.241682 0.0476009 151 158 134
0.463365 -0.91126 -0.672064 187 11 42
-0.519255 -0.927532 -0.497179 61 9 64
-0.754099 -0.983727 0.342887 31 2 171
-0.739971 -0.983727 0.456096 33 2 186
0.428529 -0.233086 0.191865 182 98 152
-0.644978 -0.397798 0.06086 45 77 135
-0.0513322 -0.983727 -0.286589 121 2 91
-0.237783 -0.91126 -0.639501 97 11 46
0.345864 0.46351 -0.145907 172 187 109
0.396061 -0.189335 0.127377 178 103 144
-0.904923 -0.945104 0.122383 12 7 143
0.680672 -0.927532 -0.108729 214 9 114
0.794133 -1 0.0537002 229 0 134
-0.421734 0.158156 0.131068 74 148 144
0.337414 0.112047 -0.219308 171 142 100
0.628674 -0.927532 -0.669877 208 9 42
0.577443 0.519615 0.123752 201 194 143
0.570251 -1 0.399346 200 0 178
0.784513 -0.983727 0.66823 228 2 213
0.766673 -0.927532 -0.5488 225 9 58
0.622856 -0.983727 -0.772623 207 2 29
-0.672038 0.466123 -0.0222982 42 187 125
-0.0568804 -0.927532 -0.762738 120 9 30
-0.607505 -1 -0.175962 50 0 105
0.18518 -0.910547 0.00656182 151 11 128
-0.451317 -0.748725 0.216101 70 32 155
-0.752023 -0.91126 -0.771133 32 11 29
-0.904923 -0.986659 0.669714 12 2 213
-0.464784 -0.863935 0.243892 68 17 159
0.566395 0.325402 -0.259831 200 169 94
0.0137103 -1 0.752017 129 0 223
0.494359 -0.983727 -0.161979 191 2 107
0.360652 -0.983727 -0.760662 173 2 31
0.161866 -0.927532 0.620843 148 9 207
0.241526 0.756106 -0.106667 158 224 114
0.277018 -1 -0.105262 163 0 114
-0.2749 -0.747959 0.129219 92 32 144
0.696264 -0.79329 0.12408 216 26 143
-0.790339 -0.927532 0.689932 27 9 215
-0.613651 -0.999767 -0.791635 49 0 27
0.746239 -1 0.414222 223 0 180
-0.666826 -0.732284 0.144588 42 34 146
0.0310662 -0.983727 0.516481 131 2 193
0.0140823 -1 -0.177072 129 0 105
-0.64877 -0.91126 0.317864 45 11 168
-0.0621365 -0.91126 -0.688258 120 11 40
-0.388443 0.168 -0.119138 78 149 112
-0.309416 -0.731296 0.149847 88 34 147
-0.644442 -0.927532 -0.586067 45 9 53
-0.409162 -0.983727 0.10848 75 2 141
-0.26426 -0.763245 -0.344797 94 30 84
-0.533333 -0.983727 0.671066 59 2 213
0.151857 -0.91126 -0.776055 147 11 29
0.495403 -0.0283699 0.0727594 191 124 137
0.678981 -0.911223 0.0495775 214 11 134
-0.477164 -0.91126 0.58332 67 11 202
0.430549 -1 -0.677007 182 0 41
0.311233 -0.983727 -0.535244 167 2 59
-0.600043 -0.91126 -0.484586 51 11 66
-0.371377 0.285674 0.11155 80 164 142
-0.170998 -0.927532 0.544179 106 9 197
0.572217 -0.930846 0.799482 200 9 229
-0.161198 -0.983727 0.497663 107 2 191
-0.354083 -0.369321 0.00266099 82 80 128
0.336887 0.960688 -0.0381646 170 250 123
-0.015588 -1 0.287488 126 0 164
-0.489677 0.920039 0.0814841 65 245 138
0.261811 -0.0903996 -0.169293 161 116 106
-0.62577 -0.927532 0.528514 48 9 195
0.00268125 -1 -0.141897 128 0 109
-0.16083 -0.983727 -0.483398 107 2 66
-0.69714 -0.927532 -0.710369 39 9 37
-0.216862 -0.910748 -0.348579 100 11 83
-0.526679 -0.731088 -0.286512 60 34 91
-0.0566275 -0.976673 -0.0537892 120 3 121
0.0920884 -0.927532 -0.554375 139 9 57
-0.579695 -0.0300567 0.0781208 54 124 137
0.421046 0.745838 -0.169526 181 223 106
0.315825 0.558456 -0.0640696 168 199 119
0.607211 -0.956687 -0.78321 205 6 28
-0.252676 -0.974328 -0.0648214 95 3 119
0.0515049 -0.927532 -0.702392 134 9 38
0.538218 -0.983727 -0.716603 196 2 36
-0.611246 0.318253 0.045194 50 168 133
-0.632367 -0.312767 -0.000805643 47 88 127
-0.61966 -0.927532 0.371877 48 9 175
0.190646 0.0882273 -0.179955 152 139 105
-0.731478 -0.91126 -0.294419 34 11 90
-0.323653 -1 0.584205 86 0 202
0.428234 -0.983727 -0.119852 182 2 112
0.0873765 -0.927532 -0.396077 139 9 77
0.320119 -1 0.401176 168 0 179
0.242817 -0.927532 0.239314 158 9 158
0.879098 -1 -0.467805 240 0 68
-0.449657 -0.983727 -0.401088 70 2 76
0.609476 0.345052 -0.226893 205 171 99
0.0759214 -0.983727 -0.4172 137 2 74
-0.582662 -0.927532 0.489385 53 9 190
0.465136 -0.927532 0.624337 187 9 207
-0.83234 -0.983727 0.218049 21 2 155
-0.0665796 -1 0.563428 119 0 199
-0.804586 -0.927532 -0.162375 25 9 107
-0.377274 -0.983727 0.407144 79 2 179
-0.298106 -0.981383 -0.780661 89 2 28
0.39344 -1 -0.695657 178 0 39
0.258029 -0.983727 -0.610479 160 2 50
0.187252 -0.983727 0.595585 151 2 203
-0.0571325 -0.983727 0.436832 120 2 183
0.465461 0.359775 0.136085 187 173 145
-0.103579 -1 0.626559 114 0 207
-0.0738473 -1 -0.721116 118 0 36
0.177914 0.130533 -0.136322 150 144 110
-0.0552288 -0.983727 -0.142696 120 2 109
0.823065 -0.927532 0.466092 232 9 187
-0.68754 -0.624478 -0.0417155 40 48 122
0.289376 -0.91126 -0.646953 164 11 45
0.448561 0.992677 -0.1719 185 254 106
-0.750192 -1 -0.771301 32 0 29
-0.482777 -0.751096 0.225847 66 32 156
0.163666 -0.91126 0.0704805 148 11 136
0.577241 -0.0294111 -0.0717687 201 124 118
-0.153016 -0.983727 0.367668 108 2 174
-0.605071 -0.163219 0.0531571 50 107 134
0.820785 -0.927532 -0.123097 232 9 112
-0.366706 -0.757348 0.188962 81 31 152
-0.264531 -0.961336 0.274816 94 5 163
-0.177426 -0.930088 0.799482 105 9 229
0.695024 0.131308 -0.0077677 216 144 127
0.632635 -0.91126 0.616061 208 11 206
0.283611 -0.983727 0.118643 164 2 143
-0.36506 -1 0.236494 81 0 158
0.357509 -0.896016 0.377819 173 13 176
0.860698 -1 0.335566 237 0 170
0.28041 -0.394702 0.108995 163 77 141
-0.708239 -0.91126 -0.353113 37 11 82
0.470631 0.867714 0.0394718 188 238 133
0.320864 -0.835547 -0.260706 168 21 94
-0.443933 -0.927532 -0.438428 71 9 72
-0.361489 -0.927532 -0.651613 81 9 44
0.57553 -0.352723 0.0185993 201 83 130
-0.378783 -0.927532 -0.658874 79 9 43
0.706838 -0.400269 -0.197422 218 76 102
-0.424886 -0.983727 -0.512482 73 2 62
0.121467 -1 0.281212 143 0 163
-0.648929 -0.983727 -0.680217 45 2 41
0.404797 -0.052953 0.0465791 179 121 133
0.687327 -0.927532 -0.191795 215 9 103
-0.608848 -0.21559 -0.212321 50 100 100
-0.366279 -0.696466 -0.357126 81 39 82
0.613154 -0.983727 -0.216657 206 2 100
0.367346 0.633588 0.0563846 174 208 135
-0.780586 -0.91126 -0.415226 28 11 75
0.0835809 -0.983727 -0.642958 138 2 46
-0.0388833 -1 -0.724168 123 0 35
-0.458051 0.713402 -0.16101 69 218 107
-0.573594 -0.91126 -0.745032 54 11 33
-0.268649 -0.927532 0.345807 93 9 172
0.640712 -0.611671 0.141681 209 50 146
0.904922 -0.971336 -0.373127 243 4 80
-0.472883 -1 -0.442409 67 0 71
0.745588 -0.927532 -0.0861345 223 9 117
0.841224 -0.91126 0.116895 235 11 142
-0.244822 -0.927532 0.533962 96 9 196
0.414394 -0.927532 0.13185 180 9 144
-0.444595 -0.324983 0.189277 71 86 152
0.241906 -0.927532 0.562146 158 9 199
-0.76384 -0.91126 -0.286365 30 11 91
-0.22613 -0.983727 0.116698 99 2 142
0.497521 -1 0.206812 191 0 154
0.809278 -0.91126 0.0161319 231 11 130
-0.581086 0.303269 0.0615054 53 166 135
-0.221582 -0.941 0.799482 99 8 229
-0.652968 -0.67995 -0.119818 44 41 112
-0.883391 -0.91126 0.228618 15 11 157
-0.383567 -0.0107168 -0.0878779 79 126 116
-0.539989 -0.970487 -0.200202 59 4 102
0.405538 -0.983727 0.0527298 179 2 134
-0.272159 -0.927532 -0.444998 93 9 71
-0.457523 -0.983727 0.208843 69 2 154
-0.888378 -1 -0.766805 14 0 30
0.133302 -0.927532 0.727845 144 9 220
0.073396 -0.927532 -0.509774 137 9 63
0.220464 0.00239388 -0.10965 156 128 114
-0.470446 -0.983727 -0.214165 68 2 100
0.0690661 -1 0.579997 136 0 201
-0.635689 -0.980078 -0.0956107 46 3 115
0.579486 -0.131881 -0.0673559 201 111 119
-0.866712 -0.91126 -0.771998 17 11 29
-0.0745521 -0.929966 -0.315522 118 9 87
0.852157 -0.927532 0.194328 236 9 152
-0.577167 -0.69263 -0.241921 54 39 97
-0.23397 -0.983727 -0.763226 98 2 30
-0.722474 -0.842005 -0.203246 35 20 102
-0.383435 0.898182 -0.00796699 79 242 126
-0.0116349 -0.927532 0.458398 126 9 186
0.212341 -0.983727 -0.020443 155 2 125
-0.559357 0.69488 -0.11615 56 216 113
0.0620366 -0.91126 -0.778641 135 11 28
0.0365257 -1 -0.681505 132 0 41
0.343055 -0.801756 -0.436294 171 25 72
0.77556 -0.983727 -0.266402 226 2 94
0.286892 -0.983727 0.468944 164 2 187
0.61344 0.569273 -0.0167419 206 200 125
-0.655411 0.0669658 -0.101523 44 136 115
-0.801842 -0.927532 0.409691 25 9 180
-0.211273 -0.983727 0.176751 101 2 150
-0.406581 -0.972092 0.123065 76 4 143
0.0851487 -0.927532 0.219161 138 9 155
-0.591193 -0.63818 -0.149453 52 46 108
-0.0611101 -0.823724 -0.0593333 120 22 120
-0.542451 -0.930708 0.781306 58 9 227
-0.41555 -0.582647 0.187352 75 53 151
0.88865 -0.961245 -0.191882 241 5 103
0.225043 -0.724673 -0.366463 156 35 81
0.0451821 -0.983727 0.463439 133 2 187
0.544532 -1 0.628065 197 0 208
-0.764894 -1 0.00385375 30 0 128
0.287862 0.400919 -0.0743765 164 179 118
-0.881141 -0.91126 -0.705923 15 11 37
-0.629909 -0.983727 -0.353145 47 2 82
-0.222922 -0.983727 -0.215148 99 2 100
-0.696929 -0.637853 -0.00791838 39 46 126
0.126742 -1 -0.0348799 144 0 123
-0.361524 -0.287319 0.0923155 81 91 139
-0.659709 0.158609 -0.0209934 43 148 125
-0.62333 -0.443312 0.174974 48 71 150
0.544122 -1 -0.242834 197 0 97
-0.245731 -1 -0.677231 96 0 41
-0.348792 -1 0.227988 83 0 157
0.0801262 -0.927532 0.490966 138 9 190
-0.705973 -0.983727 0.747917 37 2 223
0.892005 -0.999947 0.447451 241 0 185
-0.246655 -1 -0.55987 96 0 56
0.781016 -0.91126 -0.199262 227 11 102
-0.505564 -0.91126 -0.552469 63 11 57
0.576214 -0.0630747 -0.0464018 201 119 122
-0.77646 -1 -0.419058 29 0 74
-0.673923 -0.91126 -0.721064 42 11 36
0.574816 -1 -0.768785 201 0 29
-0.334399 -0.956851 -0.36614 85 6 81
-0.887536 -0.931241 0.726924 14 9 220
0.658481 -0.91126 -0.62698 211 11 48
-0.726396 -0.91126 0.268553 35 11 162
-0.141819 -0.927532 0.699453 109 9 217
0.462758 -0.0187513 -0.246789 187 125 96
-0.804906 -0.927532 0.0634985 25 9 136
0.888186 -0.933814 -0.504706 241 8 63
0.0562404 -0.977601 -0.149657 135 3 108
-0.563988 0.391253 0.0677467 56 177 136
-0.522826 0.283427 -0.170528 61 164 106
-0.305746 0.405978 -0.0185808 89 179 125
0.119511 -0.983727 -0.107958 143 2 114
-0.88865 -0.969719 0.775901 14 4 226
0.641919 -0.633757 0.163201 209 47 148
0.523986 -1 0.686461 194 0 215
0.537528 -1 0.0558405 196 0 135
-0.443735 -0.011663 -0.164719 71 126 106
-0.396539 -0.379135 0.160226 77 79 148
-0.516144 0.933653 -0.07375 62 247 118
0.587389 -0.927532 -0.168056 202 9 106
-0.263764 -0.537884 -0.0491666 94 59 121
-0.317095 -1 0.482078 87 0 189
0.849856 -0.983727 -0.561256 236 2 56
0.453828 -0.983727 -0.447356 185 2 70
0.384373 -0.128347 -0.338626 177 111 84
0.740327 -0.983727 -0.222196 222 2 99
-0.619627 -1 -0.359473 48 0 82
0.591585 -0.927532 0.00158598 203 9 128
0.148531 -0.927532 0.690591 146 9 216
0.830688 -0.929605 -0.779818 233 9 28
0.240485 -0.91126 -0.520386 158 11 61
0.204359 -1 0.10204 154 0 141
0.88865 -0.966831 -0.34706 241 4 83
0.518497 -1 0.437257 194 0 183
0.575548 -0.810224 0.324844 201 24 169
-0.761651 -1 0.712329 30 0 218
-0.311144 0.364048 0.00259201 88 174 128
0.287565 0.377929 0.165631 164 176 149
-0.762801 -0.91126 0.50713 30 11 192
0.472667 1 -0.0956233 188 255 115
-0.904923 -0.979938 -0.177413 12 3 105
-0.235321 -0.927532 -0.708494 97 9 37
0.368376 -0.981515 0.799482 174 2 229
-0.520807 -0.983727 -0.167788 61 2 106
0.445528 -0.927532 -0.184815 184 9 104
0.00075682 -0.939693 0.799482 128 8 229
0.488452 0.0606039 0.0492329 190 135 134
-0.640654 0.521879 0.0553961 46 194 135
-0.439014 -0.40641 0.180187 72 76 150
0.230318 0.21786 -0.121464 157 155 112
-0.62535 -0.91126 0.61791 48 11 206
0.28594 0.743098 -0.0899095 164 222 116
-0.880373 -0.91126 -0.0738102 15 11 118
0.706124 0.0753772 0.00186916 218 137 128
0.533097 -0.927532 0.157329 195 9 148
-0.569972 -0.844791 0.225638 55 20 156
-0.0560401 -0.983727 -0.504549 120 2 63
0.128008 -0.959972 0.799482 144 5 229
0.47629 -0.983727 -0.720061 188 2 36
0.501416 -0.677841 -0.219217 191 41 100
0.426021 -1 0.537511 182 0 196
-0.335497 -0.91126 -0.575931 85 11 54
0.614731 -0.927532 0.356461 206 9 173
-0.371801 -0.609283 0.143042 80 50 146
0.192975 -0.927532 -0.229184 152 9 98
-0.111361 -0.909857 0.150076 113 11 147
-0.295968 -0.927532 0.361178 90 9 174
-0.795228 -1 0.476352 26 0 188
0.721191 -1 0.729844 219 0 221
0.555357 -0.91126 0.589735 198 11 203
-0.0768885 -1 -0.160869 118 0 107
0.774434 -0.927532 0.329696 226 9 170
0.618939 -0.91126 -0.712511 206 11 37
0.78859 -0.983727 0.194785 228 2 152
0.165048 -0.927532 -0.263055 149 9 94
0.242312 0.363204 0.0139262 158 174 129
-0.330802 0.681386 -0.121523 85 214 112
0.904922 -0.966719 -0.616833 243 4 49
0.445858 0.133516 -0.213774 184 145 100
0.242407 -0.395846 0.0177199 158 77 130
0.306615 -0.656212 -0.237077 167 44 97
0.904922 -0.985321 0.157966 243 2 148
-0.42706 -1 -0.238602 73 0 97
0.5761 0.944042 -0.18578 201 248 104
-0.358727 0.321949 0.0815192 82 169 138
-0.551101 -0.970109 -0.101838 57 4 115
0.6502 -0.983727 0.740107 210 2 222
0.281001 -0.775139 -0.170133 163 29 106
0.223676 0.329834 0.0148573 156 170 129
0.904922 -0.985078 -0.472985 243 2 67
0.536934 -0.542331 -0.23063 196 58 98
-0.521436 0.918458 0.0842697 61 245 138
0.58075 -0.983727 -0.681949 202 2 41
0.201402 0.185806 0.0383232 153 151 132
-0.225846 -0.927532 -0.547048 99 9 58
0.236752 0.867766 -0.041956 158 238 122
-0.386999 0.246991 0.125517 78 159 144
0.373829 -0.641789 0.0929804 175 46 139
0.661741 -1 -0.501412 212 0 64
0.86465 -0.91126 -0.391104 238 11 78
-0.371133 0.0806426 0.137439 80 138 145
-0.311694 -0.983727 -0.31598 88 2 87
-0.838752 -0.927532 -0.534802 21 9 59
0.735399 -0.927532 -0.279944 221 9 92
0.201143 -0.644567 -0.252108 153 45 95
-0.53246 -0.927532 -0.358226 60 9 82
-0.189838 -0.983727 0.555335 103 2 198
-0.394783 -1 0.470216 77 0 187
-0.683042 -0.75608 -0.150595 40 31 108
0.747329 -1 -0.543205 223 0 58
-0.623918 0.751389 0.028077 48 223 131
0.65424 0.879678 -0.100157 211 240 115
-0.533134 -0.976557 -0.27389 60 3 93
0.488298 -0.927532 -0.605498 190 9 50
-0.0625334 -0.927532 0.406021 120 9 179
0.427655 -0.695034 -0.227603 182 39 98
0.0406849 -0.981254 0.780861 133 2 227
0.049048 -1 0.580491 134 0 202
-0.808186 -0.91126 -0.237752 24 11 97
-0.0427368 -0.91126 -0.392435 122 11 77
-0.343094 -0.227256 0.0360406 84 99 132
0.480279 -0.927532 0.220564 189 9 156
0.195432 -0.983727 -0.187092 152 2 104
-0.455263 -0.727903 -0.323921 69 35 86
0.219347 -0.927532 0.435152 155 9 183
0.880091 -0.91126 0.338606 240 11 171
-0.549752 -0.927532 -0.698176 57 9 38
0.786539 -0.91126 -0.319966 228 11 87
-0.47549 -0.927532 -0.369673 67 9 80
-0.321893 -0.91126 0.276729 86 11 163
0.410182 1 -0.0376126 180 255 123
-0.756909 -1 -0.583493 31 0 53
0.709511 0.246678 -0.169696 218 159 106
-0.0513287 -0.91126 -0.44657 121 11 71
0.294827 -0.73612 0.0503819 165 34 134
0.426061 0.635775 -0.193692 182 209 103
-0.293891 -1 -0.519876 90 0 61
-0.500784 -0.983727 0.755308 64 2 224
0.148181 -0.927532 -0.124419 146 9 112
-0.88865 -0.971 -0.473399 14 4 67
-0.555604 -0.812668 0.220133 57 24 156
0.289596 0.346093 -0.0718502 164 172 118
0.625356 -1 -0.25343 207 0 95
0.727941 -0.927532 -0.755811 220 9 31
-0.543654 -0.91126 0.680297 58 11 214
0.510074 0.0946708 -0.188525 193 140 103
-0.301279 0.620118 -0.0260402 89 207 124
-0.684297 -0.828387 -0.226344 40 22 99
0.571937 -0.901433 -0.32683 200 13 86
-0.102538 -0.91126 0.202011 114 11 153
-0.200262 -1 0.753882 102 0 224
-0.674984 -0.696468 0.114225 41 39 142
-0.065694 -0.983727 -0.381379 119 2 79
-0.34429 -0.182356 0.058483 84 104 135
0.0294807 -1 0.669156 131 0 213
-0.521555 -0.983727 0.381019 61 2 176
0.302615 -0.936149 -0.782909 166 8 28
-0.368045 0.617451 0.0402533 81 206 133
-0.904923 -0.976004 -0.142524 12 3 109
0.0311385 -0.927532 0.629487 131 9 208
0.103479 -0.983727 -0.680161 141 2 41
-0.806874 -0.927532 -0.383491 25 9 79
0.363023 -0.91126 0.717656 174 11 219
0.709376 -0.754207 0.0365024 218 31 132
-0.72278 -0.91126 0.432882 35 11 183
-0.525713 -0.983727 0.105246 60 2 141
-0.702499 -1 0.575165 38 0 201
-0.572706 -0.968346 0.178013 54 4 150
-0.88865 -0.939763 -0.530942 14 8 60
0.300068 0.480654 -0.0503631 166 189 121
-0.710108 -0.983727 0.601907 37 2 204
0.467695 -0.837862 -0.354487 187 21 82
0.316859 -0.30709 -0.115487 168 88 113
-0.20099 -0.927532 0.562036 102 9 199
0.512601 0.158107 0.0403759 193 148 133
0.30688 -0.911553 -0.792846 167 11 26
-0.467708 -0.983727 -0.756812 68 2 31
-0.477271 -0.983727 0.613968 67 2 206
-0.101336 -0.836431 -0.257788 115 21 95
-0.68762 -0.983727 0.195093 40 2 152
-0.0743038 -0.983727 -0.411427 118 2 75
-0.0995857 -0.927532 -0.719403 115 9 36
0.304713 -0.821133 -0.315352 166 23 87
0.0486815 -1 0.725136 134 0 220
0.556007 -0.927532 0.599812 198 9 204
-0.903384 -0.994357 0.404319 12 1 179
0.408134 -1 -0.447438 180 0 70
-0.370488 -0.983727 0.503837 80 2 192
-0.414867 -0.983727 0.0643727 75 2 136
-0.486921 0.571392 0.0852507 65 200 138
0.567304 -0.104225 -0.159717 200 114 107
0.142106 -1 0.209743 146 0 154
-0.360489 -0.983727 -0.373048 82 2 80
0.298887 -1 0.0538259 166 0 134
0.304524 -0.895659 0.346591 166 13 172
-0.491434 -0.983727 -0.335869 65 2 85
-0.347212 -0.983727 0.268235 83 2 162
0.556296 -0.206967 -0.261776 198 101 94
0.0111036 -0.983727 -0.678363 129 2 41
0.239054 -0.514153 0.00579762 158 62 128
0.106422 -0.983727 0.580146 141 2 201
0.179661 -0.983727 0.0390692 150 2 132
0.393208 0.349424 0.16612 178 172 149
0.1107 -0.91126 0.500241 142 11 191
0.383835 -0.927532 -0.12135 176 9 112
0.253641 -0.91126 0.772648 160 11 226
0.216421 0.0482241 -0.057889 155 134 120
0.459057 -1 -0.309779 186 0 88
0.394673 0.4952 -0.266284 178 191 94
0.44656 -0.927532 0.174932 184 9 150
0.541373 -0.911546 -0.792663 197 11 26
-0.899601 -0.912132 -0.675989 13 11 41
-0.613079 -0.91126 0.311085 49 11 167
0.46635 -1 -0.559225 187 0 56
0.607734 -1 0.226553 205 0 156
0.582176 0.38622 -0.273505 202 177 93
0.566274 -0.927532 0.293973 200 9 165
0.296545 0.227798 -0.161679 165 157 107
-0.588991 -0.927532 0.713475 52 9 218
0.402511 -1 0.752037 179 0 223
0.62301 -0.91126 -0.346056 207 11 83
0.827871 -1 -0.345081 233 0 84
0.388465 -0.91126 -0.619997 177 11 48
-0.45649 -0.150956 -0.237215 69 108 97
-0.904923 -0.94003 0.341312 12 8 171
0.628085 -0.91126 0.725578 208 11 220
0.299945 -1 -0.313382 166 0 88
0.428364 -0.983727 0.713974 182 2 219
0.384045 -0.927532 -0.510668 176 9 62
0.856477 -0.927532 0.352759 237 9 172
-0.666666 0.253778 -0.00969462 43 160 126
0.086595 -0.927532 -0.0881744 139 9 116
0.469937 -1 0.600874 187 0 204
0.612026 -0.983727 -0.255563 206 2 95
-0.0881339 -1 -0.702809 116 0 38
0.200556 -0.983727 0.11156 153 2 142
0.06023 -0.983727 -0.737277 135 2 33
-0.541618 -0.927532 -0.622401 58 9 48
0.344714 -0.927532 -0.0120163 171 9 126
-0.0307181 -0.909821 0.0144496 124 11 129
-0.718734 -1 0.583943 36 0 202
-0.518463 -0.91126 -0.477109 61 11 67
0.493279 -0.927532 0.180753 190 9 151
0.25808 -0.927532 -0.219067 160 9 100
0.0484402 -0.947916 0.000184583 134 7 128
0.0283833 -1 0.183936 131 0 151
0.33357 -0.495639 -0.145159 170 64 109
0.049843 -0.983727 0.105059 134 2 141
0.441221 0.187206 0.0812286 184 151 138
-0.699891 -0.681195 0.0515585 38 41 134
-0.515387 -1 0.489246 62 0 190
-0.389443 -0.91126 0.308861 78 11 167
-0.902146 -0.914276 -0.394108 12 11 77
-0.305274 -0.91126 0.518817 89 11 194
-0.545324 0.481133 -0.141339 58 189 109
-0.20299 -0.927532 -0.507672 102 9 63
0.0880186 -0.927532 -0.186896 139 9 104
0.605743 0.312132 -0.2658 205 167 94
0.412179 -0.91126 -0.651629 180 11 44
0.0721262 -1 0.551921 137 0 198
0.880726 -1 0.282041 240 0 163
-0.904923 -0.978042 0.557373 12 3 199
-0.84957 -0.983727 -0.65668 19 2 44
-0.639373 -0.983727 0.688513 46 2 215
0.417228 -0.909401 0.391617 181 12 177
-0.507759 -0.970071 -0.0989515 63 4 115
0.812781 -0.927532 0.114614 231 9 142
0.160234 -0.91126 0.534316 148 11 196
-0.644117 0.222553 0.0040017 45 156 128
0.622571 0.811928 0.0270629 207 231 131
0.204258 -1 -0.623484 154 0 48
-0.849773 -0.91126 0.172295 19 11 149
0.249719 -0.888479 -0.144255 159 14 109
-0.744948 -1 -0.722571 33 0 35
0.696313 -0.983727 -0.638791 216 2 46
0.312697 -0.91126 -0.554142 167 11 57
0.644433 -0.298416 -0.185924 210 89 104
0.802032 -1 0.7354 230 0 221
-0.451709 -1 -0.557133 70 0 56
-0.439335 0.42396 -0.152258 71 182 108
-0.552856 -0.983727 -0.528251 57 2 60
-0.315476 -0.983727 0.574162 87 2 201
0.410264 -0.726438 0.177359 180 35 150
0.507585 -0.91126 -0.726168 192 11 35
-0.551609 -0.91126 0.316635 57 11 168
-0.552558 0.637835 -0.115441 57 209 113
-0.208476 -0.927532 0.30338 101 9 166
0.904922 -0.987369 -0.0971996 243 2 115
0.315392 -0.911533 0.792311 168 11 229
-0.581005 -1 0.407793 53 0 179
0.30155 0.601323 -0.272843 166 204 93
-0.611223 -0.841814 -0.277774 50 20 92
0.904922 -0.941108 -0.741795 243 8 33
0.538493 -0.91126 -0.753148 196 11 31
-0.0936049 -1 0.653434 116 0 211
0.425988 -0.91126 0.429548 182 11 182
0.476773 -0.983727 0.571446 188 2 200
0.822586 -0.91126 0.318238 232 11 168
-0.703125 -0.828278 0.0774526 38 22 137
0.804106 -0.927532 -0.0612207 230 9 120
0.85585 -0.91126 -0.0201539 237 11 125
0.146559 -0.927532 0.207116 146 9 154
-0.369855 -1 -0.549849 80 0 57
-0.475973 -0.189721 0.211478 67 103 154
-0.584349 -0.528414 -0.200959 53 60 102
-0.386309 -0.161347 -0.153472 78 107 108
0.0792351 -0.927532 -0.66504 138 9 43
0.639886 -0.91126 -0.647812 209 11 45
0.168805 -0.927532 0.335807 149 9 170
0.550916 0.42126 -0.23749 198 181 97
-0.0832347 -0.976367 -0.146169 117 3 109
0.35077 -0.927532 0.358598 172 9 173
0.130902 -0.927532 -0.588269 144 9 52
-0.0675345 -0.836615 -0.173018 119 21 105
0.562311 -0.983727 0.378172 199 2 176
-0.573506 -0.983727 0.332229 54 2 170
0.00853892 -0.983727 -0.610541 129 2 50
-0.311114 -0.849328 -0.357764 88 19 82
-0.259923 -0.866548 -0.347288 94 17 83
-0.418246 -1 -0.559913 74 0 56
0.506741 -0.733381 0.247224 192 34 159
0.852307 -0.927532 -0.240107 236 9 97
-0.264414 -0.568938 -0.235465 94 55 97
0.83132 -1 -0.651752 233 0 44
-0.00194014 -1 0.460898 127 0 186
0.363519 -0.477598 0.0502766 174 67 134
-0.810201 -0.983727 0.0113343 24 2 129
0.142953 -0.927532 0.0259659 146 9 131
-0.654406 0.151447 -0.0913766 44 147 116
-0.175104 -0.983727 0.0987623 105 2 140
0.0179805 -0.91126 0.136838 130 11 145
-0.203083 -0.91126 0.776748 102 11 227
-0.406469 -0.952153 -0.799482 76 6 26
-0.700255 -1 -0.416369 38 0 74
0.394464 0.530963 0.166854 178 195 149
-0.568342 -0.181962 0.164728 55 104 149
-0.413614 0.0966799 -0.141116 75 140 110
0.0524315 -0.983479 -0.0156381 134 2 126
-0.0781393 -0.983727 -0.616806 118 2 49
-0.59188 0.790174 0.0794073 52 228 138
-0.344513 0.0569492 -0.0514677 84 135 121
-0.459835 0.935686 0.0362964 69 247 132
0.576353 -0.983727 -0.555736 201 2 57
-0.865068 -0.91126 -0.586943 17 11 53
0.607834 -0.91126 0.666404 205 11 212
0.227811 -0.983727 0.395602 157 2 178
0.0882932 -0.983727 -0.487516 139 2 65
0.748337 -0.927532 -0.510676 223 9 62
-0.586788 0.86821 0.0656522 53 238 136
-0.833021 -0.927532 0.696452 21 9 216
-0.670749 -0.576364 0.112068 42 54 142
0.331251 0.722396 -0.0425109 170 220 122
0.636139 -0.983727 0.398893 209 2 178
-0.300605 -0.470481 -0.015138 89 68 126
-0.603625 0.429087 -0.135619 51 182 110
0.649779 -1 0.496789 210 0 191
-0.25459 -0.955727 0.799482 95 6 229
0.0538744 -1 -0.0672646 134 0 119
-0.0197876 -0.983727 0.0720412 125 2 137
-0.230135 -0.91126 -0.691281 98 11 39
-0.117345 -1 -0.257847 113 0 95
0.702476 -0.927532 -0.467033 217 9 68
-0.612117 -0.594519 0.203427 49 52 153
0.58884 -0.361301 -0.303347 203 81 89
-0.116453 -1 0.0612013 113 0 135
-0.601636 -0.374181 -0.197077 51 80 102
-0.698617 -0.983727 -0.337596 38 2 84
0.721471 -1 -0.573876 219 0 54
-0.0739682 -1 -0.524792 118 0 61
-0.74595 -0.927532 0.41197 32 9 180
0.581145 -0.0996384 0.13769 202 115 145
-0.502299 -0.927532 0.597136 63 9 204
0.285066 -0.927532 -0.42211 164 9 74
-0.826373 -0.91126 -0.714082 22 11 36
-0.88865 -0.95124 -0.38022 14 6 79
0.88865 -0.955863 0.145523 241 6 146
-0.714156 -0.983727 -0.298777 36 2 89
0.481775 0.0734199 -0.207693 189 137 101
-0.348307 -0.355035 0.0724773 83 82 137
-0.624383 -1 -0.404993 48 0 76
0.0703035 -1 -0.509479 136 0 63
0.038006 -0.958153 -0.209984 132 5 101
0.323963 0.639716 -0.0865334 169 209 116
0.0221586 -1 0.280643 130 0 163
-0.4512 -0.0350251 0.186576 70 123 151
0.597628 -0.983727 -0.744014 204 2 33
0.656357 -0.849461 -0.100941 211 19 115
0.464748 -0.927532 0.584017 187 9 202
-0.268387 -0.983727 -0.367039 93 2 81
-0.0508515 -1 -0.693715 121 0 39
-0.310783 0.698277 -0.046373 88 217 122
-0.323487 -0.91126 -0.645517 86 11 45
0.296305 -1 -0.374925 165 0 80
-0.789763 -0.927532 0.502485 27 9 192
-0.0223859 -1 0.554689 125 0 198
-0.237464 -0.644285 -0.269762 97 45 93
-0.037368 -0.983727 0.566916 123 2 200
-0.474625 0.854388 -0.161172 67 236 107
0.66257 -0.955887 -0.799482 212 6 26
0.612781 -0.983727 0.52501 206 2 194
-0.887549 -0.91126 -0.121597 14 11 112
0.173657 -1 0.0196886 150 0 130
0.730475 -1 -0.418453 221 0 74
8.56688e-05 -1 0.703653 128 0 217
0.854282 -0.983727 -0.30504 236 2 89
-0.301259 -0.50183 0.0138628 89 64 129
0.661452 -0.91126 -0.665522 212 11 43
0.58904 0.66697 -0.112819 203 213 113
-0.255827 -0.983727 0.644497 95 2 210
0.566222 -0.0885978 0.029664 200 116 131
0.557119 -0.113057 -0.191001 199 113 103
-0.881802 -0.935672 -0.782827 15 8 28
0.269914 -0.983727 0.00628889 162 2 128
0.364938 -0.983727 0.726121 174 2 220
0.668162 0.142246 -0.0191145 213 146 125
0.790617 -0.927532 0.507654 228 9 192
-0.465645 0.22242 0.121642 68 156 143
-0.698762 -0.983727 -0.277273 38 2 92
0.521377 0.838815 -0.182865 194 234 104
-0.362412 -0.927532 0.535246 81 9 196
-0.481341 -1 -0.47888 66 0 66
-0.133416 -0.813967 0.0630561 110 24 136
-0.741787 -1 0.121704 33 0 143
0.552049 -0.983727 0.481084 198 2 189
-0.266794 -0.694796 0.0921182 93 39 139
0.497329 0.806753 0.0588141 191 230 135
-0.622438 -0.293944 -0.0775549 48 90 118
0.20845 -0.91126 0.652407 154 11 211
0.782171 -0.91126 -0.568764 227 11 55
0.65146 -0.316088 -0.143847 211 87 109
0.292919 -0.983727 0.638713 165 2 209
-0.699038 -0.726266 -0.1161 38 35 113
-0.0969098 -1 0.693838 115 0 216
0.796072 -0.91126 -0.585887 229 11 53
0.667393 -0.927532 0.116199 213 9 142
0.0951113 -0.91126 0.0727019 140 11 137
0.904922 -0.926556 -0.383172 243 9 79
-0.69942 -0.865747 0.104224 38 17 141
-0.642503 -1 0.515566 46 0 193
0.776963 -0.927532 0.724609 227 9 220
0.550096 -0.0549201 0.139671 198 120 145
-0.360499 0.573256 -0.145651 82 201 109
-0.115421 -1 0.557294 113 0 199
0.687518 -0.91126 0.331665 215 11 170
0.76404 -1 0.0935908 225 0 139
-0.775108 -0.927532 0.390595 29 9 177
0.494529 -0.932594 -0.782612 191 9 28
0.76124 -0.595046 0.0474448 225 52 134
-0.87287 -0.927532 -0.0185838 16 9 125
0.204287 -0.927532 0.743394 154 9 222
-0.0534763 -1 -0.189888 121 0 103
0.137846 -0.927532 -0.204385 145 9 101
0.437927 -1 0.377556 183 0 176
-0.628855 -0.236369 -0.216114 47 97 100
-0.0776582 -0.999848 -0.789378 118 0 27
-0.695926 -1 0.629602 39 0 208
0.430026 0.515257 0.203664 182 193 153
-0.829631 -0.91126 0.739984 22 11 222
0.677613 -0.927532 -0.346092 214 9 83
0.326167 0.471792 0.13518 169 188 145
-0.598066 -1 0.0211316 51 0 130
-0.26899 -0.803007 0.166096 93 25 149
-0.443583 -0.645855 0.206569 71 45 154
0.889027 -0.91126 0.424856 241 11 182
0.553952 -1 0.666705 198 0 213
0.225588 -0.983727 0.148495 156 2 146
-0.325934 0.00181436 0.0689717 86 128 136
0.671403 -0.983727 -0.0481551 213 2 121
0.239406 0.704077 -0.200695 158 217 102
-0.587528 -0.983727 -0.106762 53 2 114
0.212717 -0.91126 -0.228379 155 11 98
-0.866491 -1 0.503691 17 0 192
-0.693036 -0.639869 0.0626326 39 46 135
-0.292422 -0.91126 0.715874 90 11 219
-0.88865 -0.944392 -0.751767 14 7 32
-0.0512394 -0.983727 0.0894487 121 2 139
0.598482 -0.983727 -0.0562387 204 2 120
-0.452379 -0.927532 -0.746017 70 9 32
-0.780666 -1 -0.0162717 28 0 125
0.699938 0.110588 -0.00184709 217 142 127
0.582437 -0.927532 -0.130592 202 9 111
0.262689 -0.801984 -0.013396 161 25 126
0.783423 -0.91126 0.360366 227 11 173
-0.418601 -1 0.769421 74 0 226
0.845392 -0.91126 -0.126136 235 11 111
0.621801 -0.927532 -0.696128 207 9 39
0.61745 -1 -0.445936 206 0 71
0.63235 -1 0.00362752 208 0 128
0.262035 -1 0.0343274 161 0 132
0.661643 -0.452095 -0.245831 212 70 96
-0.564659 -0.118732 -0.253123 56 112 95
-0.591462 -0.735755 0.210566 52 34 154
0.827733 -0.927532 0.630646 233 9 208
0.679798 -0.522265 -0.190661 214 61 103
0.356905 -0.983727 -0.176921 173 2 105
0.11068 -0.933135 -0.799482 142 9 26
0.51849 0.306773 0.060756 194 167 135
-0.594403 -0.222543 0.136489 52 99 145
0.285971 -1 0.344865 164 0 171
0.213258 0.0283783 -0.213381 155 131 100
-0.694742 -1 -0.43933 39 0 71
0.0549234 -0.91126 -0.350251 135 11 83
0.261559 -0.927532 0.482804 161 9 189
-0.718512 -0.91126 -0.475099 36 11 67
0.237299 -1 -0.104498 158 0 114
0.543497 0.373637 -0.300405 197 175 89
0.744185 -1 -0.365508 222 0 81
-0.343243 -0.0632128 -0.025152 84 119 124
0.620596 -0.91126 -0.646037 207 11 45
-0.521721 -0.373357 -0.300445 61 80 89
-0.5987 -0.983727 -0.021606 51 2 125
0.523967 -1 -0.205085 194 0 101
0.323192 -0.324799 -0.0486934 169 86 121
0.394762 -0.927532 -0.678596 178 9 41
0.824856 -0.927532 -0.321349 233 9 87
-0.524788 -0.662576 -0.286534 61 43 91
0.734774 -1 -0.160077 221 0 107
0.6513 -0.352061 -0.080197 211 83 117
0.509495 -0.0979268 -0.250715 192 115 96
0.854698 -0.927532 -0.487547 236 9 65
0.581177 0.982891 -0.160223 202 253 107
0.453361 -0.927532 0.0103692 185 9 129
-0.813092 -0.983727 0.473483 24 2 188
-0.0824432 -0.946385 0.188407 117 7 152
-0.4814 -0.221985 -0.266048 66 99 94
0.676924 -0.91126 -0.628566 214 11 47
0.71791 -0.983727 0.113793 219 2 142
0.249337 -0.927532 0.363042 159 9 174
0.357306 -1 0.563523 173 0 199
-0.768831 -0.91126 0.288971 29 11 164
-0.344881 -0.334361 0.0116601 84 85 129
-0.637948 0.197108 -0.160385 46 153 107
0.343501 -0.423709 -0.160545 171 73 107
-0.487229 0.665608 0.0878898 65 212 139
-0.071917 -0.96783 0.78321 118 4 227
-0.185437 -0.91126 0.723311 104 11 220
0.550175 -0.983727 0.0130443 198 2 129
0.690123 -0.927532 0.428816 215 9 182
0.250813 -0.927532 -0.00352633 159 9 127
-0.815271 -0.91126 -0.691045 24 11 39
0.574122 0.194406 -0.158594 201 152 107
0.876622 -1 -0.779804 239 0 28
-0.0987487 -0.983727 -0.296397 115 2 90
-0.0951704 -1 0.743457 115 0 222
-0.5601 -0.927532 -0.725302 56 9 35
-0.571234 0.272579 0.0521533 55 162 134
-0.871277 -0.91126 0.429809 16 11 182
-0.526115 -0.253732 0.213935 60 95 155
0.477674 -0.983727 0.449078 188 2 185
0.0955895 -0.981139 0.799482 140 2 229
-0.294088 0.491819 -0.0509051 90 190 121
0.497038 -0.983727 -0.708527 191 2 37
-0.673665 -1 0.588872 42 0 203
-0.099614 -0.927532 -0.754215 115 9 31
0.661789 -0.91126 0.55401 212 11 198
0.627222 -0.91126 -0.780992 207 11 28
-0.0824765 -0.983727 0.347145 117 2 172
0.346731 -1 0.726353 172 0 220
-0.523282 -0.983727 -0.489574 61 2 65
-0.315786 -0.415876 -0.127858 87 74 111
-0.76963 -1 0.0888442 29 0 139
0.535586 0.40123 0.0859135 196 179 138
0.157425 -0.91126 0.771123 148 11 226
0.890347 -1 -0.655819 241 0 44
0.338596 -0.927532 -0.13459 171 9 110
0.0334451 -0.91126 0.578497 132 11 201
0.15605 -0.982995 -0.77816 147 2 28
-0.503837 -1 0.05427 63 0 134
-0.209794 -1 0.109369 101 0 141
0.0711822 -0.927532 0.451341 137 9 185
-0.595814 -0.983727 -0.766585 52 2 30
0.63849 -0.983727 -0.335878 209 2 85
-0.325425 0.206218 -0.0553952 86 154 120
-0.573626 -0.932383 0.799482 54 9 229
-0.816905 -0.983727 0.543544 23 2 197
-0.31353 0.681488 -0.0924328 88 214 116
0.198985 -0.91126 -0.613885 153 11 49
0.839039 -0.91126 -0.656699 234 11 44
0.243329 -0.927532 -0.732183 159 9 34
-0.415696 -0.561438 -0.346936 74 56 83
-0.218639 -0.927532 -0.694418 100 9 39
0.589145 -0.983727 -0.443187 203 2 71
-0.31327 0.72119 -0.080887 88 219 117
0.725259 -0.927532 0.656132 220 9 211
0.904922 -0.973417 -0.331506 243 3 85
0.610121 -0.983727 -0.656195 205 2 44
-0.641666 -0.927532 0.245202 46 9 159
-0.273522 -1 0.767556 93 0 225
0.343761 -0.859555 0.321963 171 18 169
-0.869943 -0.927532 0.546343 17 9 197
-0.0235146 -0.927532 -0.468791 125 9 68
-0.648323 0.388107 -0.109722 45 177 114
0.776038 -1 -0.146049 226 0 109
-0.426006 -0.251204 0.187586 73 95 151
0.0986749 -0.983727 0.336886 140 2 170
-0.609154 -0.247317 0.0581504 50 96 135
-0.392756 -0.91126 0.278635 77 11 163
-0.315676 -0.91126 0.757181 87 11 224
0.0517263 -0.927532 0.304727 134 9 166
0.719703 -0.927532 -0.0503618 219 9 121
0.433336 -0.927532 -0.408522 183 9 75
-0.407177 -0.91126 0.485836 76 11 189
-0.442242 -1 0.639148 71 0 209
0.407568 -1 0.249753 179 0 159
0.787314 -1 0.354706 228 0 173
0.492204 -0.225423 0.0816343 190 99 138
-0.756379 -1 0.231994 31 0 157
-0.516265 -0.963679 0.219847 62 5 156
0.170616 -1 0.0636723 149 0 136
-0.549061 -0.927532 -0.749104 57 9 32
0.196125 -0.91126 -0.771653 153 11 29
0.223278 -1 -0.343002 156 0 84
-0.787297 -0.953285 -0.103269 27 6 114
-0.371186 0.474095 -0.128785 80 188 111
-0.363304 -0.91126 0.440709 81 11 184
0.324841 0.66272 -0.11388 169 212 113
-0.316873 0.681319 -0.0328066 87 214 123
0.480296 -1 0.756436 189 0 224
0.302654 -0.91126 0.591407 166 11 203
-0.412646 0.112151 0.15403 75 142 147
0.265763 -0.927532 -0.296418 161 9 90
0.289121 -0.91126 0.755216 164 11 224
0.464754 -1 -0.445165 187 0 71
-0.31707 -0.972281 0.127973 87 4 144
-0.426754 -0.714292 0.205819 73 36 154
0.904922 -0.931402 -0.0524271 243 9 121
0.0431427 -0.943351 0.78321 133 7 227
0.352579 0.627843 -0.260036 172 208 94
-0.587103 -0.983727 -0.702086 53 2 38
-0.0938661 -0.910039 0.13358 116 11 145
0.44262 -0.91126 -0.561265 184 11 56
0.837428 -0.983727 -0.415734 234 2 74
0.401038 -0.592337 -0.206604 179 52 101
-0.47202 -1 -0.366312 67 0 81
0.401964 0.914392 -0.154415 179 244 108
-0.227556 -0.91126 -0.714673 98 11 36
-0.142706 -0.875484 0.150267 109 16 147
0.660588 -0.352088 -0.0987677 212 83 115
-0.560502 -0.91126 0.715057 56 11 219
-0.0425822 -1 -0.0792848 122 0 117
-0.485329 -0.91126 -0.642635 66 11 46
-0.0399715 -0.927532 -0.348151 122 9 83
0.553343 0.267586 -0.197372 198 162 102
0.233659 -0.983727 -0.376462 157 2 80
0.506164 -0.983727 -0.466038 192 2 68
-0.569759 0.915947 0.0490022 55 244 134
-0.487476 -0.983727 -0.496179 65 2 64
0.752828 -0.983727 -0.40282 223 2 76
0.547314 0.110151 0.00949874 197 142 129
0.247833 -0.983727 -0.406912 159 2 76
-0.0457556 -0.91126 -0.422125 122 11 74
-0.610041 0.746445 0.0713659 50 223 137
0.673255 -0.91126 -0.513222 213 11 62
0.3351 -0.839018 -0.401519 170 21 76
-0.0575903 -0.91126 0.293652 120 11 165
0.653659 -0.927532 0.140302 211 9 145
-0.609457 0.191189 -0.155918 50 152 108
-0.323793 0.642912 -0.0944016 86 209 115
0.189846 -0.983727 0.334302 152 2 170
0.456461 0.112501 0.0620206 186 142 135
-0.826664 -0.927532 0.186289 22 9 151
-0.407306 -0.983727 -0.559 76 2 56
0.190066 -0.983727 0.187227 152 2 151
-0.622905 -0.950658 0.799482 48 6 229
-0.289914 -0.456864 -0.128801 91 69 111
-0.304701 -0.871326 0.223115 89 16 156
0.237372 -0.927532 0.668189 158 9 213
-0.903527 -0.99382 0.155762 12 1 147
0.580163 -0.167308 -0.0685497 201 106 119
-0.396267 -0.91126 -0.644467 77 11 45
-0.655212 -0.927532 0.381026 44 9 176
-0.644968 0.27821 -0.13756 45 163 110
0.342502 0.397046 -0.155184 171 178 108
0.90167 -0.913875 0.217283 242 11 155
-0.250276 -0.974637 0.04438 96 3 133
0.508021 -0.821017 -0.248185 192 23 96
-0.43569 0.828415 -0.171272 72 233 106
0.811555 -1 -0.781411 231 0 28
0.593735 -1 0.781378 203 0 227
-0.816177 -0.91126 -0.332689 23 11 85
-0.112589 -0.764082 -0.109548 113 30 114
0.53717 -0.983727 0.172551 196 2 150
0.593394 -0.927532 -0.583942 203 9 53
0.617643 0.896435 -0.0456936 206 242 122
0.564992 -0.927532 -0.672907 200 9 42
-0.0177894 -0.911029 0.0607915 125 11 135
0.427352 -0.91126 0.594727 182 11 203
0.151117 -1 0.134982 147 0 145
-0.263739 -1 -0.543725 94 0 58
-0.280735 -0.927532 0.517538 92 9 193
0.614803 -0.927532 0.481118 206 9 189
-0.252882 -0.983727 0.306962 95 2 167
0.528009 0.453036 -0.260852 195 185 94
-0.774194 -0.91126 -0.517639 29 11 62
-0.0730805 -0.927532 0.354656 118 9 173
-0.88745 -0.980538 -0.246004 14 2 96
-0.603027 -1 -0.690427 51 0 39
-0.352261 -0.542619 0.116592 83 58 142
0.00687493 -0.983727 -0.716657 128 2 36
0.54933 -0.125138 0.105445 198 112 141
-0.813771 -0.927532 0.549367 24 9 198
0.375097 -0.927532 0.371689 175 9 175
-0.462952 0.882293 0.0660809 68 240 136
-0.300833 0.598484 -0.0240478 89 204 124
0.586124 -0.910975 -0.389266 202 11 78
0.628033 -0.0120166 0.0428495 208 126 133
-0.113383 -0.976087 -0.103971 113 3 114
-0.321833 -0.581017 0.0911277 86 53 139
0.452592 -0.240374 -0.33963 185 97 84
-0.360661 0.72241 -0.143461 82 220 109
-0.405792 0.572181 -0.156798 76 200 108
0.57915 -0.91126 -0.695098 201 11 39
0.301546 -0.854298 -0.208808 166 19 101
0.0471668 -0.91126 0.272872 134 11 162
-0.430827 -0.927532 0.613796 73 9 206
0.419156 0.486304 -0.322712 181 190 86
0.511223 -1 0.540508 193 0 196
-0.767327 -0.91126 0.661015 30 11 212
-0.650225 -0.44636 0.0152915 45 71 129
0.311086 -0.983727 -0.298824 167 2 89
-0.0508272 -0.983727 -0.200501 121 2 102
-0.4479 -1 0.382307 70 0 176
0.44336 -0.7412 -0.241353 184 33 97
-0.360015 -1 0.330551 82 0 170
0.770162 -0.983727 -0.689694 226 2 40
