ply
format ascii 1.0
comment Created by Open3D
element vertex 1205
property double x
property double y
property double z
property uchar red
property uchar green
property uchar blue
end_header
-0.53363 0.915343 -0.109841 59 244 113
0.386452 -0.630569 0.101705 177 47 140
0.752615 -0.565478 0.0263429 223 55 131
-0.598024 -0.604549 -0.183068 51 50 104
0.370205 0.0672577 -0.240023 175 136 97
0.305114 0.33766 0.17266 166 171 150
0.256296 -0.614297 -0.057892 160 49 120
-0.231588 -0.614297 -0.0284773 98 49 124
-0.63057 -0.53064 -0.117977 47 60 112
0.317358 -0.166796 -0.248159 168 106 96
-0.353933 -0.533442 0.109841 82 59 142
0.467842 -0.288841 0.0643386 187 91 136
-0.459706 -0.23733 0.207478 69 97 154
-0.63057 0.240023 0.026219 47 158 131
-0.603235 0.752615 0.0691593 51 223 136
-0.196243 -0.711933 -0.296978 102 37 90
0.28518 0.42716 0.0284774 164 182 131
-0.109841 -0.870895 0.085432 113 16 138
0.638706 0.898147 -0.0854319 209 242 117
0.410887 -0.362069 0.0721798 180 81 137
0.402751 0.711933 0.0609356 179 218 135
-0.768888 -0.91126 -0.256296 29 11 95
-0.141229 -0.939752 -0.280705 109 8 92
-0.370327 0.793297 0.00406827 80 229 128
0.56745 0.296978 -0.0284773 200 165 124
0.478652 0.142387 0.0610229 189 146 135
-0.652113 0.150523 -0.0772955 44 147 118
0.419023 0.109841 0.0621468 181 142 135
0.338204 0.475978 0.158659 171 188 148
-0.524797 -0.777024 -0.294657 61 28 90
-0.36215 0.42716 -0.126114 81 182 111
0.329523 0.752615 -0.165669 170 223 106
-0.657922 -0.00406815 -0.0691592 44 127 119
0.231647 -0.378342 0.13425 157 79 145
-0.402751 0.549206 0.0674183 76 198 136
0.345796 -0.793297 0.196938 172 26 153
-0.777025 -0.983727 -0.0366136 28 2 123
0.188514 0.150523 -0.126114 152 147 111
0.557342 -0.296978 -0.333614 199 90 85
0.565478 0.42716 0.0332721 200 182 132
-0.671252 -0.547432 0.109841 42 58 142
0.60616 -0.0122045 0.0126468 205 126 129
-0.655682 -0.0854319 -0.109841 44 117 113
-0.642369 -0.980434 -0.0854319 46 2 117
-0.598024 -0.654979 0.211269 51 44 154
0.524796 0.0325703 -0.183068 194 132 104
0.706666 -0.654979 -0.0935683 218 44 116
0.557342 0.38655 -0.0528864 199 177 121
0.379149 -0.711933 0.142387 176 37 146
-0.638706 -0.931616 -0.31601 46 9 87
-0.33766 0.841337 -0.0935683 84 235 116
0.711933 -0.598024 0.100176 218 51 140
-0.760752 -0.842115 -0.0965324 31 20 115
0.654979 -0.524796 -0.198119 211 61 102
0.345796 0.109841 0.0533851 172 142 134
-0.548802 -0.663115 0.183069 58 43 151
0.284857 -0.833979 0.166796 164 21 149
-0.598024 0.0772957 -0.206532 51 137 101
-0.623918 -0.703797 -0.199341 48 38 102
-0.419024 0.345796 -0.143542 74 172 109
0.378341 -0.174932 -0.334095 176 105 85
-0.470799 0.475978 -0.142387 67 188 109
0.378341 -0.402751 -0.202231 176 76 102
-0.544013 -0.402751 -0.305114 58 76 89
-0.370206 0.638706 0.0302474 80 209 131
-0.305115 -0.942563 -0.353932 89 7 82
-0.199342 -0.679388 -0.0365924 102 41 123
-0.606161 0.679388 -0.0555239 50 214 120
-0.361693 -0.00406815 0.0610229 81 127 135
-0.555449 0.272569 0.0610229 57 162 135
0.435296 0.467842 0.209268 183 187 154
0.532933 -0.4876 0.0772957 195 65 137
0.294196 -0.0203409 -0.0122045 165 125 126
0.381446 -0.288841 0.158659 176 91 148
0.402751 0.858388 0.0164528 179 237 130
-0.63057 0.728206 -0.00162321 47 220 127
0.386478 0.191205 -0.203469 177 152 102
-0.548928 0.931616 0.0284774 58 246 131
0.589887 0.622408 -0.0772955 203 207 118
0.410887 0.785161 0.0411066 180 228 133
-0.565479 0.158659 -0.194384 55 148 103
-0.66183 -0.451569 0.085432 43 70 138
-0.514482 -0.589888 0.183069 62 52 151
0.672131 -0.850252 -0.0528864 213 19 121
0.394614 0.931616 -0.146938 178 246 109
-0.687524 -0.728037 -0.142387 40 35 109
0.589887 -0.248159 -0.234362 203 96 98
-0.402751 -0.202857 0.174932 76 102 150
0.443433 0.0284774 -0.232157 184 131 98
-0.417402 -0.101705 -0.183068 74 115 104
-0.353566 -0.0935683 0.0447501 82 116 133
-0.459706 -0.288841 -0.278219 69 91 92
0.638223 -0.850252 -0.13425 209 19 110
-0.492251 0.552512 -0.150523 65 198 108
0.616092 0.573615 -0.0122045 206 201 126
-0.672127 -0.573615 -0.0203409 42 54 125
-0.475036 0.752615 0.085432 67 223 138
-0.357218 -0.370205 0.0122046 82 80 129
-0.602737 -0.240023 0.101705 51 97 140
-0.630607 0.435296 -0.0935683 47 183 116
0.758844 -0.51666 -0.04475 224 62 122
-0.297717 0.24816 -0.00406815 90 159 127
0.630569 -0.763844 -0.142387 208 30 109
-0.399536 -0.679388 -0.305114 77 41 89
-0.373842 -0.04475 0.0935684 80 122 139
0.549206 -0.0122045 0.0887444 198 126 139
0.60616 -0.60616 -0.190269 205 50 103
0.679388 -0.91126 0.0122046 214 11 129
-0.606161 0.0284774 -0.18226 50 131 104
0.378341 0.707683 -0.174932 176 218 105
-0.492251 -0.199341 0.18035 65 102 150
-0.705046 -0.874661 0.0284774 38 16 131
0.333981 0.711933 -0.0366136 170 218 123
0.547623 -0.288841 0.020341 197 91 130
0.49678 -0.126114 -0.280705 191 111 92
-0.89907 -0.947888 -0.798987 13 7 26
-0.341772 -0.410887 -0.174932 84 75 105
0.674659 0.744479 -0.0122045 214 222 126
-0.524797 0.768888 0.110349 61 226 142
-0.63057 -0.22375 -0.0525164 47 99 121
0.31325 -0.321387 0.0296173 167 87 131
0.174932 -0.565478 -0.0654297 150 55 119
0.597605 -0.329523 -0.0203409 204 85 125
0.42951 -0.484115 0.0528866 182 66 134
0.318555 -0.296978 -0.0610228 168 90 120
-0.654979 -0.817706 -0.229698 44 23 98
-0.381394 -0.329523 0.0691593 79 85 136
-0.323355 0.0447501 0.085432 86 133 138
0.296978 0.744479 -0.081053 165 222 117
0.573615 -0.169331 -0.0366136 201 106 123
0.320587 -0.288841 -0.126114 168 91 111
-0.647941 0.646842 0.0122046 45 210 129
0.541069 -0.142387 0.157369 196 109 148
-0.524797 0.305114 0.085616 61 166 138
0.405328 0.817706 -0.158659 179 232 107
-0.532933 -0.272569 0.188382 60 93 152
0.410887 -0.215614 -0.335118 180 100 85
0.31325 -0.801772 -0.166796 167 25 106
-0.654979 0.231887 -0.0796956 44 157 117
-0.356547 0.158659 0.0935684 82 148 139
-0.42716 -0.0203409 -0.171577 73 125 106
-0.598024 -0.305114 0.159229 51 89 148
0.510758 -0.04475 0.0935684 193 122 139
0.47052 0.89907 -0.174932 187 242 105
-0.663115 -0.975186 0.109841 43 3 142
-0.634904 -0.13425 -0.13425 47 110 110
0.557342 0.109841 -0.127709 199 142 111
0.598024 0.280705 -0.095895 204 163 115
-0.549206 0.508524 -0.144255 57 192 109
-0.402751 -0.280705 0.177964 76 92 150
-0.36633 -0.13425 -0.04475 81 110 122
0.51666 0.150523 0.0312216 193 147 131
-0.366642 -0.0528864 -0.04475 81 121 122
0.598024 0.80957 -0.155824 204 231 108
-0.316602 0.126114 -0.0122045 87 144 126
-0.604516 -0.980434 -0.166796 50 2 106
0.638706 0.768888 -0.111743 209 226 113
-0.646842 0.109841 -0.122917 45 142 112
0.532933 0.744169 -0.166796 195 222 106
-0.293752 -0.532933 -0.22375 90 60 99
0.557342 -0.441021 0.0528866 199 71 134
0.573615 -0.207478 -0.0795258 201 101 117
-0.24816 -0.890934 -0.359403 96 14 82
-0.599652 -0.638706 -0.117977 51 46 112
-0.785161 -0.980434 -0.119199 27 2 112
-0.386892 -0.0528864 -0.0935683 78 121 116
0.672933 -0.842115 0.0610229 213 20 135
-0.524797 0.598024 0.0800668 61 204 138
0.253584 -0.882797 -0.142387 160 15 109
-0.402751 -0.524796 0.121382 76 61 143
-0.648821 -0.42716 -0.00406815 45 73 127
0.63937 -0.402751 -0.0284773 209 76 124
0.362225 -0.248159 0.126114 174 96 144
-0.350236 0.199341 -0.0122045 83 153 126
0.574751 0.614297 -0.126114 201 206 111
0.166796 -0.475978 -0.0339355 149 67 123
-0.688355 -0.654979 -0.0691592 40 44 119
-0.636733 0.313251 -0.109841 46 167 113
-0.557342 0.386478 0.0750838 56 177 137
0.443433 -0.402751 -0.243724 184 76 96
-0.166796 -0.858388 -0.345625 106 18 83
0.492251 -0.248159 0.044444 190 96 133
-0.329524 0.2439 -0.0691592 85 159 119
-0.598024 -0.850252 0.176718 51 19 150
-0.484115 0.927572 -0.117977 66 246 112
-0.351412 0.0772957 0.0447501 83 137 133
-0.33766 -0.298625 -0.0772955 84 89 118
-0.540469 -0.638706 -0.183068 59 46 104
0.329523 0.573615 0.01968 170 201 130
-0.304682 0.475978 0.0284774 89 188 131
-0.481187 -0.475978 0.191205 66 67 152
0.345796 -0.484115 -0.119697 172 66 112
0.221976 0.0772957 -0.215614 156 137 100
0.386478 0.174932 0.0885743 177 150 139
0.410887 -0.487591 -0.215614 180 65 100
-0.532933 -0.703797 0.19062 60 38 152
0.60616 -0.248048 -0.13425 205 96 110
0.887602 -0.980434 -0.744479 241 2 33
0.179501 0.240023 -0.0284773 150 158 124
-0.508524 -0.0528864 -0.208583 63 121 101
-0.676579 0.362069 -0.0691592 41 174 119
0.459705 0.671252 -0.181191 186 213 104
-0.451569 0.183069 0.137444 70 151 145
-0.386478 -0.24344 0.158659 78 96 148
0.748726 -0.532933 -0.13425 223 60 110
0.451569 0.264432 0.0946324 185 161 140
0.565478 -0.91125 -0.508524 200 11 63
-0.467842 -0.752615 -0.277182 68 32 92
0.251074 -0.760752 -0.296978 160 31 90
-0.524068 -0.508524 0.191205 61 63 152
-0.532933 -0.329523 -0.296596 60 85 90
-0.51666 -0.638706 -0.27262 62 46 93
-0.367232 -0.126114 -0.0935683 81 111 116
-0.633919 -0.931616 0.142387 47 9 146
0.532933 0.817706 0.0487493 195 232 134
-0.101705 -0.764182 -0.0935683 115 30 116
0.422684 -0.0854319 0.0528866 181 117 134
0.414681 0.581751 0.13425 180 202 145
-0.508524 -0.739753 0.231887 63 33 157
0.305114 -0.362069 -0.00768545 166 81 127
0.363901 0.858388 -0.00406815 174 237 127
-0.231887 -0.576175 -0.0935683 98 54 116
-0.145672 -0.711933 -0.109841 109 37 113
-0.381176 0.728206 -0.13425 79 220 110
-0.541069 -0.0122045 0.126826 59 126 144
-0.581751 0.760752 -0.0641989 53 224 119
-0.366589 0.687524 -0.126114 81 215 111
0.00903515 -0.89907 -0.117977 129 13 112
-0.598024 0.158659 0.0423117 51 148 133
0.679388 -0.565478 -0.162826 214 55 107
-0.72007 -0.825843 -0.148692 36 22 109
0.502162 -0.842115 -0.272569 192 20 93
-0.443433 -0.443433 0.155642 71 71 147
-0.0691594 -0.831801 -0.0610228 119 21 120
0.191626 0.215614 0.0528866 152 155 134
-0.329979 0.00406827 -0.00406815 85 128 127
-0.244542 -0.598024 -0.256296 96 51 95
-0.386478 -0.321387 0.155228 78 87 147
-0.622433 -0.292654 0.0284774 48 90 131
-0.357525 -0.443433 0.101705 82 71 140
-0.101705 -0.833979 -0.00886735 115 21 126
-0.348991 -0.0528864 0.0284774 83 121 131
-0.652673 0.484115 0.0447501 44 189 133
-0.325508 0.606161 -0.0772955 86 205 118
0.345796 -0.0203409 0.0330767 172 125 132
-0.386478 0.191205 -0.0965274 78 152 115
-0.386096 -0.370205 0.0935684 78 80 139
-0.341368 -0.101705 0.085432 84 115 138
0.500387 0.388709 0.117978 191 177 143
0.467842 -0.166796 -0.330495 187 106 85
0.42716 0.353933 -0.198418 182 173 102
-0.296978 -0.87277 0.22375 90 16 156
-0.508524 0.231887 -0.16214 63 157 107
0.495613 0.663115 -0.158659 191 212 107
-0.614297 -0.863961 -0.288841 49 17 91
-0.549206 -0.499658 -0.280705 57 64 92
0.499147 -0.671251 0.183069 191 42 151
-0.451569 -0.896279 0.24816 70 13 159
0.362069 -0.0854319 0.0264293 174 117 131
0.274549 0.394614 -0.04475 163 178 122
-0.435297 -0.630569 0.205221 72 47 154
-0.614297 0.150523 -0.158084 49 147 107
0.467842 0.33766 0.123306 187 171 143
0.549016 0.386478 -0.101705 197 177 115
0.294056 -0.72007 0.00406827 165 36 128
-0.114326 -0.785161 -0.256296 113 27 95
-0.305115 0.32479 -0.04475 89 169 122
-0.567372 -0.671251 -0.248159 55 42 96
-0.0168294 -0.89907 -0.231887 125 13 98
-0.117978 -0.833979 -0.245724 112 21 96
0.443033 0.557342 -0.256296 184 199 95
-0.435297 -0.528237 0.183069 72 60 151
-0.166796 -0.764933 -0.305114 106 30 89
-0.42716 -0.374642 0.191205 73 80 152
-0.501892 -0.549206 0.207478 64 57 154
0.508524 -0.183068 0.126328 192 104 144
-0.289387 -0.565478 -0.0366136 91 55 123
0.321387 0.174932 0.0858721 168 150 138
0.303385 -0.215614 -0.0935683 166 100 116
-0.622433 -0.890934 0.156102 48 14 147
-0.432063 -0.435296 0.199341 72 72 153
0.339436 -0.524796 0.0122046 171 61 129
0.443433 -0.0772955 -0.300163 184 118 89
0.581751 -0.882797 -0.205887 202 15 101
-0.223751 -0.760752 0.0667155 99 31 136
-0.435297 -0.272569 0.206101 72 93 154
-0.364658 -0.557342 -0.33766 81 56 84
-0.353933 -0.711933 -0.364306 82 37 81
-0.313251 0.638551 -0.0122045 88 209 126
-0.573615 -0.565478 0.224868 54 55 156
-0.622433 0.565479 0.0783519 48 200 137
0.328579 -0.126114 -0.313251 169 111 88
0.581751 -0.671251 0.203573 202 42 153
-0.638706 -0.589888 0.180487 46 52 151
-0.336173 0.687524 -0.0935683 85 215 116
0.069159 -0.972297 -0.00361212 136 4 127
-0.410887 -0.939752 -0.335463 75 8 85
-0.614297 -0.256296 -0.189934 49 95 103
0.330016 0.532933 -0.117977 170 195 112
0.646842 -0.72007 -0.120437 210 36 112
-0.400434 0.158659 -0.126114 76 148 111
0.573615 -0.101705 0.0847761 201 115 138
-0.654979 0.356897 0.020341 44 173 130
-0.415196 -0.565478 0.150523 75 55 147
-0.451569 -0.0805047 0.191205 70 117 152
0.250204 -0.777024 -0.386478 159 28 78
-0.161617 -0.711933 -0.0528864 107 37 121
-0.376457 0.915343 -0.0284773 80 244 124
0.668002 0.695661 0.0528866 213 216 134
-0.646842 -0.60809 0.142387 45 50 146
-0.557342 -0.747729 -0.264432 56 32 94
0.565962 -0.117977 -0.174932 200 112 105
-0.337012 -0.410887 -0.0284773 85 75 124
-0.320538 0.565479 -0.0610228 87 200 120
-0.650612 0.435296 -0.0203409 45 183 125
0.598024 -0.492251 -0.240674 204 65 97
0.345796 -0.882797 -0.262548 172 15 94
-0.534491 -0.42716 0.191205 59 73 152
0.291905 0.703797 -0.117977 165 217 112
-0.305115 -0.573615 -0.271522 89 54 93
0.614297 -0.33766 -0.307148 206 84 88
-0.362069 -0.939752 -0.334079 81 8 85
-0.33766 -0.299218 -0.0284773 84 89 124
0.419023 0.744479 -0.16838 181 222 106
0.401692 -0.760752 -0.248159 179 31 96
-0.446227 0.549206 0.0772957 71 198 137
0.269912 -0.752615 -0.0203409 162 32 125
0.42716 -0.563916 -0.215614 182 56 100
-0.616369 -0.711933 0.207478 49 37 154
0.394614 -0.841329 0.321387 178 20 168
0.704254 0.0935684 -0.0366136 217 139 123
0.0289697 -0.939752 -0.174932 131 8 105
0.613148 0.581751 0.0935684 206 202 139
0.384735 -0.248159 -0.272569 177 96 93
0.180695 0.199341 -0.0854319 151 153 117
0.475978 -0.825843 0.347099 188 22 172
-0.330922 0.443433 0.0366137 85 184 132
-0.215614 -0.890934 0.202797 100 14 153
0.760751 -0.638706 0.0718095 224 46 137
-0.626418 -0.174932 -0.183068 48 105 104
-0.402751 0.280705 0.10043 76 163 140
-0.328421 -0.72007 0.126114 86 36 144
0.370205 0.386478 0.190391 175 177 152
-0.549206 0.475978 0.0716913 57 188 137
-0.349166 0.158659 0.00406827 83 148 128
-0.473126 0.020341 -0.199341 67 130 102
0.240023 0.695661 -0.217295 158 216 100
-0.251235 -0.646842 -0.00406815 95 45 127
0.243629 0.345796 0.0691593 159 172 136
-0.636152 -0.459705 -0.0854319 46 69 117
0.581751 0.890934 -0.182977 202 241 104
0.679388 -0.638706 -0.123984 214 46 112
0.344534 -0.451569 -0.158659 171 70 107
0.402751 -0.0122045 0.0473839 179 126 134
-0.301791 -0.817706 0.191205 89 23 152
-0.390153 -0.288841 0.0935684 78 91 139
-0.247192 -0.679388 0.0366137 96 41 132
-0.381198 -0.166796 0.085432 79 106 138
0.234842 -0.866524 0.13425 157 17 145
0.462173 -0.0122045 0.0528866 186 126 134
-0.345796 -0.0857764 -0.0284773 83 117 124
-0.695661 -0.646842 0.0180891 39 45 130
0.557342 -0.565478 -0.216251 199 55 100
-0.598024 -0.55874 -0.199341 51 56 102
-0.459706 0.51666 -0.14303 69 193 109
0.451569 -0.72007 0.191599 185 36 152
-0.366382 0.362069 -0.0772955 81 174 118
-0.42716 -0.423066 -0.313251 73 74 88
-0.305115 -0.614517 -0.329523 89 49 85
-0.0447503 -0.939752 0.119528 122 8 143
-0.336524 -0.451569 0.0122046 85 70 129
0.467586 -0.0854319 0.085432 187 117 138
-0.507322 0.101705 -0.199341 63 140 102
0.435296 -0.402751 0.0646119 183 76 136
-0.717548 -0.768888 -0.0122045 36 29 126
-0.0621384 -0.931616 -0.305114 120 9 89
0.389854 0.492251 -0.248159 177 190 96
0.589887 -0.254611 -0.0366136 203 95 123
0.579872 -0.907206 0.272569 201 12 162
0.706192 -0.402751 -0.158659 218 76 107
-0.629732 0.598024 -0.0366136 47 204 123
-0.654979 -0.524796 0.14157 44 61 146
0.662631 0.0691593 -0.0284773 212 136 124
0.33766 -0.28968 0.00406827 171 91 128
0.272568 -0.313251 0.13245 162 88 144
0.557342 -0.760369 -0.174932 199 31 105
-0.765693 -0.866524 -0.183068 30 17 104
0.500387 0.0691593 0.0245266 191 136 131
0.565478 0.467842 0.076184 200 187 137
-0.589888 -0.614297 0.198872 52 49 153
-0.353933 0.394455 0.085432 82 178 138
0.622433 0.150523 -0.119277 207 147 112
-0.467842 -0.0610228 -0.216419 68 120 100
0.42716 0.850252 -0.17441 182 236 105
-0.459706 -0.970219 -0.362069 69 4 81
-0.564893 -0.817706 0.183069 55 23 151
0.321754 -0.524796 -0.109841 169 61 113
0.565478 0.858388 0.0177932 200 237 130
0.67016 -0.353932 -0.256296 213 82 95
0.484114 -0.402751 0.0639816 189 76 136
-0.589888 -0.296978 -0.234817 52 90 98
-0.589888 -0.858388 0.216924 52 18 155
-0.565479 0.728206 0.107891 55 220 141
-0.687524 -0.825843 -0.199826 40 22 102
0.326881 0.581751 -0.0610228 169 202 120
0.370205 0.394614 -0.174766 175 178 105
-0.133073 -0.89907 -0.33766 111 13 84
0.744105 -0.654979 -0.0366136 222 44 123
-0.451569 0.671252 0.0728597 70 213 137
0.488352 -0.215614 0.101705 190 100 140
0.528578 0.345796 0.0447501 195 172 133
-0.606816 -0.0528864 -0.00406815 50 121 127
0.581101 -0.117977 -0.0691592 202 112 119
-0.627406 0.598024 0.0284774 48 204 131
-0.273583 -0.760752 0.109841 93 31 142
0.332536 -0.402751 -0.126114 170 76 111
-0.581157 -0.419024 0.174932 53 74 150
-0.646842 0.549206 -0.0685583 45 198 119
0.312451 -0.215614 -0.174932 167 100 105
-0.581751 0.443433 0.0756147 53 184 137
-0.35677 0.020341 -0.0691592 82 130 119
-0.492251 0.191205 0.106578 65 152 141
-0.329524 -0.760752 -0.332003 85 31 85
0.353932 0.557342 0.0910646 173 199 139
-0.589888 -0.825843 -0.257182 52 22 95
-0.320883 0.402751 0.020341 87 179 130
-0.508524 0.833882 0.101705 63 234 140
-0.358272 -0.443433 -0.280705 82 71 92
0.60616 0.183069 -0.147372 205 151 109
-0.339375 -0.402751 0.0528866 84 76 134
-0.247618 -0.565478 -0.13425 96 55 110
0.664045 -0.842115 0.150523 212 20 147
-0.517473 -0.890934 0.207478 62 14 154
-0.321387 0.153687 0.0691593 87 147 136
0.337541 -0.850252 -0.345796 171 19 83
0.541069 -0.443433 -0.256765 196 71 95
0.362069 0.999405 -0.00406815 174 255 127
-0.63765 -0.402751 -0.0528864 46 76 121
-0.51666 0.345796 -0.164922 62 172 106
-0.160732 -0.760752 -0.231887 107 31 98
-0.0893207 -0.793297 -0.13425 116 26 110
-0.570203 0.109841 0.0528866 55 142 134
-0.378342 -0.0772955 0.162461 79 118 148
0.280705 0.850252 -0.0169446 163 236 125
-0.549206 0.394614 -0.144875 57 178 109
-0.598024 0.524797 0.0830189 51 194 138
-0.406219 0.793297 0.0366137 76 229 132
0.288942 -0.801433 -0.353932 164 25 82
-0.492251 -0.829618 -0.313251 65 22 88
0.638706 0.695661 -0.0678164 209 216 119
-0.42716 -0.609064 -0.33766 73 50 84
0.305114 0.467842 -0.07056 166 187 119
0.329523 0.305114 0.149505 170 166 147
0.557342 0.346653 0.00406827 199 172 128
0.62438 -0.882797 0.215614 207 15 155
-0.638706 0.280705 0.028042 46 163 131
0.51666 0.581751 0.184148 193 202 151
-0.532933 -0.557342 -0.294284 60 56 90
-0.504998 0.109841 0.117978 63 142 143
0.288841 0.256296 0.128071 164 160 144
0.663115 -0.909229 0.0772957 212 12 137
-0.649904 0.394614 -0.0610228 45 178 120
0.231887 0.280705 -0.0775999 157 163 118
-0.611036 -0.370205 -0.101705 50 80 115
-0.174932 -0.793297 0.019354 105 26 130
-0.576985 -0.484115 -0.215614 54 66 100
-0.443433 0.345796 0.102994 71 172 141
0.345796 0.622433 -0.038033 172 207 123
0.3216 -0.248159 -0.117977 169 96 112
-0.63057 0.142409 0.00406827 47 146 128
-0.183069 -0.835975 0.101705 104 21 140
-0.410887 -0.126114 0.151882 75 111 147
-0.459706 -0.321387 0.1763 69 87 150
0.574398 -0.0122045 -0.0691592 201 126 119
0.678131 -0.768888 -0.0610228 214 29 120
-0.668967 0.321387 0.00406827 42 168 128
-0.475978 -0.158659 0.18981 67 107 152
0.069159 -0.97749 -0.04475 136 3 122
-0.72154 -0.736342 -0.0691592 36 34 119
-0.475978 -0.557342 0.175169 67 56 150
-0.310018 0.557342 0.0122046 88 199 129
0.636193 0.825843 0.00406827 209 233 128
0.37723 0.581751 -0.296978 176 202 90
-0.178118 -0.72007 -0.13425 105 36 110
0.252776 -0.842115 0.0772957 160 20 137
-0.492251 -0.142387 -0.252104 65 109 95
0.280644 -0.72007 -0.0772955 163 36 118
-0.629859 -0.248159 -0.13425 47 96 110
-0.117978 -0.768334 -0.0203409 112 30 125
-0.358364 0.0366137 0.0528866 82 132 134
-0.532933 -0.935174 0.24816 60 8 159
-0.297821 -0.833979 -0.329523 90 21 85
-0.353933 0.443433 -0.0890118 82 184 116
-0.645831 -0.402751 0.0366137 45 76 132
0.598024 -0.569488 -0.207478 204 55 101
0.484114 0.817706 0.0516216 189 232 134
-0.459706 0.264432 0.115149 69 161 142
0.33766 0.345796 -0.132833 171 172 111
0.663115 -0.931616 -0.78253 212 9 28
0.321387 -0.931616 0.78253 168 9 227
0.345796 0.313251 -0.171408 172 167 106
-0.500388 0.638706 -0.136505 64 209 110
-0.888015 -0.931616 -0.581751 14 9 53
-0.888015 -0.931616 -0.256296 14 9 95
-0.256296 -0.537966 -0.0772955 95 59 118
-0.646842 -0.679388 -0.131901 45 41 111
-0.573615 -0.345796 0.174438 54 83 150
-0.357921 0.0772957 0.085432 82 137 138
-0.353933 -0.791496 -0.353932 82 27 82
0.198993 0.020341 -0.199341 153 130 102
0.174932 -0.630569 -0.24784 150 47 96
0.372174 0.817706 -0.13425 175 232 110
-0.508524 -0.630569 0.181262 63 47 151
-0.0854498 -0.874661 -0.256296 117 16 95
-0.378342 -0.494267 0.13425 79 64 145
0.451569 -0.207478 -0.343843 185 101 84
0.319318 -0.362069 -0.0528864 168 81 121
-0.565479 -0.980434 0.782134 55 2 227
0.459705 -0.980434 -0.782134 186 2 28
0.573615 -0.850252 0.329907 201 19 170
0.402751 -0.0122045 -0.272689 179 126 93
-0.508524 -0.0858043 0.183069 63 117 151
0.887602 -0.980434 -0.22375 241 2 99
0.329523 0.0308837 -0.264432 170 131 94
0.171081 0.174932 -0.00406815 149 150 127
0.546737 0.532933 0.183069 197 195 151
0.51666 0.264432 -0.186825 193 161 104
-0.634839 -0.833979 0.191205 47 21 152
0.573615 0.381248 -0.0122045 201 176 126
0.278605 -0.72007 -0.126114 163 36 111
0.313717 -0.760752 0.0447501 167 31 133
-0.0528866 -0.825843 -0.125196 121 22 112
-0.555605 0.80957 -0.101705 57 231 115
0.221451 -0.874661 0.0447501 156 16 133
0.305114 0.00406827 -0.285893 166 128 91
-0.410887 0.72007 0.0383733 75 219 132
-0.361411 -0.0122045 -0.0366136 81 126 123
0.397497 0.345796 -0.166796 178 172 106
0.51925 -0.0772955 0.150523 194 118 147
-0.524797 0.475978 -0.139201 61 188 110
0.573615 -0.402751 0.0294516 201 76 131
-0.435297 0.101705 -0.159302 72 140 107
-0.240023 -0.724766 0.085432 97 35 138
-0.345796 0.0742142 -0.0284773 83 137 124
0.589887 -0.0772955 0.173807 203 118 150
0.561748 0.573615 -0.13425 199 201 110
-0.70817 -0.69566 -0.0528864 37 39 121
-0.386478 -0.126114 0.111999 78 111 142
-0.573615 0.0284774 0.0573178 54 131 135
-0.484115 0.305114 -0.164205 66 166 107
0.296978 0.931616 0.0292038 165 246 131
0.313857 -0.272569 0.166796 168 93 149
-0.359897 0.00406827 0.142387 82 128 146
0.345796 -0.910143 0.386478 172 11 177
0.22375 -0.589888 -0.189733 156 52 103
-0.459706 -0.362069 0.169831 69 81 149
-0.382531 0.109841 -0.0854319 79 142 117
-0.327051 0.777024 -0.0528864 86 227 121
0.283655 -0.679388 -0.0610228 164 41 120
0.53948 -0.907206 0.321387 196 12 168
-0.549206 -0.956025 -0.363635 57 6 81
-0.614297 -0.521398 -0.158659 49 61 107
0.447988 -0.207478 0.199341 185 101 153
-0.63057 -0.671673 -0.174932 47 42 105
0.467842 0.996707 -0.00623596 187 255 127
-0.581751 -0.736342 0.179824 53 34 150
0.467842 -0.573615 -0.229783 187 54 98
-0.679388 0.158659 -0.108132 41 148 114
0.347981 0.51666 0.126114 172 193 144
-0.659045 -0.0610228 -0.142387 43 120 109
0.492251 -0.565478 0.105904 190 55 141
0.438046 -0.907206 -0.435296 183 12 72
-0.670378 -0.817706 0.150523 42 23 147
0.373195 -0.882797 -0.321387 175 15 87
0.484114 0.703797 -0.175589 189 217 105
-0.362069 -0.340689 -0.22375 81 84 99
-0.214783 -0.72007 0.0122046 100 36 129
-0.467842 0.22375 -0.16587 68 156 106
0.557736 -0.215614 0.00406827 199 100 128
0.484114 0.785161 -0.181079 189 228 104
-0.272569 -0.785161 -0.366085 93 27 81
0.768888 -0.565496 -0.0122045 226 55 126
-0.24816 -0.671251 -0.3203 96 42 87
0.762947 -0.638706 0.020341 225 46 130
-0.581188 -0.630569 -0.231887 53 47 98
-0.394615 0.158659 0.123084 77 148 143
-0.524797 0.768888 -0.131337 61 226 111
0.484114 0.858388 0.0378279 189 237 132
-0.457099 -0.60616 -0.305114 69 50 89
-0.345796 0.804223 -0.126114 83 230 111
-0.378342 -0.971869 -0.362069 79 4 81
-0.874661 -0.915343 -0.797942 16 11 26
-0.581751 -0.459705 0.175527 53 69 150
-0.606161 -0.00406815 0.0277185 50 127 131
0.22375 -0.91126 0.280705 156 11 163
0.687524 0.22375 -0.179213 215 156 105
-0.532933 -0.199341 0.180949 60 102 151
-0.231887 -0.907206 -0.324289 98 12 86
-0.292685 0.51666 -0.0284773 90 193 124
-0.419024 0.935007 -0.0122045 74 247 126
-0.687524 -0.910529 0.13425 40 11 145
0.548234 0.435296 -0.305114 197 183 89
-0.459706 0.475978 0.0748774 69 188 137
0.272568 -0.91126 0.345796 162 11 172
-0.484115 0.72007 -0.139605 66 219 110
0.13425 -0.500387 -0.0267464 145 64 124
0.682863 -0.362069 -0.207478 215 81 101
-0.717609 -0.874661 0.0691593 36 16 136
-0.161771 -0.711933 -0.240023 107 37 97
0.623986 0.305114 -0.166796 207 166 106
0.394614 -0.915343 0.797942 178 11 229
-0.13425 -0.915343 -0.797942 110 11 26
-0.443433 -0.752615 0.181828 71 32 151
-0.0447503 -0.915343 0.797942 122 11 229
0.386478 -0.915343 -0.797942 177 11 26
0.736342 -0.915343 -0.797942 221 11 26
0.33766 -0.362069 -0.157665 171 81 107
-0.280705 -0.72007 -0.302124 92 36 89
-0.606161 -0.280705 0.102925 50 92 141
-0.67696 0.0772957 -0.101705 41 137 115
-0.0854322 -0.875781 -0.296978 117 16 90
-0.435297 0.777024 -0.170814 72 227 106
0.648361 -0.882797 0.150523 210 15 147
-0.524797 -0.158659 0.164765 61 107 149
-0.73188 -0.833979 0.020341 34 21 130
-0.329524 -0.983727 -0.777024 85 2 28
0.386478 -0.996707 -0.797271 177 0 26
0.13425 -0.983727 -0.777024 145 2 28
-0.386478 0.858388 -0.161378 78 237 107
0.199341 -0.983727 -0.777024 153 2 28
-0.638706 -0.996707 0.797271 46 0 229
0.0772954 -0.996707 0.797271 137 0 229
0.760751 -0.996707 0.797271 224 0 229
0.004068 -0.983727 0.777024 128 2 227
-0.15866 -0.996707 0.797271 107 0 229
-0.296978 -0.996707 0.797271 90 0 229
-0.777025 -0.996707 0.797271 28 0 229
0.728453 0.174932 -0.109841 220 150 113
0.451569 -0.72007 -0.224625 185 36 99
0.882797 -0.927532 0.72007 240 9 219
-0.882798 -0.927532 -0.736342 15 9 34
-0.903412 -0.915343 -0.654979 12 11 44
-0.903412 -0.915343 -0.183068 12 11 104
-0.078824 -0.825843 -0.240023 117 22 97
-0.378342 -0.716825 0.166796 79 36 149
0.557342 0.419024 -0.124107 199 181 112
-0.438599 -0.703797 0.215614 72 38 155
0.589887 -0.80957 -0.186439 203 24 104
-0.557342 -0.00406815 -0.229563 56 127 98
-0.666931 0.199341 -0.0203409 42 153 125
-0.338423 0.321387 0.0610229 84 168 135
0.882797 -0.983727 0.532933 240 2 195
-0.902759 -0.996707 0.33766 12 0 171
0.902759 -0.996707 0.199341 243 0 153
0.902759 -0.996707 0.117978 243 0 143
-0.902759 -0.996707 0.475978 12 0 188
0.902759 -0.996707 -0.378342 243 0 79
0.902759 -0.996707 -0.296978 243 0 90
0.651871 0.654979 0.085432 211 211 138
0.22375 -0.69566 -0.178129 156 39 105
-0.150523 -0.89907 0.164484 108 13 148
0.451662 0.410887 -0.248159 185 180 96
-0.345796 0.87989 -0.101705 83 240 115
0.246343 -0.646842 -0.101705 159 45 115
-0.573615 0.42716 -0.148779 54 182 109
-0.264433 -0.930869 -0.362069 94 9 81
0.240023 -0.72007 -0.347566 158 36 83
-0.397347 -0.248159 0.117978 77 96 143
-0.0402521 -0.874661 -0.00406815 122 16 127
-0.0254036 -0.907206 -0.0528864 124 12 121
0.166796 0.117978 -0.117139 149 143 113
0.622433 -0.799184 0.288841 207 26 164
0.621962 -0.0528864 0.126114 207 121 144
-0.247945 -0.60616 -0.0691592 96 50 119
-0.362069 -0.158659 0.136126 81 107 145
-0.300707 -0.557342 0.0447501 89 56 133
-0.33766 0.525948 0.0284774 84 195 131
0.654979 0.0447501 0.0868575 211 133 139
-0.524797 -0.256296 -0.259843 61 95 94
-0.150523 -0.825843 -0.328899 108 22 86
-0.42716 -0.541069 -0.343647 73 59 84
-0.296978 -0.524796 0.00052788 90 61 128
-0.33053 0.280705 0.0528866 85 163 134
-0.329524 -0.420291 -0.231887 85 74 98
-0.752615 -0.983727 0.0284774 32 2 131
0.532933 0.109841 0.0137592 195 142 129
0.72007 -0.492251 -0.189214 219 65 103
-0.654979 -0.863442 -0.256296 44 17 95
-0.599649 -0.166796 0.0610229 51 106 135
0.231887 0.183069 0.0577594 157 151 135
0.370205 -0.291997 -0.231887 175 90 98
0.603392 0.947888 -0.0772955 204 248 118
0.565478 -0.199341 -0.27093 200 102 93
-0.492251 0.0366137 0.13631 65 132 145
-0.402751 0.0772957 0.13338 76 137 145
-0.665509 -0.785161 -0.191205 43 27 103
-0.362069 -0.565478 0.085422 81 55 138
-0.626236 0.386478 -0.13425 48 177 110
0.22375 0.240023 -0.103414 156 158 114
-0.779266 -0.939752 -0.142387 28 8 109
-0.654438 0.467842 -0.0854319 44 187 117
-0.354466 -0.305114 0.085432 82 89 138
-0.419174 0.589888 -0.158659 74 203 107
-0.628503 -0.964161 0.0935684 47 5 139
0.296226 -0.801433 -0.419024 165 25 74
-0.359098 -0.329523 -0.0122045 82 85 126
-0.51666 0.910391 0.101705 62 244 140
-0.80957 -0.927532 0.777024 24 9 227
-0.888015 -0.931616 0.264432 14 9 161
-0.475978 -0.941137 -0.33766 67 8 84
0.358991 -0.850252 -0.451569 173 19 70
0.646842 -0.800892 -0.101705 210 25 115
-0.569568 0.882797 -0.0366136 55 240 123
-0.378342 -0.374375 -0.240023 79 80 97
0.459705 0.150523 -0.202156 186 147 102
-0.350739 -0.199341 0.101705 83 102 140
0.239157 0.0610229 -0.0203409 158 135 125
-0.532933 -0.60616 -0.254685 60 50 95
0.484114 0.589888 -0.180263 189 203 105
0.589887 -0.728206 -0.188217 203 35 104
-0.256296 -0.60616 -0.190611 95 50 103
-0.557342 0.728206 -0.110517 56 220 113
-0.636505 -0.638706 -0.101705 46 46 115
-0.524797 0.671252 -0.138555 61 213 110
-0.33766 -0.832179 -0.329523 84 21 85
-0.203126 -0.939752 0.191205 102 8 152
0.521249 -0.0854319 -0.22375 194 117 99
-0.401938 -0.0854319 -0.150523 76 117 108
-0.288842 -0.630569 0.0744449 91 47 137
-0.524797 -0.313251 0.186602 61 88 151
0.305114 -0.565478 -0.153099 166 55 108
-0.353933 0.565479 -0.106465 82 200 114
0.240023 -0.999707 0.793297 158 0 229
-0.599554 0.679388 0.0610229 51 214 135
-0.614297 0.475978 0.0485568 49 188 134
-0.109841 -0.939752 0.168425 113 8 149
-0.42716 -0.793297 -0.3077 73 26 88
0.205959 -0.736342 -0.321387 154 34 87
-0.63057 -0.793297 0.194202 47 26 152
0.31568 0.614297 -0.166796 168 206 106
0.582282 -0.166796 -0.117977 202 106 112
-0.443433 -0.33766 -0.267766 71 84 93
-0.199342 -0.684487 -0.248159 102 40 96
0.264432 0.240023 -0.139796 161 158 110
0.499382 0.386478 -0.264432 191 177 94
0.328671 -0.296978 -0.166796 169 90 106
-0.402751 -0.458243 0.166796 76 69 149
-0.235002 -0.793297 0.085432 98 26 138
-0.549206 -0.817706 -0.292328 57 23 90
-0.484115 -0.451569 -0.288526 66 70 91
-0.63057 -0.850252 0.154915 47 19 147
0.305114 -0.164353 -0.0610228 166 107 120
-0.744479 -0.931006 0.020341 33 9 130
-0.566494 -0.272569 0.166796 55 93 149
0.305114 -0.842115 -0.203752 166 20 102
-0.0610231 -0.904464 0.0691593 120 12 136
-0.63057 -0.357571 0.109841 47 82 142
-0.459706 -0.450004 -0.321387 69 70 87
-0.526849 -0.777024 0.207478 60 28 154
0.549206 -0.117977 -0.212044 198 112 100
-0.231887 -0.833979 -0.32196 98 21 86
0.557342 0.703797 -0.145119 199 217 109
-0.42716 -0.687524 -0.333927 73 40 85
-0.33766 -0.494151 0.0691593 84 64 136
-0.622433 -0.768888 0.164091 48 29 148
-0.625365 0.711933 -0.0366136 48 218 123
0.399499 -0.793297 0.256296 178 26 160
0.33766 0.972298 0.0428351 171 251 133
-0.313251 0.532933 -0.101835 88 195 115
0.402751 -0.329523 0.0918833 179 85 139
0.345796 0.467842 -0.144055 172 187 109
-0.145143 -0.711933 -0.183068 109 37 104
-0.342783 -0.199341 0.0610229 84 102 135
-0.280705 -0.758007 -0.329523 92 31 85
0.581751 -0.451569 -0.260816 202 70 94
-0.638068 -0.492251 -0.0366136 46 65 123
0.381659 -0.565478 0.0691593 176 55 136
0.0122043 -0.947135 0.0691593 129 7 136
-0.622433 0.394614 0.0320184 48 178 132
-0.557342 -0.386478 0.178227 56 78 150
-0.329524 -0.0181812 0.0447501 85 125 133
-0.451569 -0.795603 0.231887 70 26 157
-0.357634 0.370205 -0.117977 82 175 112
0.508524 -0.362069 -0.29219 192 81 90
-0.402751 -0.04475 0.14188 76 122 146
-0.565479 -0.500387 0.185764 55 64 151
-0.606161 -0.777024 -0.245283 50 28 96
-0.549206 -0.585225 0.199341 57 53 153
-0.305115 -0.939752 0.234695 89 8 157
0.260048 -0.362069 0.0610229 161 81 135
-0.636939 0.353933 -0.101705 46 173 115
-0.377342 -0.60616 0.126114 79 50 144
0.557342 -0.248159 -0.312274 199 96 88
0.555188 -0.0528864 -0.158659 198 121 107
-0.443433 -0.248697 -0.256296 71 96 95
-0.606161 0.790208 0.0610229 50 228 135
-0.386478 -0.793297 -0.315491 78 26 87
-0.371318 0.882797 -0.13425 80 240 110
0.581751 -0.638706 -0.196 202 46 103
-0.340847 0.280705 -0.0691592 84 163 119
-0.386478 -0.500387 -0.323745 78 64 86
-0.475978 0.915343 -0.157303 67 244 107
0.353932 -0.565478 -0.172531 173 55 106
-0.459706 0.589888 -0.157483 69 203 107
-0.589257 -0.0610228 0.0691593 52 120 136
0.321387 0.858388 -0.0892591 168 237 116
-0.470211 -0.638706 0.191205 68 46 152
0.51666 0.89907 -0.18267 193 242 104
0.368768 0.622433 -0.231887 175 207 98
-0.679388 -0.662724 0.0935684 41 43 139
0.459705 0.817706 -0.179829 186 232 105
-0.663115 0.0366137 -0.06696 43 132 119
0.17939 -0.687524 -0.248159 150 40 96
0.406503 0.467842 -0.22375 179 187 99
-0.524797 -0.410887 -0.270576 61 75 93
-0.0366139 -0.839873 -0.0854319 123 20 117
0.33766 -0.243602 -0.207478 171 96 101
0.715627 0.158659 -0.04475 219 148 122
-0.310087 0.166796 -0.0122045 88 149 126
-0.760752 -0.91126 -0.0122045 31 11 126
-0.565479 0.231887 0.0545982 55 157 134
0.438693 -0.296978 0.0935684 183 90 139
-0.780355 -0.931616 -0.199341 28 9 102
0.219193 -0.882797 -0.04475 155 15 122
-0.330023 0.240023 0.020341 85 158 130
-0.598024 0.871338 0.0284774 51 239 131
-0.475978 -0.744479 -0.318023 67 33 87
-0.402751 -0.218991 -0.191205 76 100 103
-0.296004 0.288841 -0.0122045 90 164 126
-0.410887 -0.72007 -0.315568 75 36 87
-0.610101 -0.410887 -0.126114 50 75 111
0.329523 -0.215614 -0.0189654 170 100 125
-0.324319 -0.362069 -0.126114 86 81 111
-0.475978 -0.404906 0.199341 67 76 153
-0.654979 -0.890934 0.130616 44 14 144
-0.644166 0.51666 -0.0366136 45 193 123
-0.541069 0.565479 0.0915586 59 200 139
-0.303986 0.451569 -0.0772955 89 185 118
0.545624 -0.874661 -0.248159 197 16 96
-0.345796 -0.0772955 0.116394 83 118 142
-0.475978 0.305114 0.102317 67 166 141
0.367094 -0.679388 0.101705 174 41 140
-0.608156 -0.174932 0.00406827 50 105 128
-0.741007 -0.882797 -0.0366136 33 15 123
-0.638706 -0.206833 -0.117977 46 101 112
-0.345796 0.191205 -0.0493418 83 152 121
-0.330786 -0.410887 -0.101705 85 75 115
0.321387 -0.711933 0.0795049 168 37 138
-0.34756 -0.199341 -0.0610228 83 102 120
0.451569 0.663115 0.0928784 185 212 139
0.166796 0.152105 -0.04475 149 147 122
0.572717 0.752615 -0.150523 201 223 108
-0.614297 -0.410887 0.0169966 49 75 130
-0.0988958 -0.793297 -0.0691592 115 26 119
-0.606161 0.638706 0.0587454 50 209 135
-0.100348 -0.833979 -0.207478 115 21 101
-0.293646 -0.492251 -0.142387 90 65 109
-0.500388 0.231887 0.0943189 64 157 140
-0.419024 0.0284774 -0.131185 74 131 111
0.472985 0.22375 0.0772957 188 156 137
-0.380711 -0.248159 0.0691593 79 96 136
0.405819 -0.752615 0.207478 179 32 154
0.268076 -0.0935683 -0.13425 162 116 110
-0.300402 0.207478 0.020341 89 154 130
-0.296978 -0.671251 0.105465 90 42 141
-0.565479 -0.129232 0.142387 55 111 146
-0.478907 0.711933 0.085432 66 218 138
0.589887 0.305114 -0.245324 203 166 96
0.42716 -0.679388 0.144264 182 41 146
0.149488 -0.508524 -0.0772955 147 63 118
0.459705 -0.117977 0.127935 186 112 144
-0.329524 -0.338126 -0.0772955 85 84 118
0.209183 0.264432 -0.04475 154 161 122
-0.711933 -0.958427 -0.321387 37 5 87
0.394614 0.42716 -0.184974 178 182 104
-0.429877 -0.89907 -0.313251 73 13 88
-0.443433 -0.207478 0.17978 71 101 150
-0.565479 0.842116 -0.0618694 55 235 120
-0.500388 0.842116 -0.128304 64 235 111
-0.353933 -0.128211 0.0610229 82 111 135
-0.199342 -0.866524 0.125311 102 17 143
-0.435297 -0.89907 0.211302 72 13 154
-0.419024 0.72007 -0.156756 74 219 108
0.142386 -0.614297 -0.147674 146 49 109
0.256296 -0.866524 0.205893 160 17 154
-0.627129 -0.565478 -0.101705 48 55 115
-0.340519 -0.679388 0.101705 84 41 140
-0.549206 -0.971514 0.166796 57 4 149
0.557342 0.345796 -0.146488 199 172 109
-0.62806 -0.370205 0.0447501 47 80 133
-0.251305 -0.939752 0.22375 95 8 156
-0.305115 -0.492251 -0.0414319 89 65 122
-0.0284776 -0.927532 -0.288841 124 9 91
-0.341229 -0.280705 0.0366137 84 92 132
0.532933 -0.760288 -0.207478 195 31 101
-0.810911 -0.956025 -0.199341 24 6 102
-0.728206 -0.864292 -0.231887 35 17 98
0.484114 -0.419024 -0.262191 189 74 94
0.294071 -0.679388 -0.0203409 165 41 125
0.459705 -0.760752 -0.214407 186 31 100
0.535263 -0.174932 0.0366137 196 105 132
-0.570102 -0.126114 0.101705 55 111 140
-0.490162 -0.240023 0.183069 65 97 151
0.500387 0.0681712 -0.174932 191 136 105
0.277142 -0.80957 -0.150523 163 24 108
-0.62994 -0.264432 -0.04475 47 94 122
-0.451569 -0.04475 0.169394 70 122 149
0.405993 0.117978 -0.22375 179 143 99
-0.390736 -0.207478 0.109841 78 101 142
-0.598024 0.0772957 0.0389189 51 137 132
-0.475978 0.394614 -0.144831 67 178 109
0.326366 -0.752615 0.117978 169 32 143
0.301383 -0.101705 -0.305114 166 115 89
0.207477 -0.394614 0.0574215 154 77 135
0.646842 -0.419024 -0.270072 210 74 93
0.663115 0.80957 -0.100505 212 231 115
-0.614297 -0.752615 -0.20794 49 32 101
-0.0366139 -0.907206 -0.186173 123 12 104
-0.451569 -0.679388 -0.287772 70 41 91
-0.353933 0.532933 -0.138191 82 195 110
0.18854 0.109841 -0.04475 152 142 122
-0.394615 0.0748371 -0.117977 77 137 112
-0.621183 -0.126114 -0.00406815 48 111 127
0.640721 0.614297 0.0610229 209 206 135
0.557342 0.22375 -0.172871 199 156 105
0.661463 -0.329523 -0.183068 212 85 104
-0.573615 0.63057 -0.116637 54 208 113
0.687524 -0.565478 0.0794105 215 55 138
-0.472268 0.150523 -0.158659 67 147 107
0.353932 0.976662 -0.0366136 173 252 123
-0.323812 0.402751 -0.04475 86 179 122
-0.598024 -0.0900396 -0.231887 51 116 98
0.378341 0.467842 -0.179335 176 187 105
-0.785161 -0.927805 -0.0854319 27 9 117
-0.589888 -0.679388 -0.20332 52 41 102
-0.653959 -0.419024 0.0691593 44 74 136
-0.646437 -0.0122045 -0.109841 45 126 113
-0.589499 -0.0284773 -0.231887 52 124 98
0.208064 0.13425 0.0122046 154 145 129
0.573615 0.109841 0.0044885 201 142 128
-0.671252 -0.524796 0.0610834 42 61 135
-0.570388 -0.541069 0.191205 55 59 152
0.541069 -0.638706 -0.214438 196 46 100
-0.679388 -0.621123 0.0935684 41 48 139
-0.451569 -0.679388 0.188884 70 41 152
-0.370115 -0.280705 0.13425 80 92 145
0.505494 -0.0122045 -0.207478 192 126 101
-0.101705 -0.803419 0.0122046 115 25 129
-0.595424 -0.410887 -0.183068 52 75 104
-0.554417 -0.370205 -0.256296 57 80 95
0.305114 0.150523 0.0631416 166 147 136
-0.549206 0.796807 0.101705 57 229 140
-0.394615 -0.643363 0.174932 77 45 150
0.557342 0.22375 -0.0132614 199 156 126
-0.353933 -0.866524 0.20169 82 17 153
-0.393018 -0.451569 -0.264432 77 70 94
-0.532933 -0.496979 0.231887 60 64 157
0.368922 0.858388 -0.117977 175 237 112
-0.451569 0.801434 0.0588753 70 230 135
0.524796 0.109841 -0.161249 194 142 107
-0.569096 -0.443433 -0.272569 55 71 93
-0.653013 0.272569 -0.0366136 44 162 123
-0.692667 -0.622433 -0.0203409 39 48 125
-0.362069 -0.866524 -0.32275 81 17 86
-0.183069 -0.684815 -0.166796 104 40 106
-0.313251 0.12152 0.0528866 88 143 134
0.435296 0.392207 -0.207478 183 178 101
-0.51666 -0.215614 -0.249943 62 100 96
-0.184373 -0.687524 -0.117977 104 40 112
-0.349879 -0.646842 0.117978 83 45 143
-0.362069 0.199341 0.097969 81 153 140
-0.211798 -0.646842 -0.150523 100 45 108
0.321387 -0.370205 0.110866 168 80 142
-0.459706 0.923479 0.0523367 69 245 134
-0.321966 0.646842 -0.0528864 86 210 121
-0.500388 0.42716 -0.157521 64 182 107
-0.353933 0.915343 -0.0812376 82 244 117
-0.63057 -0.91126 0.199341 47 11 153
-0.207478 -0.752615 -0.333194 101 32 85
0.327016 -0.272569 0.085432 169 93 138
-0.362069 -0.671251 0.162919 81 42 148
-0.126114 -0.976356 0.22375 111 3 156
-0.557342 -0.622433 0.183761 56 48 151
0.459705 -0.752615 0.247275 186 32 159
-0.280705 -0.60201 0.0284774 92 51 131
0.508524 -0.4868 -0.240023 192 65 97
-0.614297 -0.293894 -0.207478 49 90 101
0.247274 -0.0122045 -0.0854319 159 126 117
-0.622433 0.0318456 -0.00406815 48 132 127
-0.549206 0.589888 -0.135461 57 203 110
0.280705 -0.419024 0.0895635 163 74 139
-0.33766 0.492251 -0.122761 84 190 112
-0.573615 -0.0616036 -0.240023 54 120 97
-0.303195 0.598024 -0.0122045 89 204 126
0.532933 -0.760752 0.263902 195 31 161
-0.417968 0.313251 -0.126114 74 167 111
-0.475978 -0.13425 -0.217901 67 110 100
-0.701979 -0.752615 0.085432 38 32 138
0.42716 0.663115 -0.166291 182 212 106
0.565478 0.671252 0.14057 200 213 145
-0.596504 -0.451569 -0.183068 51 70 104
0.492251 0.703797 0.096478 190 217 140
0.740585 -0.598024 0.0772957 222 51 137
-0.637671 0.703797 0.0284774 46 217 131
-0.386478 0.0366137 0.124114 78 132 143
0.500387 0.191205 -0.184557 191 152 104
-0.378342 -0.557342 0.151713 79 56 147
0.622433 0.850252 -0.154139 207 236 108
0.443433 0.972298 0.0151349 184 251 129
-0.313251 -0.825843 -0.361691 88 22 81
-0.593431 0.801434 0.020341 52 230 130
0.588649 -0.801433 -0.150523 203 25 108
0.752091 -0.475978 -0.117977 223 67 112
-0.296205 -0.492251 -0.0772955 90 65 118
-0.573615 0.549206 -0.129943 54 198 111
-0.636571 0.51666 0.020341 46 193 130
-0.703797 -0.817643 0.085432 38 23 138
0.596924 0.22375 -0.0610228 204 156 120
-0.508524 -0.409244 -0.313251 63 75 88
-0.72007 -0.942371 0.0691593 36 7 136
-0.307712 0.207478 0.0610229 88 154 135
-0.314968 0.736343 -0.0854319 87 221 117
0.378341 0.114645 0.0691593 176 142 136
0.594157 -0.0610228 0.0447501 203 120 133
-0.532933 -0.89907 -0.308381 60 13 88
-0.272569 -0.866524 0.164555 93 17 148
-0.63057 0.102603 -0.00406815 47 141 127
-0.166796 -0.927893 0.215614 106 9 155
-0.329524 0.717679 -0.0203409 85 219 125
0.622433 0.663115 -0.0522374 207 212 121
0.55134 -0.532933 -0.231887 198 60 98
-0.679388 0.240023 -0.0334407 41 158 123
0.530971 0.22375 0.0284774 195 156 131
-0.402751 0.475978 0.0731212 76 188 137
-0.419024 -0.890934 -0.350251 74 14 83
0.0284771 -0.945916 0.00406827 131 7 128
0.541069 0.895547 0.0122046 196 242 129
0.353932 0.191205 0.0895645 173 152 139
0.410887 0.524797 -0.342912 180 194 84
-0.231887 -0.83599 0.166796 98 21 149
0.557342 -0.793297 0.318911 199 26 168
-0.41168 -0.296978 -0.231887 75 90 98
0.573615 0.976747 -0.0691592 201 252 119
-0.329524 -0.488577 0.0284774 85 65 131
0.581751 0.0701486 -0.0772955 202 136 118
-0.500388 -0.435296 0.181475 64 72 151
-0.598024 -0.199341 0.0992832 51 102 140
0.565478 -0.0854319 0.00342014 200 117 128
-0.63057 -0.13425 -0.172876 47 110 105
0.300311 0.42716 -0.0691592 166 182 119
0.337257 0.541069 0.0610229 171 196 135
0.300283 0.467842 -0.0284773 166 187 124
0.338788 0.663115 -0.0691592 171 212 119
-0.424223 -0.459705 -0.321387 73 69 87
0.370205 0.257834 -0.191205 175 160 103
-0.663115 0.546978 -0.00406815 43 197 127
0.587467 0.972298 -0.174932 202 251 105
-0.589888 0.825843 0.0769854 52 233 137
-0.142414 -0.833979 -0.272569 109 21 93
0.443433 0.581751 0.159027 184 202 148
0.345796 0.671252 0.00898783 172 213 129
-0.520776 -0.939752 -0.33766 61 8 84
0.353038 0.0610229 0.0528866 173 135 134
0.697063 -0.435296 -0.0528864 216 72 121
-0.475978 -0.89907 0.221507 67 13 156
-0.581751 -0.931616 -0.320246 53 9 87
0.322245 0.0366137 0.0284774 169 132 131
-0.33766 -0.964161 0.286334 84 5 164
0.598461 -0.288841 -0.04475 204 91 122
-0.346461 0.142387 -0.0691592 83 146 119
-0.378342 0.231887 -0.0933922 79 157 116
-0.539254 0.142387 0.0935684 59 146 139
-0.557342 0.321387 -0.164027 56 168 107
-0.622433 -0.963933 -0.345796 48 5 83
-0.264433 -0.964161 0.275926 94 5 163
-0.644623 0.150523 -0.117977 45 147 112
0.593679 0.492251 -0.0203409 203 190 125
0.614297 -0.402751 -0.279587 206 76 92
-0.573615 0.353933 0.0554374 54 173 135
-0.549206 0.0284774 -0.198675 57 131 102
-0.353933 -0.638706 -0.357051 82 46 82
-0.632493 -0.451569 0.150523 47 70 147
0.703797 -0.728206 0.208509 217 35 154
0.50164 0.549206 -0.174932 191 198 105
0.42716 -0.890934 -0.475382 182 14 67
-0.638706 -0.00872319 -0.0366136 46 126 123
0.564697 0.817706 -0.166796 199 232 106
-0.768888 -0.874661 -0.111165 29 16 113
-0.744479 -0.806444 -0.0772955 33 25 118
-0.642396 -0.500387 0.117978 46 64 143
-0.122089 -0.825843 -0.305114 112 22 89
-0.492251 -0.322084 0.199341 65 86 153
0.459705 0.111591 0.0610229 186 142 135
-0.508524 -0.207478 0.211351 63 101 154
0.45773 0.191205 0.0772957 186 152 137
-0.514605 -0.671251 0.207478 62 42 154
0.492251 -0.801433 -0.212865 190 25 100
0.475978 -0.524796 0.0766231 188 61 137
-0.554385 0.0610229 0.0935684 57 135 139
0.345796 -0.793297 -0.439184 172 26 72
-0.475978 0.846752 0.0935684 67 235 139
0.345796 -0.0528864 -0.310264 172 121 88
-0.451569 0.272569 -0.139566 70 162 110
0.620353 -0.524796 -0.207478 207 61 101
0.394614 0.0284774 0.0461433 178 131 133
-0.671252 -0.58747 0.126114 42 53 144
0.386478 0.972298 -0.130932 177 251 111
-0.443433 -0.565478 -0.303002 71 55 89
0.492251 -0.256296 -0.346737 190 95 83
-0.109678 -0.972297 -0.329523 114 4 85
-0.370206 -0.256296 -0.136136 80 95 110
-0.557342 -0.305114 -0.287077 56 89 91
-0.36839 -0.410887 -0.22375 81 75 99
-0.414931 0.0284774 0.174932 75 131 150
-0.663115 -0.931616 0.118757 43 9 143
0.322383 -0.362069 -0.0935683 169 81 116
-0.777025 -0.89883 -0.22375 28 13 99
0.422138 0.42716 0.199341 181 182 153
0.329523 -0.880441 0.329523 170 15 170
-0.63729 -0.345796 0.020341 46 83 130
-0.321387 -0.722418 -0.353932 87 35 82
-0.505889 0.646842 0.0935684 63 210 139
-0.459706 -0.858388 0.215745 69 18 155
-0.451569 -0.594346 0.207478 70 52 154
0.280705 0.646842 -0.271873 163 210 93
0.671677 -0.362069 -0.126114 213 81 111
0.342117 -0.264432 0.199341 171 94 153
-0.622433 0.557342 0.0436466 48 199 133
-0.374136 -0.142387 -0.126114 80 109 111
-0.603703 0.760752 -0.00406815 51 224 127
-0.5853 0.842116 0.00406827 53 235 128
-0.439649 -0.174932 -0.207478 71 105 101
0.250179 0.0284774 -0.248159 159 131 96
-0.753181 -0.956025 -0.296978 31 6 90
0.638706 0.296978 -0.257352 209 165 95
-0.639438 -0.646842 0.150523 46 45 147
-0.700188 -0.760752 -0.150523 38 31 108
0.541069 -0.109841 0.198474 196 113 153
0.410887 0.999508 -0.13425 180 255 110
0.483144 -0.866524 -0.492251 189 17 65
0.626635 -0.565478 0.101705 207 55 140
-0.565479 0.882797 0.0198055 55 240 130
0.663115 0.256296 -0.219408 212 160 100
0.362069 0.63057 0.0505051 174 208 134
-0.296978 0.366104 0.00406827 90 174 128
-0.322355 0.321387 0.0122046 86 168 129
-0.500388 -0.671251 -0.307135 64 42 88
0.442597 -0.492251 -0.231887 184 65 98
-0.256296 -0.53808 -0.207478 95 59 101
0.38481 0.581751 0.101705 177 202 140
-0.508524 0.0691593 -0.185245 63 136 104
0.671251 0.191205 -0.0725721 213 152 118
-0.256296 -0.534613 -0.117977 95 59 112
0.314254 -0.117977 -0.0203409 168 112 125
0.598024 -0.362069 -0.00624527 204 81 127
-0.488613 -0.60616 -0.288841 65 50 91
-0.321348 -0.484115 -0.264432 87 66 94
0.573967 -0.0528864 -0.0284773 201 121 124
-0.61563 -0.256296 0.0284774 49 95 131
-0.606161 0.435296 0.0483101 50 183 134
-0.663115 -0.679388 -0.0856485 43 41 117
0.549122 0.345796 -0.264432 198 172 94
-0.565479 0.51666 0.0716903 55 193 137
-0.35742 -0.174932 0.0122046 82 105 129
-0.126114 -0.728206 -0.158045 111 35 107
-0.345796 0.565479 0.0245175 83 200 131
-0.711713 -0.801433 0.020341 37 25 130
-0.443433 -0.166796 0.178597 71 106 150
0.382879 -0.199341 0.0772957 176 102 137
-0.410887 -0.744479 0.211026 75 33 154
-0.191205 -0.785161 0.0862766 103 27 139
0.620978 0.345796 -0.272569 207 172 93
0.402751 -0.841052 -0.484115 179 20 66
-0.288842 -0.907151 0.22375 91 12 156
0.630569 -0.883764 -0.142387 208 15 109
-0.63057 -0.528733 0.166796 47 60 149
0.308397 -0.882797 -0.215614 167 15 100
0.256296 0.882797 -0.0045435 160 240 127
-0.420853 -0.817706 0.231887 74 23 157
-0.711933 -0.91126 0.101705 37 11 140
-0.408552 0.646842 -0.13425 75 210 110
0.580655 0.663115 -0.109841 202 212 113
0.614297 0.704709 0.101705 206 217 140
-0.32465 0.0447501 -0.00406815 86 133 127
-0.353933 -0.687524 -0.338687 82 40 84
-0.647525 0.0284774 -0.13425 45 131 110
-0.329524 -0.929211 0.264432 85 9 161
-0.467842 0.882797 -0.146521 68 240 109
-0.79675 -0.956025 -0.240023 26 6 97
-0.500388 -0.785161 0.184775 64 27 151
0.690908 -0.69566 -0.0854319 216 39 117
-0.51666 0.272569 -0.160121 62 162 107
-0.561269 -0.199341 0.158659 56 102 148
-0.641731 -0.711933 0.183069 46 37 151
-0.598024 0.142387 -0.195223 51 146 103
0.29961 -0.313251 0.0610229 166 88 135
-0.0219717 -0.907206 -0.0935683 125 12 116
0.484114 -0.0366136 0.0720672 189 123 137
-0.604971 0.728206 -0.0610228 50 220 120
-0.739822 -0.842115 -0.0203409 33 20 125
-0.394615 -0.858388 -0.348693 77 18 83
-0.573615 -0.638706 -0.194896 54 46 103
-0.240023 -0.801433 -0.349742 97 25 83
-0.329524 -0.378952 -0.183068 85 79 104
-0.573615 0.191205 -0.171008 54 152 106
