ply
format ascii 1.0
comment Created by Open3D
element vertex 1211
property double x
property double y
property double z
property uchar red
property uchar green
property uchar blue
end_header
-0.512907 -0.81293 -0.316857 62 24 87
0.245356 -0.12418 -0.526132 159 112 60
-0.505141 -0.817588 0.449062 63 23 185
-0.135463 -0.301634 -0.150019 110 89 108
-0.488279 -0.53125 0.412847 65 60 180
-0.249302 0.189519 0.192799 96 152 152
0.101175 -0.0750715 -0.483497 140 118 66
0.0731129 -0.491091 0.822742 137 65 232
0.168748 -0.151451 -0.565859 149 108 55
0.436917 -0.540167 -0.515863 183 59 62
-0.271332 -0.188972 -0.242232 93 103 97
0.164752 -0.634847 -0.917224 149 47 11
0.0996106 -0.564913 -0.939283 140 55 8
-0.172449 -0.0929245 0.7462 106 116 223
0.196557 -0.72689 0.9141 153 35 244
-0.345083 -0.880236 -0.371725 84 15 80
-0.494068 -0.794803 0.534921 65 26 196
-0.434287 -0.823574 -0.774376 72 22 29
0.405827 -0.360993 -0.138004 179 81 110
-0.41576 -0.340016 -0.124171 74 84 112
-0.0657003 -0.884427 0.468098 119 15 187
0.117133 0.80313 0.522303 142 230 194
0.37664 -0.202051 -0.479708 176 102 66
-0.469638 -0.537852 -0.579387 68 59 54
0.298746 -0.887386 -0.710501 166 14 37
0.160436 -0.885548 -0.795609 148 15 26
-0.514767 -0.848624 -0.0731769 62 19 118
0.0722357 -0.337659 -0.73626 137 84 34
-0.185016 -0.304469 -0.101411 104 89 115
-0.11982 -0.279616 0.117291 112 92 142
-0.492096 -0.578001 0.000827921 65 54 128
0.282774 -0.323917 0.563789 164 86 199
0.0910794 -0.886375 0.230296 139 14 157
0.362663 -0.260154 0.375609 174 94 175
0.125044 0.49355 0.755744 143 190 224
-0.217214 -0.884126 0.796754 100 15 229
-0.192784 -0.882621 0.303711 103 15 166
0.407706 -0.531867 0.514566 179 60 193
0.29391 -0.888055 -0.468876 165 14 68
0.355822 -0.888878 -0.453785 173 14 70
0.450922 -0.717168 -0.226823 185 36 99
-0.266137 -0.883513 0.792893 94 15 229
-0.333832 -0.51386 0.239009 85 62 158
0.341542 -0.889472 0.156657 171 14 147
0.38873 0.480911 0.396152 177 189 178
0.475066 0.303022 0.50427 188 166 192
-0.275004 0.0745621 0.120171 92 137 143
0.436806 -0.57416 -0.556863 183 54 57
0.0352081 -0.885671 0.360435 132 15 173
-0.386938 -0.772402 -0.798775 78 29 26
0.429999 -0.502498 -0.443762 182 63 71
-0.492233 -0.585225 0.121505 65 53 143
0.0349127 -0.886104 -0.372217 132 15 80
0.302076 -0.246117 -0.582814 166 96 53
-0.446392 -0.880158 0.222624 71 15 156
0.133178 -0.886397 -0.48929 144 14 65
-0.138611 -0.255004 0.741024 110 95 222
0.295159 0.108406 0.758513 165 141 224
0.383439 0.549292 0.501 176 198 191
-0.348742 -0.88261 0.763423 83 15 225
0.116979 -0.834625 0.978317 142 21 252
-0.110661 -0.126001 0.0318302 113 111 132
0.152399 0.63644 0.562631 147 209 199
-0.482955 -0.531429 -0.283321 66 60 91
0.444467 -0.717352 -0.505654 184 36 63
0.448824 -0.633531 -0.282371 185 47 91
-0.037391 -0.325229 -0.869338 123 86 17
0.467426 -0.80566 -0.53167 187 25 60
0.378791 -0.382724 -0.577405 176 79 54
-0.0352419 -0.0543128 -0.07343 123 121 118
-0.218695 -0.72666 -0.927406 100 35 9
-0.340172 -0.51406 0.320864 84 62 168
-0.00465992 0.534141 0.710238 127 196 218
-0.486166 -0.596944 -0.339996 66 51 84
0.309803 0.552252 0.604108 167 198 205
0.257022 0.242385 0.0973949 160 158 140
0.11892 0.262725 0.78787 143 161 228
0.321239 -0.888968 -0.235923 168 14 97
0.451531 -0.690495 -0.0618033 185 39 120
0.224864 0.533997 0.64351 156 196 210
-0.323659 -0.158934 0.319418 86 107 168
0.294884 0.182854 0.725685 165 151 220
0.408786 -0.561775 -0.667403 180 56 42
-0.369447 -0.422839 0.496522 80 74 191
0.267565 -0.88873 0.247206 162 14 159
0.43668 -0.12735 0.432188 183 111 183
-0.0602536 -0.79149 0.978538 120 27 252
-0.45153 -0.466702 -0.119639 70 68 112
-0.118644 -0.19352 0.158898 112 103 148
-0.0926123 0.309607 0.72222 116 167 220
0.161006 0.801267 0.446149 148 230 184
0.296683 0.418652 0.207904 165 181 154
-0.23324 -0.0606379 0.214627 98 120 155
-0.457602 -0.586468 -0.650275 69 53 45
0.273264 -0.889079 0.093042 162 14 139
0.379375 -0.0596207 0.0107691 176 120 129
-0.472525 -0.511633 -0.204161 67 62 101
0.391445 -0.0799738 -0.305446 177 117 89
0.104748 0.636403 0.575804 141 209 201
-0.379462 -0.411964 0.724795 79 75 220
0.211383 -0.526691 -0.843548 154 60 20
0.375488 -0.247153 0.495759 175 96 191
0.448027 -0.594717 0.0474137 185 52 134
0.0219147 0.0212545 0.00337353 130 130 128
-0.229705 0.260961 0.648848 98 161 210
-0.254098 -0.209472 0.544425 95 101 197
0.307966 -0.407344 0.640848 167 76 209
-0.270491 -0.882785 0.651376 93 15 211
-0.0536792 0.776336 0.417823 121 226 181
-0.459922 -0.421529 -0.586418 69 74 53
0.415007 -0.304109 -0.462053 180 89 69
0.348783 -0.889477 0.290449 172 14 165
-0.353076 -0.883423 0.303297 82 15 166
0.164862 -0.885457 -0.909262 149 15 12
-0.482661 -0.521061 0.0642141 66 61 136
0.215172 0.651219 0.495142 155 211 191
-0.116657 -0.313192 -0.466301 113 88 68
-0.43481 -0.880468 0.314318 72 15 168
0.431452 -0.327156 0.0859527 183 86 138
-0.191675 -0.132152 -0.348432 103 111 83
-0.357724 0.125504 0.340336 82 144 171
0.0137922 -0.883903 -0.830296 129 15 22
-0.0568732 -0.368617 -0.705531 120 81 38
-0.188466 -0.240949 -0.23668 103 97 97
-0.270698 -0.406445 0.0169168 93 76 130
-0.0595438 0.638548 0.431485 120 209 183
0.440485 -0.238236 0.114345 184 97 142
0.426588 0.476411 0.468236 182 188 187
-0.213703 0.493807 0.701231 100 190 217
0.107598 -0.746994 0.948174 141 32 248
0.131171 -0.348553 0.716218 144 83 219
0.209825 0.130148 0.019859 154 144 130
0.131946 0.600364 0.652958 144 204 211
0.191735 0.614501 0.629971 152 206 208
0.443798 -0.523398 0.096652 184 61 140
0.165207 0.329425 0.75118 149 170 223
0.169387 0.632767 0.286302 149 208 164
0.253646 0.271246 0.805638 160 162 230
-0.436708 -0.702325 -0.708765 72 38 37
0.230098 0.655029 0.601088 157 211 204
-0.143457 0.313675 0.103468 109 167 141
0.104363 -0.886705 -0.370298 141 14 80
-0.00088878 -0.88602 -0.0945225 127 15 115
-0.1198 -0.587773 0.94725 112 53 248
0.0609648 -0.88671 -0.0226074 135 14 125
0.387056 -0.442079 -0.618896 177 71 49
-0.0380475 0.788093 0.360624 123 228 173
-0.29786 -0.452337 0.214585 90 70 155
-0.0594887 -0.87729 0.997298 120 16 255
0.00392034 -0.0220611 -0.392748 128 125 77
-0.233803 -0.367426 -0.489888 98 81 65
-0.461329 -0.534735 -0.626087 69 59 48
0.189278 -0.07051 -0.482996 152 119 66
-0.0355557 -0.394674 -0.944467 123 77 7
0.478436 -0.870005 0.195785 189 17 152
-0.138727 -0.373671 0.0975833 110 80 140
0.470206 -0.450475 -0.383108 187 70 79
-0.179969 -0.883269 -0.474683 105 15 67
0.420228 -0.204145 0.21004 181 101 154
0.124023 0.861223 0.458056 143 237 186
0.0201014 -0.0486621 -0.169874 130 121 106
0.378382 -0.699329 0.738723 176 38 222
0.30393 -0.0626201 -0.413542 166 120 75
0.449089 -0.626527 -0.206817 185 48 101
-0.297165 -0.423229 0.837278 90 74 234
0.446907 -0.474649 0.27302 184 67 162
0.345038 -0.849239 0.8288 171 19 233
0.00792349 -0.548286 -0.956839 129 58 6
0.477727 -0.866695 -0.404589 188 17 76
0.150524 0.579036 0.211186 147 201 154
0.206913 0.813707 0.432711 154 231 183
0.481116 -0.840197 -0.337903 189 20 84
0.449466 -0.00123351 0.19875 185 127 153
-0.490148 -0.636165 0.383725 65 46 176
0.294501 -0.888022 -0.523835 165 14 61
0.215854 -0.889655 0.596933 155 14 204
-0.0262113 -0.303623 0.812608 124 89 231
0.147739 -0.887449 0.191373 146 14 152
-0.334085 -0.0678074 0.531444 85 119 195
0.337532 -0.887676 -0.798683 171 14 26
0.097774 0.0571839 -0.00317872 140 135 127
-0.407642 -0.882019 0.443028 76 15 184
0.222927 -0.435155 -0.822497 156 72 23
-0.281126 -0.388084 -0.628171 92 78 47
0.183289 0.0940125 0.834138 151 139 234
-0.404526 -0.739009 -0.763485 76 33 30
-0.155478 0.0576697 0.719522 108 135 219
0.059347 0.773164 0.256604 135 226 160
-0.4152 -0.662067 0.74293 75 43 222
-0.218784 -0.881002 -0.736583 100 15 34
0.0360456 0.134411 0.785846 132 145 228
-0.0890814 -0.882576 -0.736657 116 15 34
-0.48597 -0.618633 -0.384228 66 49 79
-0.351191 -0.813505 -0.869845 83 24 17
-0.185468 0.263321 0.740257 104 161 222
0.418347 0.014411 0.516427 181 129 193
0.464236 -0.426333 0.0898592 187 73 139
-0.144681 -0.273617 0.695975 109 93 216
-0.323376 0.00492281 0.574342 86 128 201
0.440862 -0.0659691 0.501745 184 119 191
0.354868 -0.890583 0.748145 173 14 223
-0.48156 -0.523432 0.332657 66 61 170
0.0838632 -0.0889291 0.800905 138 116 230
-0.362546 -0.881553 0.589445 81 15 203
-0.1752 0.0984017 0.0483156 105 140 134
-0.335643 0.0830256 0.414219 85 138 180
-0.276222 -0.88061 -0.713492 92 15 37
-0.337738 -0.361842 0.756862 84 81 224
-0.48491 -0.679895 -0.468913 66 41 68
-0.274433 -0.259946 0.741626 93 94 222
0.056694 -0.160001 0.782992 135 107 227
0.0408601 0.191824 0.822784 133 152 232
-0.449437 -0.668377 0.671106 70 42 213
-0.0239012 -0.0695155 -0.120091 124 119 112
-0.294072 0.214204 0.425324 90 155 182
-0.0858273 -0.393065 -0.67051 117 77 42
0.131348 -0.885353 -0.849374 144 15 19
0.34462 0.0414299 0.709654 171 133 218
0.0462552 0.803614 0.38658 133 230 177
0.440715 -0.254469 -0.393968 184 95 77
-0.492123 -0.616428 0.163196 65 49 148
-0.379336 -0.515224 0.413252 79 62 180
0.336606 -0.113666 -0.447691 170 113 70
0.38339 -0.890605 0.656297 176 14 211
-0.434271 -0.879634 -0.34261 72 15 84
0.428006 -0.38472 -0.416385 182 78 74
-0.215512 -0.39131 -0.658524 100 78 44
-0.210556 -0.881892 -0.57211 101 15 55
-0.0491013 0.321041 0.738077 121 168 222
0.136241 -0.788887 -0.949096 145 27 6
-0.103704 -0.884664 -0.164687 114 15 107
0.0129887 -0.887021 0.640714 129 14 209
-0.235819 0.31147 0.517058 97 167 193
-0.2118 -0.0412954 0.146375 100 122 146
-0.307301 0.187718 0.590219 88 151 203
0.247196 -0.526372 -0.816983 159 60 23
0.451377 -0.681912 0.0776404 185 41 137
-0.436993 -0.518218 0.340838 72 61 171
0.296621 0.354491 0.770328 165 173 226
0.228134 -0.886802 -0.681121 157 14 41
-0.0259883 0.732327 0.354884 124 221 173
0.434368 -0.890166 -0.0231626 183 14 125
-0.25424 -0.132785 0.640594 95 111 209
-0.296757 -0.195242 0.405986 90 103 179
-0.246683 -0.248155 0.378685 96 96 176
-0.489206 -0.59891 -0.196736 65 51 102
0.376078 0.309331 0.148511 175 167 146
0.108054 0.101777 0.854131 141 140 236
-0.179587 -0.883559 -0.329256 105 15 86
0.409419 -0.0927036 -0.1837 180 116 104
-0.399377 -0.378651 -0.645167 77 79 45
0.467806 0.182002 0.612885 187 151 206
0.179291 0.816731 0.572667 150 232 201
0.284187 0.617202 0.556115 164 206 198
0.37426 -0.888393 -0.655617 175 14 44
-0.411626 -0.643838 -0.748503 75 45 32
0.396747 -0.732804 -0.700056 178 34 38
0.285801 -0.125087 0.676759 164 112 214
0.172669 0.493385 0.74985 150 190 223
-0.153575 -0.451848 -0.942722 108 70 7
-0.411516 -0.426466 -0.0503731 75 73 121
-0.341041 -0.00837096 0.420389 84 126 181
-0.159693 0.373348 0.163129 107 175 148
0.410702 -0.666937 0.670079 180 42 213
0.381326 0.194247 0.162736 176 152 148
-0.352103 -0.880817 -0.0707033 83 15 118
-0.156689 0.524671 0.431119 108 194 182
-0.259291 -0.199752 0.291779 94 102 165
-0.0814996 -0.14499 -0.478575 117 109 66
-0.372433 -0.239554 -0.293014 80 97 90
-0.0922155 -0.0034614 -0.212986 116 127 100
0.451222 -0.6738 0.0248339 185 42 131
0.406096 -0.104411 0.0932201 179 114 139
-0.0056278 -0.351757 -0.919216 127 83 10
-0.0993066 -0.0968618 0.0655288 115 115 136
0.332682 0.378278 0.176949 170 176 150
-0.194572 0.477357 0.491042 103 188 190
0.434171 0.305769 0.582367 183 166 202
0.450639 -0.889514 -0.487239 185 14 65
-0.315555 -0.510833 0.843836 87 62 235
0.0217951 0.654812 0.338758 130 211 171
0.139889 0.190178 0.04076 145 152 133
-0.292004 0.0678138 0.194997 90 136 152
-0.222747 0.250686 0.691023 99 159 216
0.378581 0.513955 0.327468 176 193 169
-0.305705 -0.67247 0.86172 89 42 237
0.0656401 0.598791 0.191193 136 204 152
0.416817 -0.840687 0.720578 181 20 219
-0.270288 0.0314818 0.624528 93 132 207
0.107316 0.217119 0.0602526 141 155 135
0.383288 -0.532899 0.675291 176 60 214
-0.242133 0.359016 0.590819 97 173 203
-0.0847963 0.408021 0.141438 117 180 146
-0.0894397 0.588256 0.330167 116 203 170
-0.492622 -0.879666 0.157752 65 15 148
0.385491 -0.426346 0.532975 177 73 195
-0.491156 -0.653409 0.0320238 65 44 132
0.00637497 -0.425393 -0.95053 128 73 6
-0.478512 -0.782953 -0.65508 66 28 44
-0.148418 -0.372484 -0.508164 109 80 63
-0.317388 0.20806 0.338403 87 154 171
0.321535 0.466216 0.62996 168 187 208
0.233021 -0.887577 -0.374263 157 14 80
-0.31866 -0.881027 -0.0983595 87 15 115
-0.120418 -0.881958 -0.774723 112 15 29
0.246661 0.601365 0.262854 159 204 161
-0.482533 -0.879698 0.301313 66 15 166
-0.133312 -0.88233 -0.681496 111 15 41
0.439057 0.121303 0.27796 183 143 163
-0.426275 -0.338351 -0.466306 73 84 68
-0.326339 0.0464172 0.23984 86 133 158
-0.166558 0.449391 0.287235 106 185 164
-0.396884 -0.515399 0.175773 77 62 150
-0.0760476 -0.885287 0.657642 118 15 211
0.389377 -0.250233 0.454808 177 96 185
-0.161593 -0.353074 -0.920687 107 82 10
-0.0742068 0.62817 0.513813 118 208 193
0.462284 -0.786292 -0.388616 186 27 78
-0.468242 -0.521372 -0.505536 68 61 63
-0.0907005 -0.750663 0.959009 116 32 250
-0.424801 -0.882624 0.356405 73 15 173
-0.0364019 0.0695844 0.0232829 123 136 130
-0.231029 -0.262764 -0.299236 98 94 89
0.24691 -0.888912 0.459313 159 14 186
-0.250798 -0.0388723 0.680619 96 123 214
0.132509 0.464504 0.16558 144 187 149
-0.212269 0.449753 0.767024 100 185 225
0.376359 -0.588931 0.737234 175 52 221
-0.263704 -0.330944 -0.810239 94 85 24
-0.115914 -0.370755 -0.934613 113 80 8
0.310022 0.501599 0.24442 167 191 159
0.252172 -0.0645673 0.786656 160 119 228
0.0555809 -0.887132 0.529172 135 14 195
-0.0289448 -0.527243 0.902684 124 60 243
0.109078 -0.28731 0.744856 141 91 222
-0.0151128 -0.724787 0.963406 126 35 250
0.388725 0.238317 0.628685 177 158 208
-0.410476 -0.518141 -0.691207 75 61 39
0.445643 -0.574624 -0.380456 184 54 79
0.206456 0.0251266 -0.211719 154 131 101
-0.487759 -0.452292 -0.44076 65 70 71
-0.0352489 0.0302252 0.80516 123 131 230
-0.104003 -0.832441 0.990438 114 21 254
0.440472 -0.89017 -0.120008 184 14 112
-0.488267 -0.67519 -0.31462 65 41 87
0.278592 0.488005 0.193594 163 190 152
-0.273266 -0.880763 -0.600483 93 15 51
0.0459179 -0.0127255 -0.363521 133 126 81
0.425061 -0.627482 0.624519 182 47 207
-0.262963 -0.864639 0.931938 94 17 246
0.396365 -0.740043 0.704251 178 33 217
0.0682776 -0.340254 -0.878341 136 84 16
0.200835 -0.888027 0.307106 153 14 167
0.452289 -0.0930673 0.305507 185 116 166
0.306831 0.601542 0.401255 167 204 179
-0.213098 -0.390251 0.080832 100 78 138
0.241629 -0.351745 -0.700161 158 83 38
-0.171587 -0.710161 -0.946133 106 37 7
0.101667 0.428322 0.119883 140 182 143
0.450998 -0.381748 -0.338914 185 79 84
-0.117639 -0.389109 -0.747384 113 78 32
-0.406488 -0.54131 0.757921 76 58 224
0.0142414 0.728384 0.309191 129 220 167
-0.0498964 -0.23253 0.769837 121 98 226
-0.0674027 -0.0525678 0.00684337 119 121 128
-0.229079 -0.439087 0.877097 98 72 239
-0.236038 -0.881685 -0.522913 97 15 61
-0.342178 -0.880511 -0.247684 84 15 96
0.434187 -0.400841 0.138166 183 76 145
0.376109 -0.209169 0.381674 175 101 176
0.422839 -0.166202 -0.367062 181 106 81
-0.0783664 -0.397875 -0.543979 118 77 58
0.263977 0.197871 0.772772 161 153 226
-0.471243 -0.879637 -0.180514 67 15 104
0.106026 -0.30924 -0.613373 141 88 49
0.304818 -0.88876 -0.181425 166 14 104
-0.305695 -0.882959 0.277708 89 15 163
-0.18678 -0.374544 0.197456 104 80 153
-0.275082 -0.392355 0.273339 92 77 162
-0.432898 -0.793351 0.74687 72 26 223
-0.0437655 0.599436 0.597019 122 204 204
-0.27349 -0.530121 -0.881091 93 60 15
-0.490138 -0.659477 -0.133917 65 43 110
-0.274942 0.470249 0.713838 92 187 219
0.410141 -0.375758 0.0585781 180 80 135
-0.216129 0.442048 0.217531 100 184 155
0.036727 -0.00248973 -0.0818172 132 127 117
0.411908 -0.458039 -0.563634 180 69 56
0.435272 -0.69322 0.588456 183 39 203
-0.485426 -0.879437 0.245781 66 15 159
0.394447 -0.129464 0.274922 178 111 163
-0.199196 -0.884522 0.835497 102 15 234
0.47411 -0.494455 -0.230156 188 64 98
-0.35199 -0.314943 -0.456528 83 87 69
0.451342 -0.529337 0.0140067 185 60 129
-0.221375 0.429769 0.551602 99 182 198
0.192887 7.56665e-05 -0.36563 152 128 81
-0.198837 0.160698 0.0942174 102 148 140
-0.219266 -0.292487 0.717472 100 90 219
-0.417056 -0.879231 -0.488388 74 15 65
-0.398716 -0.861549 -0.825242 77 18 22
-0.307963 -0.428897 0.293109 88 73 165
-0.390542 -0.496544 0.780756 78 64 227
-0.290777 0.285458 0.477072 90 164 188
-0.429464 -0.516538 0.145953 73 62 146
0.265761 -0.444805 -0.770304 161 71 29
-0.151757 -0.0169732 -0.254737 108 125 95
0.175111 -0.404577 -0.793428 150 76 26
-0.0824963 0.199445 0.0715868 117 153 137
-0.401907 -0.884072 0.242313 76 15 158
-0.180738 -0.883115 -0.130265 104 15 111
0.0602673 -0.887708 0.898631 135 14 242
0.157323 -0.527486 -0.884604 148 60 15
0.438132 0.0748748 0.226583 183 137 156
-0.476798 -0.595733 -0.553725 67 52 57
-0.186157 -0.108949 0.114279 104 114 142
0.478248 -0.459495 -0.322058 188 69 86
0.149124 -0.724439 -0.925942 147 35 9
0.40775 -0.890148 0.226894 179 14 156
-0.0975756 0.129186 0.0220533 115 144 130
-0.296337 -0.256514 0.527214 90 95 195
-0.111154 0.253559 0.738962 113 160 222
0.0956983 0.706065 0.564226 140 218 199
-0.487559 -0.773405 -0.573557 65 29 54
0.133003 -0.41483 0.771613 144 75 226
-0.327833 0.176664 0.51274 86 150 193
-0.482762 -0.577825 -0.422772 66 54 74
-0.301856 -0.124248 0.580942 89 112 202
-0.0355418 -0.00349706 -0.333278 123 127 85
-0.235683 -0.883392 0.713438 97 15 218
0.196252 -0.856306 0.948615 153 18 248
0.403526 -0.870865 -0.738487 179 16 33
0.0543936 -0.527685 0.879116 134 60 240
-0.013059 -0.00126006 -0.248585 126 127 96
0.416315 -0.424128 0.387498 181 73 177
0.250633 -0.888907 0.0516876 159 14 134
-0.0874794 -0.884468 0.526315 116 15 195
-0.256861 -0.408507 0.157117 95 75 148
-0.0365577 -0.0334447 -0.192567 123 123 103
0.438262 -0.785951 -0.632322 183 27 47
-0.312539 0.130962 0.210723 88 144 154
-0.277543 -0.797418 -0.92119 92 26 10
0.259232 0.630314 0.407026 161 208 179
-0.121286 0.329071 0.746532 112 169 223
0.105107 -0.887282 -0.035867 141 14 123
0.449984 -0.714343 -0.304278 185 36 89
0.312019 -0.0922844 0.681962 167 116 214
-0.19543 -0.167612 0.175734 103 106 150
0.0771987 -0.0123425 -0.14993 137 126 108
0.29614 0.497548 0.649317 165 191 210
-0.306999 -0.25915 0.693148 88 94 216
-0.347107 -0.513404 0.15978 83 62 148
0.0250897 0.334442 0.0564226 131 170 135
-0.393724 -0.276315 -0.383192 77 92 79
-0.334218 -0.285882 0.548039 85 91 197
-0.217773 -0.115217 -0.273426 100 113 93
0.425178 -0.159601 0.0827931 182 107 138
0.477351 0.163223 0.446501 188 148 184
-0.204777 -0.881687 -0.658317 101 15 44
0.286748 0.0104305 -0.201026 164 129 102
-0.399035 -0.324588 -0.516585 77 86 62
-0.012572 0.0679729 0.793571 126 136 229
0.0563036 -0.32139 0.776156 135 87 226
-0.498626 -0.838188 0.543097 64 21 197
-0.297947 0.136884 0.562246 90 145 199
0.233063 0.748369 0.324204 157 223 169
-0.251729 -0.387126 0.332157 95 78 170
0.261488 -0.703055 0.872304 161 38 239
0.0134561 0.00322782 -0.30694 129 128 88
-0.492582 -0.40576 -0.263836 65 76 94
-0.0549581 -0.197693 0.723215 120 102 220
0.424857 -0.285015 -0.0374709 182 91 123
0.239209 -0.887431 -0.535451 158 14 59
0.457821 -0.203175 -0.295948 186 102 90
0.136415 0.684483 0.305865 145 215 166
-0.462242 -0.318272 -0.253833 69 87 95
-0.256482 -0.308314 0.791575 95 88 228
0.472504 -0.486306 0.0278252 188 65 131
-0.118805 -0.152701 0.112213 112 108 142
-0.48078 -0.734321 0.459327 66 34 186
-0.453605 -0.687004 -0.670557 70 40 42
0.249165 -0.888248 -0.17925 159 14 105
-0.453209 -0.811986 -0.738471 70 24 33
-0.505753 -0.78544 -0.162574 63 27 107
-0.129802 -0.287736 0.814721 111 91 231
0.417114 0.257871 0.199982 181 160 153
0.272756 -0.289444 0.585648 162 91 202
-0.1292 -0.00798601 0.752785 111 126 223
0.235067 0.344647 0.0959193 157 171 140
0.282758 0.495147 0.693503 164 191 216
-0.502027 -0.779721 -0.254984 63 28 95
-0.250428 -0.171196 0.565863 96 106 200
0.423696 -0.0575761 0.193544 182 120 152
-0.0322299 0.735011 0.482015 123 221 189
-0.365343 -0.242565 -0.232339 81 97 98
0.154597 0.01792 -0.141099 147 130 110
-0.233083 -0.375544 -0.781687 98 80 28
-0.492 -0.54403 0.129407 65 58 144
0.290057 -0.88754 -0.667428 164 14 42
0.44164 -0.540023 0.31792 184 59 168
-0.515036 -0.836857 -0.403868 62 21 76
-0.277447 -0.289014 0.411095 92 91 180
0.284087 -0.653933 0.851937 164 44 236
0.330113 0.00845962 0.0234227 170 129 130
-0.0887972 0.47259 0.702416 116 188 217
-0.225492 -0.834356 0.950432 99 21 249
-0.0302765 -0.883251 -0.771129 124 15 29
0.111604 -0.207402 0.7481 142 101 223
0.129462 0.610365 0.230806 144 205 157
0.084335 -0.886869 0.395688 138 14 178
0.454459 0.0914174 0.381908 185 139 176
-0.333543 -0.461033 0.369732 85 69 175
0.128304 -0.886142 -0.583753 144 15 53
0.445243 -0.890267 -0.21198 184 14 100
0.429035 -0.410933 -0.0577376 182 75 120
-0.392652 -0.285873 -0.289226 77 91 91
0.42542 -0.6247 -0.623165 182 48 48
-0.110835 -0.16068 -0.0499411 113 107 121
-0.384704 -0.515871 0.233891 78 62 157
0.445861 -0.390351 -0.265329 184 78 94
0.447345 -0.682369 -0.424954 185 40 73
-0.242021 0.328538 0.757715 97 169 224
0.151219 -0.575638 -0.921597 147 54 10
0.413216 -0.154022 -0.0628635 180 108 119
0.305086 -0.485548 0.670741 166 66 213
0.449312 -0.701168 -0.343795 185 38 84
0.093103 -0.225884 -0.609883 139 99 50
0.0725664 -0.00530561 -0.281022 137 127 92
-0.27217 -0.88211 -0.0379956 93 15 123
0.0541453 -0.884208 -0.801625 134 15 25
0.151236 -0.889146 0.701105 147 14 217
-0.3239 -0.0940523 0.463767 86 116 187
-0.396649 -0.88009 -0.145663 77 15 109
0.388733 -0.117659 -0.37918 177 112 79
0.163081 -0.885781 0.945915 148 15 248
-0.456905 -0.7298 0.634965 69 34 208
-0.282722 -0.859339 -0.926945 91 18 9
-0.0238224 -0.34692 -0.64622 124 83 45
0.334067 0.422426 0.688275 170 181 215
-0.0448695 0.559127 0.157493 122 199 148
0.0489691 -0.595476 0.954856 134 52 249
-0.49122 -0.626361 -0.0553461 65 48 120
0.398126 -0.519247 -0.528484 178 61 60
0.448168 -0.65502 -0.356915 185 44 82
-0.221703 -0.882376 -0.0956045 99 15 115
0.454663 0.0848367 0.554539 185 138 198
-0.316244 -0.513007 0.189571 87 62 152
-0.131892 -0.883741 -0.0659713 111 15 119
0.408445 -0.346315 0.168297 180 83 149
-0.222648 -0.200891 -0.239229 99 102 97
0.0636905 -0.749987 0.95739 136 32 250
-0.229218 -0.198571 -0.318606 98 102 87
0.283362 -0.88886 0.324666 164 14 169
-0.0859862 -0.0370507 -0.359026 117 123 82
-0.110685 0.56405 0.626564 113 199 207
-0.096895 -0.347858 0.163465 115 83 148
0.048893 -0.885939 -0.493767 134 15 65
-0.352328 -0.514372 0.37528 83 62 175
-0.30324 -0.15115 0.45821 89 108 186
0.181144 -0.796873 -0.934649 151 26 8
0.400105 -0.889994 -0.0806508 179 14 117
0.428368 -0.208182 -0.151646 182 101 108
-0.0970687 0.544055 0.21323 115 197 155
-0.140042 -0.288065 0.618533 110 91 206
0.0291262 -0.887214 0.836535 131 14 234
-0.23063 -0.882567 0.0297871 98 15 131
0.408897 0.403243 0.513303 180 179 193
0.03142 0.816036 0.530007 132 232 195
-0.263863 -0.569968 0.886571 94 55 241
0.408317 0.330227 0.27301 180 170 162
0.360293 -0.495161 0.57611 173 64 201
0.456582 -0.0636947 0.426358 186 119 182
-0.351684 -0.737241 -0.829003 83 34 22
0.0605778 -0.886114 0.317829 135 15 168
-0.159275 -0.0518804 -0.32403 107 121 86
0.448536 -0.608895 0.104923 185 50 141
-0.311097 -0.0934087 0.277933 88 116 163
0.21867 -0.644512 0.899482 155 45 242
0.0934409 -0.88684 0.0516376 139 14 134
-0.304129 0.227673 0.262731 89 157 161
0.021996 0.712625 0.538558 130 218 196
-0.421178 -0.818039 0.779843 74 23 227
0.17115 -0.052365 0.824214 149 121 233
-0.0288367 -0.285802 -0.579937 124 91 54
-0.137862 -0.0734826 -0.376919 110 118 79
0.0199721 0.407156 0.72554 130 179 220
0.233577 -0.886976 -0.610062 157 14 50
0.226474 0.0312316 -0.115325 156 131 113
0.322509 -0.536161 -0.794155 169 59 26
0.0532827 -0.29052 -0.60438 134 90 50
0.101044 -0.525666 -0.902307 140 60 12
0.210097 -0.888268 0.368947 154 14 175
-0.386423 -0.515686 0.572908 78 62 201
0.397231 -0.531894 0.56305 178 60 199
0.477362 -0.0497828 0.314192 188 121 168
-0.332478 -0.782403 0.858362 85 28 237
-0.130241 -0.202159 0.73265 111 102 221
-0.287661 0.317061 0.273618 91 168 162
-0.0371901 0.685265 0.420895 123 215 181
0.356129 -0.771436 -0.769582 173 29 29
-0.17563 -0.399415 -0.771663 105 77 29
-0.515147 -0.826797 0.0962142 62 22 140
-0.265895 0.228842 0.593327 94 157 203
-0.0822615 0.549523 0.692734 117 198 216
-0.0130605 0.808767 0.499055 126 231 191
-0.0777507 0.0233581 0.793633 118 130 229
0.487345 -0.471587 -0.160885 190 67 107
0.455051 -0.442441 0.247264 186 71 159
0.429904 -0.811078 -0.688409 182 24 40
-0.138158 -0.15233 -0.408012 110 108 75
-0.289794 0.273297 0.287098 91 162 164
-0.357808 -0.566602 0.815703 82 55 232
0.375187 -0.888836 -0.499923 175 14 64
0.276629 0.613528 0.476807 163 206 188
-0.487866 -0.764111 -0.397675 65 30 77
0.359092 -0.632443 0.765504 173 47 225
-0.28656 -0.0044009 0.141083 91 127 145
0.400108 -0.268748 -0.478574 179 93 66
0.335638 -0.889599 0.462705 170 14 186
0.276874 0.143327 0.0786379 163 146 138
-0.488907 -0.682076 0.276437 65 41 163
0.10379 0.362493 0.0524469 141 174 134
0.0391268 -0.884189 -0.743854 132 15 33
0.323755 0.430198 0.23681 169 182 158
0.402298 -0.301519 0.225933 179 89 156
-0.0637764 -0.10267 0.816217 119 114 232
0.443736 -0.609538 -0.475488 184 50 67
0.0730153 0.820696 0.412456 137 232 180
-0.148519 -0.3703 -0.820328 109 80 23
0.24649 0.0400507 0.793128 159 133 229
-0.180089 -0.233427 0.601811 105 98 204
0.0281354 0.295672 0.791517 131 165 228
0.177584 -0.155792 0.751519 150 108 223
-0.198897 -0.626092 -0.931881 102 48 9
0.021537 -0.0560232 -0.451242 130 120 70
0.467117 -0.878145 0.442937 187 16 184
0.252185 -0.889903 0.648813 160 14 210
-0.0786089 -0.883786 0.399227 117 15 178
-0.0983821 0.0706698 0.0187018 115 137 130
-0.137478 0.521881 0.29833 110 194 166
-0.456626 -0.393685 -0.50582 69 77 63
-0.194894 -0.020699 0.744987 103 125 222
0.17526 0.213427 0.844329 150 155 235
0.446477 -0.569461 0.127219 184 55 144
0.449295 -0.637713 0.176725 185 46 150
0.246182 -0.473173 0.739796 159 67 222
0.442746 0.351178 0.426866 184 172 182
-0.214382 -0.882606 -0.42966 100 15 73
-0.118934 -0.216593 -0.146312 112 100 109
0.477234 -0.853689 -0.482401 188 19 66
-0.00739244 0.578205 0.653173 127 201 211
0.150778 0.523571 0.182557 147 194 151
-0.252558 -0.881929 -0.351859 95 15 83
0.267611 -0.240738 -0.607184 162 97 50
0.470883 -0.792255 0.223423 188 26 156
-0.488664 -0.717971 0.0527906 65 36 134
-0.174856 -0.88432 0.759093 105 15 224
0.280591 -0.233998 0.620045 163 98 207
0.103066 -0.884715 -0.936529 141 15 8
0.426422 -0.543961 -0.602907 182 58 51
0.45122 -0.39642 -0.195427 185 77 103
-0.058042 -0.17082 0.764464 120 106 225
-0.289769 -0.26926 0.457027 91 93 186
0.472573 -0.802978 0.454106 188 25 185
0.456459 -0.432601 0.016154 186 72 130
0.365064 -0.39588 0.489552 174 77 190
-0.125681 -0.591839 -0.953099 111 52 6
0.343695 -0.439206 0.634525 171 72 208
0.0749208 0.72743 0.276198 137 220 163
0.409897 -0.530684 0.398738 180 60 178
0.429805 -0.0355931 0.539261 182 123 196
-0.204554 -0.882793 0.215081 101 15 155
0.0617835 0.0920694 0.0183472 135 139 130
-0.350994 -0.342348 -0.55231 83 84 57
-0.0421137 0.480898 0.149392 122 189 147
0.133058 0.318263 0.805283 144 168 230
0.389413 0.434727 0.575314 177 183 201
0.207084 0.526416 0.173536 154 195 150
0.135895 -0.682078 0.938246 145 41 247
0.258914 -0.412088 -0.742792 161 75 33
0.249433 -0.888655 0.29021 159 14 165
-0.00560998 -0.154137 -0.539749 127 108 59
0.232621 0.01227 -0.3223 157 129 86
0.0314006 0.526336 0.161821 132 195 148
0.0684592 0.534584 0.147339 136 196 146
0.0868541 0.665284 0.544804 139 212 197
0.443756 -0.594358 0.476997 184 52 188
0.362274 -0.493953 -0.620847 174 65 48
-0.0628712 -0.885723 -0.279514 119 15 92
-0.115688 0.178432 0.789102 113 150 228
0.0614389 -0.887318 0.569373 135 14 200
-0.489785 -0.689445 0.124681 65 40 143
0.186209 0.446755 0.128048 151 184 144
-0.330753 -0.880743 -0.175356 85 15 105
0.0920061 0.290001 0.0329498 139 164 132
0.0778912 -0.888128 0.642244 137 14 209
-0.232975 -0.332819 -0.857991 98 85 18
-0.299522 -0.412412 0.0448182 89 75 133
0.177273 0.478909 0.676566 150 189 214
-0.510367 -0.866304 -0.112109 62 17 113
-0.107022 -0.0948468 -0.416884 114 115 74
0.310163 -0.618864 -0.815596 167 49 24
-0.282409 -0.416612 -0.701526 91 74 38
0.438244 -0.301875 0.0518408 183 89 134
0.371275 -0.555149 -0.738703 175 57 33
-0.329544 0.0620937 0.295245 85 135 165
-0.154242 -0.401942 -0.598355 108 76 51
-0.237229 -0.256868 -0.338821 97 95 84
-0.437765 -0.878585 -0.702322 72 15 38
-0.456282 -0.548807 0.660684 69 58 212
0.249897 -0.397163 0.689137 159 77 215
-0.280464 0.311622 0.668059 92 167 213
0.266197 -0.749327 0.869009 161 32 238
-0.208327 -0.281413 0.589282 101 92 203
-0.160003 -0.189785 -0.414204 107 103 75
0.306061 0.572664 0.286405 167 201 164
0.279056 -0.889916 0.789073 163 14 228
0.375627 -0.527205 -0.662047 175 60 43
0.270499 -0.580532 0.862093 162 53 237
-0.18719 -0.318111 -0.458508 104 87 69
0.0194822 0.275783 0.0293818 130 163 131
0.472159 -0.828446 0.54137 188 22 197
-0.352698 -0.512567 0.112264 83 62 142
0.13701 0.0147084 -0.241135 145 129 97
-0.196183 -0.26986 0.758792 102 93 224
-0.4764 -0.672192 -0.579851 67 42 54
-0.453139 -0.76837 -0.686494 70 30 40
-0.0742573 -0.885985 0.847166 118 15 236
0.17797 -0.337062 0.683974 150 85 215
0.104587 0.633792 0.616578 141 208 206
0.218591 0.388818 0.749938 155 177 223
-0.488211 -0.554176 0.485929 65 57 189
0.348639 -0.889475 0.0946078 172 14 140
0.438958 -0.134434 -0.253929 183 110 95
-0.231625 0.0525575 0.632737 98 134 208
0.114036 0.799574 0.398824 142 229 178
-0.254883 -0.267798 0.339934 95 93 171
-0.107936 -0.320393 -0.12621 114 87 111
0.464165 -0.886786 -0.289083 187 14 91
0.292541 -0.730567 -0.834713 165 34 21
0.42614 -0.890365 0.269898 182 14 162
0.27025 -0.887995 -0.401312 162 14 76
0.369269 -0.325604 -0.533074 175 86 60
0.242367 -0.286742 -0.66912 158 91 42
-0.407319 -0.881496 0.642804 76 15 209
-0.385242 -0.883392 0.373879 78 15 175
-0.33176 -0.379794 -0.500234 85 79 64
0.321705 -0.526243 -0.724492 169 60 35
-0.43678 -0.446211 -0.662348 72 71 43
-0.0240659 0.456712 0.736885 124 186 221
0.4171 -0.183433 0.498849 181 104 191
-0.109037 -0.137962 -0.00732509 114 110 127
-0.243404 -0.381062 -0.579221 96 79 54
0.480941 0.0273704 0.288858 189 131 164
0.0969422 -0.520618 0.80959 140 61 231
0.279121 -0.687643 -0.845881 163 40 20
0.301924 0.034907 0.783742 166 132 227
-0.0879419 -0.884252 0.00776288 116 15 128
0.259998 0.754055 0.363796 161 224 174
-0.216297 -0.106948 0.148059 100 114 146
-0.240198 0.365699 0.229884 97 174 157
0.112052 0.182674 0.844683 142 151 235
0.314063 -0.588047 0.820355 168 53 232
-0.258402 -0.286208 -0.356509 95 91 82
-0.043245 -0.642824 0.959852 122 46 250
0.254867 -0.835798 -0.903468 160 21 12
-0.0855796 -0.882432 -0.8175 117 15 23
-0.276441 0.447186 0.67607 92 185 214
0.380289 0.462459 0.269027 176 186 162
0.480826 -0.860878 0.336009 189 18 170
-0.512732 -0.860471 -0.347312 62 18 83
0.102525 -0.410547 -0.877178 141 75 16
-0.396918 -0.798496 0.805055 77 26 230
-0.0209314 -0.8569 0.999422 125 18 255
0.00919574 -0.886009 0.510002 129 15 193
-0.106331 -0.372805 -0.474187 114 80 67
0.481922 -0.482755 -0.109857 189 66 113
-0.0775724 -0.884349 -0.530738 118 15 60
0.465086 0.202346 0.38293 187 153 176
-0.355793 -0.879718 -0.623881 82 15 48
-0.420359 -0.62295 0.736128 74 48 221
0.448713 -0.727118 -0.384244 185 35 79
-0.232405 0.0952491 0.0851445 98 140 138
-0.349169 -0.474345 0.427286 83 67 182
-0.0382636 -0.33758 -0.539828 123 84 59
0.0157978 -0.43329 0.834066 130 72 234
-0.319412 -0.249425 -0.0878235 87 96 116
0.258564 -0.623185 0.872057 160 48 239
0.299037 -0.478041 -0.715004 166 67 36
-0.365775 -0.644575 0.808333 81 45 231
0.0453079 -0.885076 -0.604697 133 15 50
-0.00555288 -0.886799 0.760975 127 14 225
-0.270619 0.32441 0.340482 93 169 171
0.0634273 0.814859 0.486843 136 231 190
-0.0762047 -0.0326123 0.811515 118 123 231
-0.0826003 -0.358453 0.831226 117 82 233
0.0773268 0.618823 0.223718 137 206 156
-0.154765 -0.0588406 0.0990198 108 120 140
-0.362415 -0.273377 -0.0967911 81 93 115
-0.328755 -0.278325 0.637315 86 92 209
-0.312098 -0.880758 -0.397893 88 15 77
-0.102968 0.593926 0.464144 114 203 187
0.0699452 0.0283982 -0.0157521 136 131 125
0.417396 -0.379292 -0.46657 181 79 68
0.12235 -0.653419 -0.934635 143 44 8
-0.194125 0.333195 0.160789 103 170 148
0.388246 0.303986 0.60377 177 166 204
0.11448 0.553591 0.703002 142 198 217
0.00617302 0.425639 0.148258 128 182 146
0.0427751 -0.886282 0.445617 133 14 184
-0.175943 -0.341459 -0.822934 105 84 23
0.407282 0.029256 0.166507 179 131 149
-0.173706 0.516614 0.626077 105 193 207
0.146338 -0.0339766 -0.42789 146 123 73
-0.493123 -0.850494 0.581933 65 19 202
0.425598 0.373892 0.341317 182 175 171
-0.0464553 -0.883078 -0.889396 122 15 14
-0.173857 -0.253788 0.223793 105 95 156
0.046529 -0.00792621 0.808939 133 126 231
-0.154713 -0.883797 0.589849 108 15 203
-0.0871286 -0.883425 0.268741 116 15 162
0.406621 -0.014776 0.595074 179 126 203
0.474722 -0.855456 0.480523 188 18 189
-0.285347 -0.240935 0.346738 91 97 172
0.46478 -0.888053 0.158833 187 14 148
-0.348708 -0.758628 0.826041 83 31 233
0.304621 -0.0237881 0.748952 166 124 223
-0.363853 -0.270129 -0.203637 81 93 102
0.0337125 0.662477 0.53314 132 212 195
-0.126168 -0.884636 -0.397533 111 15 77
-0.002909 -0.344203 0.800994 127 84 230
0.332485 -0.643395 0.801216 170 45 230
-0.405308 -0.881333 0.00196268 76 15 128
-0.492184 -0.573239 0.206977 65 54 154
0.308338 -0.316485 0.532364 167 87 195
-0.169053 -0.881561 -0.749951 106 15 32
-0.416947 -0.754137 0.734218 74 31 221
-0.48546 -0.750907 0.242445 66 32 158
-0.358707 -0.225532 -0.327801 82 99 86
0.173896 -0.887413 -0.24494 150 14 96
-0.347455 -0.357206 -0.763679 83 82 30
-0.491976 -0.554958 0.359806 65 57 173
-0.222156 0.344809 0.559555 99 171 199
-0.203336 0.0720003 0.0712796 102 137 137
-0.379823 -0.882701 0.41375 79 15 180
-0.188909 -0.883313 -0.373302 103 15 80
0.32216 -0.706333 0.815564 169 37 231
0.376591 -0.191619 0.338652 176 103 171
0.210783 -0.886029 -0.863051 154 15 17
0.210678 0.795693 0.375765 154 229 175
-0.331971 -0.406741 0.428191 85 76 182
-0.298125 -0.51273 0.261406 89 62 161
-0.12796 -0.842296 -0.993361 111 20 1
-0.424567 -0.878557 -0.748434 73 15 32
0.00462553 -0.140179 0.829705 128 110 233
0.142958 -0.887041 -0.299777 146 14 89
-0.14322 -0.516042 -0.931498 109 62 9
0.474131 0.235385 0.594818 188 158 203
-0.486752 -0.750015 -0.171079 65 32 106
-0.311164 -0.0730687 0.397533 88 118 178
-0.0931875 0.484816 0.17399 116 189 150
-0.380099 -0.378249 -0.0630745 79 79 119
0.219672 0.61718 0.235967 156 206 158
-0.166142 -0.881458 -0.888738 106 15 14
-0.283154 -0.489275 0.868683 91 65 238
0.257839 -0.887854 -0.45006 160 14 70
-0.268845 0.435816 0.756662 93 183 224
0.227371 -0.889686 0.698263 156 14 217
-0.257144 -0.332333 0.358392 95 85 173
0.121589 -0.0937968 0.78594 143 116 228
-0.0510812 0.669387 0.35353 121 213 173
0.120642 -0.888417 0.51767 143 14 194
-0.0245101 0.282915 0.785616 124 164 228
-0.430962 -0.686668 0.712297 73 40 218
0.0866603 0.564327 0.175662 139 199 150
0.0448725 -0.20385 0.801847 133 102 230
0.321883 -0.281447 0.518641 169 92 194
-0.421348 -0.879969 -0.176517 74 15 105
-0.275424 -0.104576 0.618403 92 114 206
0.377092 -0.389625 0.198873 176 78 153
0.118874 -0.0956612 -0.512173 143 115 62
-0.199131 0.165565 0.723437 102 149 220
0.430607 -0.482813 0.364091 182 66 174
-0.0159074 -0.067421 -0.458514 125 119 69
-0.392999 -0.878958 0.803631 77 15 230
-0.173584 0.551685 0.578418 105 198 201
0.0143318 -0.351067 -0.666241 129 83 43
-0.504586 -0.866606 -0.581691 63 17 53
-0.0865558 -0.882491 -0.891339 116 15 14
-0.257384 -0.275127 -0.0772154 95 92 118
-0.343002 -0.392695 0.71703 84 77 219
0.475546 -0.871826 -0.365081 188 16 81
0.44241 0.267478 0.289473 184 162 164
-0.431156 -0.728962 0.706562 73 35 218
0.278686 -0.888981 0.411105 163 14 180
-0.490342 -0.617647 -0.1249 65 49 112
0.44157 -0.539583 0.261181 184 59 161
0.243971 0.70915 0.490517 159 218 190
-0.204351 0.286911 0.582169 101 164 202
-0.298567 -0.369965 -0.439338 89 80 71
0.317207 -0.493447 -0.681411 168 65 41
-0.0169309 -0.811474 0.991145 125 24 254
0.393882 -0.0817262 -0.122504 178 117 112
0.403088 -0.458599 0.50427 179 69 192
0.171525 0.372311 0.743392 149 175 222
0.195596 0.199027 0.0604208 152 153 135
0.351156 0.510593 0.259535 172 193 161
0.408133 -0.889528 -0.36515 180 14 81
-0.154973 -0.230749 0.668067 108 98 213
0.087832 0.357997 0.775949 139 173 226
-0.168975 -0.29942 0.673333 106 89 213
0.39443 -0.0717854 -0.267124 178 118 93
0.105616 0.0277151 0.841817 141 131 235
0.245618 0.446832 0.749639 159 184 223
0.0882624 0.498013 0.156073 139 191 147
-0.153572 -0.652802 -0.949399 108 44 6
-0.233446 -0.882809 0.160849 98 15 148
0.334743 0.585871 0.551138 170 202 198
0.213158 0.254293 0.781214 155 160 227
-0.446479 -0.754529 0.665288 71 31 212
-0.0920865 0.628739 0.369507 116 208 175
0.452276 0.338897 0.490218 185 171 190
0.394262 -0.600896 0.70402 178 51 217
-0.507221 -0.80644 0.367475 63 25 174
-0.318364 -0.120741 0.391447 87 112 177
-0.344527 -0.880311 -0.327243 84 15 86
-0.136693 -0.884964 0.819609 110 15 232
0.476409 -0.803442 0.0150381 188 25 129
0.0997859 0.815806 0.558757 140 232 199
-0.244811 0.430474 0.243936 96 182 159
0.000376239 0.156571 0.778846 128 147 227
-0.233681 -0.880947 -0.792096 98 15 27
0.482846 -0.861878 0.0845766 189 18 138
0.451735 -0.717756 -0.109967 185 36 113
-0.117098 -0.313032 0.0951835 113 88 140
-0.100092 -0.883625 -0.589833 115 15 52
-0.195333 -0.371829 0.268086 103 80 162
0.342724 0.546893 0.577643 171 197 201
-0.101568 -0.0982091 0.778837 115 115 227
0.486924 0.260686 0.389559 190 161 177
-0.169095 -0.256075 -0.438853 106 95 72
0.0453207 0.387543 0.0685927 133 177 136
-0.482506 -0.606958 -0.46619 66 50 68
0.457562 0.0985374 0.303827 186 140 166
-0.010191 -0.706062 -0.964403 126 37 5
0.483037 0.0180778 0.329568 189 130 170
0.466966 -0.267672 -0.26171 187 93 94
-0.491625 -0.599733 0.29084 65 51 165
0.108532 -0.88527 -0.712454 141 15 37
-0.0909667 0.0544451 0.759567 116 134 224
-0.409464 -0.879649 -0.404206 75 15 76
0.472979 -0.880484 -0.0542642 188 15 121
0.399351 -0.88997 0.1852 178 14 151
0.115197 -0.887081 0.317226 142 14 168
0.405012 0.484725 0.530482 179 189 195
0.0160301 0.199717 0.0493174 130 153 134
-0.462101 -0.519054 0.239202 69 61 158
0.31758 0.605892 0.363205 168 205 174
-0.0679627 -0.372634 -0.493027 119 80 65
-0.11947 -0.325066 0.0398824 112 86 133
-0.459828 -0.329541 -0.175373 69 85 105
-0.247217 -0.66494 0.899499 96 43 242
-0.356155 -0.602002 -0.817366 82 51 23
0.261456 -0.769237 -0.862207 161 29 18
-0.0661297 0.391479 0.111435 119 177 142
-0.268358 -0.881859 -0.139437 93 15 110
-0.0811522 -0.120961 -0.0865527 117 112 116
0.393501 0.491139 0.434877 178 190 183
0.0812153 -0.42965 0.815749 138 73 232
-0.376127 -0.766025 0.79927 80 30 229
0.50475 0.257174 0.443892 192 160 184
0.447034 -0.571765 -0.079332 184 55 117
0.369773 -0.535689 0.725474 175 59 220
-0.486446 -0.878093 0.486238 65 16 189
0.312732 -0.79641 0.846955 167 26 235
-0.259761 0.391238 0.252015 94 177 160
0.232682 0.608546 0.65602 157 205 211
0.403679 -0.394472 -0.540685 179 77 59
0.451671 -0.777816 0.491484 185 28 190
-0.198348 -0.522132 0.875294 102 61 239
-0.24798 0.387569 0.318866 96 177 168
-0.165465 -0.647443 0.936096 106 45 247
0.343826 -0.410245 0.575939 171 75 201
-0.0999887 -0.35248 -0.0667421 115 83 119
-0.0771131 -0.193652 -0.524199 118 103 61
-0.080691 -0.885616 0.761869 117 15 225
0.260772 -0.889903 0.839266 161 14 235
0.235712 -0.619452 -0.877156 158 49 16
0.304178 -0.888932 -0.00451624 166 14 127
0.268355 0.532458 0.18033 162 195 150
-0.489171 -0.692294 0.186461 65 39 151
-0.233594 0.149892 0.118789 98 147 143
-0.135665 -0.884282 -0.246767 110 15 96
-0.439816 -0.879597 -0.256209 71 15 95
-0.429997 -0.479006 -0.0853902 73 66 117
-0.00828967 -0.884731 0.275971 126 15 163
0.312628 0.369677 0.142873 167 175 146
0.145672 0.0347032 -0.0608116 146 132 120
-0.222045 -0.479778 -0.914423 99 66 11
0.272771 0.781657 0.424664 162 227 182
-0.169914 0.137312 0.0582731 106 145 135
-0.0523324 0.565634 0.269331 121 200 162
-0.196913 -0.331727 0.842488 102 85 235
-0.490611 -0.599765 0.422438 65 51 181
-0.0261194 -0.116792 -0.49971 124 113 64
-0.490253 -0.780058 0.499209 65 28 191
0.440081 -0.539139 0.375839 184 59 175
-0.429007 -0.392053 -0.115972 73 78 113
-0.245394 -0.880659 -0.865667 96 15 17
-0.42091 -0.858157 0.77845 74 18 227
-0.142188 -0.751634 -0.954993 109 32 6
-0.38578 -0.40161 0.580363 78 76 201
0.172719 -0.887949 0.259453 150 14 161
-0.481687 -0.73141 -0.532265 66 34 60
-0.0476453 0.727288 0.406604 121 220 179
-0.179081 0.0297851 0.0891145 105 131 139
0.12966 0.559395 0.185082 144 199 151
-0.294361 0.24699 0.533174 90 159 195
0.255942 0.403028 0.146451 160 179 146
-0.135005 -0.311466 0.181636 110 88 151
0.0708976 -0.886466 0.0884074 137 14 139
0.40302 -0.353286 -0.0687975 179 82 119
-0.199394 -0.600604 0.920958 102 51 245
0.322147 -0.246902 0.552224 169 96 198
0.17037 -0.886417 -0.576449 149 14 54
0.419853 -0.590157 -0.640814 181 52 46
0.00836116 -0.0810861 0.811853 129 117 231
0.329681 -0.533904 0.779542 170 59 227
0.418361 -0.442932 0.466194 181 71 187
-0.212891 0.410767 0.432654 100 180 183
0.0271198 -0.781895 -0.972962 131 28 3
-0.1397 0.576266 0.523145 110 201 194
-0.0330593 0.661277 0.280855 123 212 163
0.21271 -0.88818 0.127274 155 14 144
-0.00805167 -0.884197 -0.635749 126 15 46
-0.344907 -0.883191 0.341112 84 15 171
0.294368 0.390257 0.753945 165 177 224
0.16741 0.0545281 0.816878 149 134 232
0.428761 -0.20074 0.396944 182 102 178
-0.511487 -0.802691 0.0660337 62 25 136
-0.219345 0.203475 0.16006 100 153 148
-0.0512733 -0.885864 0.687285 121 15 215
0.450286 -0.650751 -0.088388 185 45 116
0.338538 0.00537617 0.0613222 171 128 135
0.434832 -0.201868 0.127963 183 102 144
0.157199 0.014913 -0.30759 148 129 88
0.0370277 -0.584482 -0.954104 132 53 6
0.142363 -0.886751 -0.442281 146 14 71
0.0216194 -0.531042 0.936171 130 60 247
-0.239895 0.179636 0.66456 97 150 212
-0.13423 -0.22722 -0.0691801 110 99 119
0.456483 -0.443863 -0.454439 186 71 70
0.44549 -0.698235 0.506663 184 38 192
0.224037 0.629298 0.533157 156 208 195
0.42421 -0.889751 -0.418705 182 14 74
0.406049 -0.343732 -0.477283 179 84 67
0.265024 -0.888277 -0.322154 161 14 86
-0.336094 0.168743 0.37927 85 149 176
-0.0620488 -0.884086 0.322959 120 15 169
-0.296624 -0.197491 -0.336806 90 102 85
0.251516 0.0208679 -0.227236 160 130 99
0.147208 0.703617 0.569272 146 217 200
0.29524 -0.372178 -0.650172 165 80 45
-0.207828 -0.161513 -0.20285 101 107 102
0.365584 0.455131 0.413061 174 186 180
-0.195908 0.473334 0.328213 103 188 169
-0.146706 -0.395197 -0.698683 109 77 38
0.449511 -0.69607 0.399702 185 39 178
0.468654 -0.859184 -0.558311 187 18 56
-0.120323 -0.255477 -0.12211 112 95 112
-0.298022 0.330444 0.637927 90 170 209
0.175851 0.80423 0.505928 150 230 192
-0.323748 -0.843279 0.890374 86 20 241
-0.114584 -0.388277 -0.555631 113 78 57
-0.00120003 0.0568801 0.00905537 127 135 129
0.427363 0.384237 0.382212 182 176 176
0.018771 0.595611 0.171704 130 203 149
-0.465492 -0.589198 0.630987 68 52 208
-0.295397 -0.382758 -0.530689 90 79 60
-0.433723 -0.477646 -0.639724 72 67 46
-0.396927 -0.736133 0.767732 77 34 225
0.380099 0.17343 0.196011 176 150 152
0.158587 0.751953 0.586512 148 223 202
-0.32503 -0.591731 0.845663 86 52 235
-0.299099 -0.88116 -0.248044 89 15 96
0.288157 -0.526154 -0.743265 164 60 33
-0.256878 -0.607341 0.892257 95 50 241
-0.462159 -0.6928 0.625982 69 39 207
-0.447543 -0.511845 -0.560657 70 62 56
-0.0240455 -0.886068 -0.334189 124 15 85
0.204256 -0.889461 0.762883 154 14 225
0.450012 -0.640502 -0.128622 185 46 111
0.485845 -0.467612 -0.0441635 189 68 122
-0.4593 -0.356518 -0.458905 69 82 69
-0.264385 -0.594067 -0.895512 94 52 13
-0.444644 -0.519344 0.59463 71 61 203
-0.0397678 -0.495378 0.853594 122 64 236
0.460571 -0.0232528 0.269494 186 125 162
0.106018 0.226685 0.801695 141 156 230
0.121845 -0.849534 -0.969097 143 19 4
-0.444601 -0.880208 0.184283 71 15 151
-0.305683 -0.882889 0.723294 89 15 220
-0.31686 -0.0718496 0.571587 87 118 200
0.192767 0.690379 0.549762 152 216 198
0.366134 -0.20635 0.546948 174 101 197
-0.256763 -0.219266 -0.277207 95 100 92
-0.503694 -0.781242 -0.0235372 63 28 124
-0.0956731 -0.226544 -0.175129 115 99 105
0.0805931 -0.318495 -0.811663 138 87 24
-0.453481 -0.630854 0.66442 70 47 212
0.0989503 -0.152911 -0.564766 140 108 55
-0.23162 0.412006 0.586543 98 180 202
-0.378008 -0.839628 0.838457 79 20 234
-0.23448 -0.279762 0.647702 98 92 210
-0.0503798 0.386644 0.73782 121 177 222
-0.384565 -0.882048 0.722243 78 15 220
-0.278782 0.293157 0.401166 92 165 179
0.446763 -0.59221 0.311052 184 52 167
0.385326 -0.0671359 0.623432 177 119 207
-0.172927 -0.781948 0.947424 105 28 248
0.133752 -0.288879 -0.69393 145 91 39
-0.0122047 -0.0239139 -0.0539921 126 124 121
0.39686 -0.231749 -0.464105 178 98 68
0.165385 0.429942 0.787846 149 182 228
-0.288804 -0.133174 0.520862 91 111 194
0.0530076 -0.886971 -0.160547 134 14 107
0.342674 -0.0207717 -0.164025 171 125 107
0.0314217 -0.482739 0.836563 132 66 234
-0.130271 -0.269372 0.1731 111 93 150
0.187761 -0.88769 -0.12789 151 14 111
0.457241 0.0557051 0.450901 186 135 185
0.456785 -0.890175 0.0142868 186 14 129
0.235965 -0.234623 0.659264 158 98 212
-0.0999502 -0.513703 -0.944418 115 62 7
0.447264 -0.638852 -0.391497 185 46 78
-0.347025 -0.326959 0.674855 83 86 214
-0.511714 -0.810918 -0.467015 62 24 68
0.419805 -0.100777 -0.235411 181 115 97
-0.325783 -0.312409 0.478219 86 88 188
-0.482299 -0.795708 0.611379 66 26 205
-0.444531 -0.880236 0.062262 71 15 135
-0.0033791 -0.88586 -0.366244 127 15 81
-0.225248 -0.19169 0.24 99 103 158
0.0595225 -0.885601 -0.565811 135 15 55
0.12544 0.79621 0.280123 143 229 163
0.437586 0.144544 0.343806 183 146 171
-0.145992 -0.883539 0.492078 109 15 190
0.441372 -0.890851 0.515679 184 14 193
-0.459714 -0.866775 0.69494 69 17 216
0.356303 -0.398062 0.347252 173 77 172
0.398041 0.413338 0.434605 178 180 183
0.0272823 -0.690056 0.959848 131 40 250
-0.208415 -0.884953 0.90459 101 15 243
0.418245 -0.753672 -0.649972 181 31 45
0.393937 -0.499994 -0.561487 178 64 56
0.477958 0.11309 0.568252 188 142 200
-0.140605 0.569259 0.363608 110 200 174
-0.0228897 -0.8865 0.724461 125 14 220
0.137828 -0.532543 0.913179 145 60 244
0.428974 -0.534237 0.442891 182 59 184
-0.291093 0.347486 0.713213 90 172 218
0.0292768 -0.327862 -0.812794 131 86 24
-0.384495 -0.829658 -0.840366 78 22 20
-0.350534 -0.880716 -0.140648 83 15 110
-0.273471 -0.880568 -0.79152 93 15 27
0.240311 -0.889614 0.564657 158 14 199
-0.466357 -0.386931 -0.21999 68 78 99
0.204771 -0.100728 -0.513254 154 115 62
-0.144916 -0.881745 -0.852387 109 15 19
0.45985 -0.780664 0.309268 186 28 167
0.40465 0.0947645 0.211591 179 140 154
-0.00264749 -0.885846 -0.0338451 127 15 123
0.465146 -0.337214 -0.319715 187 85 87
0.380515 -0.889634 -0.167338 176 14 106
-0.278034 0.394428 0.738933 92 178 222
0.342332 -0.530609 0.636386 171 60 209
-0.0419342 -0.885342 -0.0948481 122 15 115
0.451854 -0.779221 -0.506953 185 28 63
0.46439 -0.404722 -0.310862 187 76 88
0.42361 -0.334149 -0.160897 182 85 107
0.34772 -0.889473 0.246942 172 14 159
-0.151781 -0.883141 -0.530614 108 15 60
0.061027 0.16873 0.0326368 135 149 132
-0.0535008 -0.255957 -0.566759 121 95 55
-0.135025 -0.270116 -0.0122861 110 93 126
0.205288 0.635211 0.310693 154 208 167
-0.399619 -0.516059 0.6998 77 62 217
0.0969957 -0.457215 -0.928902 140 69 9
-0.216426 -0.394799 0.154773 100 77 147
0.344499 -0.385604 0.387999 171 78 177
0.36582 -0.0329632 0.0712671 174 123 137
0.445495 -0.551524 0.0441406 184 57 133
-0.143139 -0.526438 0.908238 109 60 243
-0.172984 -0.0495508 -0.28882 105 121 91
0.211503 -0.888596 0.0524456 154 14 134
0.136774 -0.353809 -0.837873 145 82 21
-0.312605 -0.882898 0.362595 88 15 174
0.155482 -0.420847 -0.886831 147 74 14
0.447696 -0.605106 0.249315 185 50 159
0.468473 -0.273198 -0.322027 187 93 86
0.26554 -0.886753 -0.805646 161 14 25
0.452428 -0.731643 0.0120915 185 34 129
0.279306 -0.030051 0.793556 163 124 229
0.204619 -0.014429 -0.398516 154 126 77
0.22974 -0.0257539 0.797532 157 124 229
-0.344034 -0.316822 0.524223 84 87 194
-0.486536 -0.659055 -0.407995 65 43 75
-0.228677 -0.656865 -0.91904 98 44 10
-0.0757852 0.337323 0.0779137 118 171 137
-0.16856 0.515777 0.332514 106 193 170
0.0581324 -0.883916 -0.950163 135 15 6
