ply
format ascii 1.0
comment Created by Open3D
element vertex 1216
property double x
property double y
property double z
property uchar red
property uchar green
property uchar blue
end_header
-0.0284334 -0.346649 -0.646951 124 83 45
-0.0284334 -0.350065 -0.606265 124 83 50
-0.331237 -0.2726 -0.0773446 85 93 118
0.0854879 -0.231914 0.738205 138 98 222
-0.0347814 -0.345835 -0.589991 123 83 52
0.1099 0.584056 0.671281 142 202 213
-0.329511 -0.2726 -0.0763568 85 93 118
0.170764 0.484163 0.679419 149 189 214
-0.0284334 -0.346402 -0.589991 124 83 52
-0.280688 -0.0203454 0.159638 92 125 148
0.174998 0.476831 0.679419 150 188 214
0.174998 0.484163 0.672577 150 189 213
-0.085394 0.559245 0.215596 117 199 155
0.446702 0.101713 0.402752 184 140 179
0.444034 0.101713 0.41089 184 140 180
0.431094 0.370242 0.386478 182 175 177
0.435389 0.362688 0.386478 183 174 177
0.305193 -0.0319177 0.720105 166 123 219
0.451664 0.0985 0.508537 185 140 192
0.174998 0.488688 0.166773 150 190 149
0.299049 -0.0284827 0.728242 166 124 220
0.305193 -0.0284827 0.720961 166 124 219
0.171162 0.492301 0.671281 149 190 213
0.174998 0.48712 0.671281 150 190 213
-0.386472 -0.524854 0.77536 78 61 226
0.174998 0.492301 0.670099 150 190 213
0.167631 0.492301 0.679419 149 190 214
0.16979 0.492301 0.695693 149 190 216
-0.224544 0.370242 0.199321 99 175 153
-0.388971 -0.516717 -0.728324 78 62 35
-0.386472 -0.516717 -0.730527 78 62 34
-0.281726 -0.00407097 0.256282 92 127 160
-0.227828 0.370242 0.207459 98 175 154
-0.392153 -0.516717 -0.720186 78 62 36
-0.280688 -0.00407097 0.25486 92 127 160
-0.394264 -0.516717 -0.712049 77 62 37
-0.230749 0.370242 0.215596 98 175 155
-0.0873625 0.58181 0.32138 116 202 168
-0.394118 -0.516717 0.64687 77 62 210
-0.085394 0.581626 0.598046 117 202 204
-0.394245 -0.516717 0.663144 77 62 212
-0.329511 -0.241124 -0.134305 85 97 110
0.305193 -0.0203454 0.725058 166 125 220
-0.393748 -0.516717 0.671281 77 62 213
-0.394475 -0.516717 0.679419 77 62 214
0.174161 0.500438 0.671281 150 191 213
-0.394355 -0.516717 0.760791 77 62 225
0.174998 0.500438 0.670957 150 191 213
0.354017 0.394654 0.226393 173 178 156
0.231958 0.476026 0.679303 157 188 214
0.1099 0.638771 0.303432 142 209 166
0.434166 0.370242 0.484125 183 175 189
-0.393317 -0.50858 -0.0285212 77 63 124
-0.280688 -0.00074717 0.248145 92 127 159
0.231958 0.484163 0.672632 157 189 213
-0.390579 -0.50858 -0.0203839 78 63 125
0.231958 0.489798 0.158635 157 190 148
-0.386472 -0.509788 -0.0122466 78 63 126
-0.117943 -0.516717 -0.938911 112 62 8
0.231958 0.492301 0.16063 157 190 148
-0.226609 0.378379 0.207459 99 176 154
-0.386472 -0.50858 -0.0148409 78 63 126
-0.117943 -0.524362 0.866575 112 61 238
-0.223727 0.378379 0.204469 99 176 154
-0.386472 -0.510936 -0.00410945 78 62 127
-0.117943 -0.516717 0.859922 112 62 237
-0.337369 -0.223776 -0.183129 84 99 104
0.231958 0.500438 0.166213 157 191 149
0.107083 0.646908 0.305106 141 210 166
-0.0202961 0.674253 0.370203 125 213 175
-0.329511 -0.228757 -0.142442 85 98 109
0.1099 0.646908 0.304493 142 210 166
-0.085394 0.582941 0.32138 117 202 168
-0.329511 -0.223776 -0.148081 85 99 109
0.446334 0.10985 0.394615 184 142 178
-0.085394 0.585306 0.329517 117 202 170
0.1099 0.64403 0.549223 142 210 198
0.305193 -0.0183015 0.728242 166 125 220
-0.085394 0.589947 0.332947 117 203 170
0.447059 0.10985 0.41089 185 142 180
0.1099 0.646908 0.547453 142 210 197
-0.287595 0.0122035 0.272557 91 129 162
0.231958 0.501396 0.166773 157 191 149
-0.085394 0.587233 0.589909 117 202 203
0.231958 0.508575 0.170365 157 192 149
-0.334915 -0.215639 -0.191266 85 100 103
0.428438 0.378379 0.46785 182 176 187
-0.335324 -0.215639 -0.174991 85 100 105
0.231958 0.516712 0.174388 157 193 150
0.102494 0.663183 0.305106 141 212 166
-0.333686 -0.215639 -0.166854 85 100 106
0.435389 0.37592 0.484125 183 175 189
-0.329511 -0.216752 -0.158717 85 100 107
0.435389 0.378379 0.482081 183 176 189
0.1099 0.663183 0.306046 142 212 167
0.231958 0.51797 0.17491 157 194 150
0.433597 0.378379 0.492262 183 176 190
-0.329511 -0.221938 -0.15058 85 99 108
0.231958 0.52485 0.17743 157 194 150
0.435389 0.378379 0.486199 183 176 189
0.428731 0.378379 0.500399 182 176 191
0.1099 0.665282 0.305106 142 212 166
-0.085394 0.598085 0.335176 117 204 170
0.231958 0.532987 0.179968 157 195 150
-0.0923209 0.598085 0.484125 116 204 189
-0.0883652 0.598085 0.492262 116 204 190
-0.287548 0.0203407 0.272557 91 130 162
-0.117943 -0.451619 -0.95587 112 70 6
0.22714 0.541124 0.638732 156 196 209
0.435389 0.380627 0.475988 183 176 188
0.231958 0.541124 0.637501 157 196 209
0.231958 0.533584 0.64687 157 196 210
0.1099 0.679457 0.553163 142 214 198
0.445784 0.117988 0.386478 184 143 177
-0.435295 -0.517761 -0.606265 72 61 50
0.433221 0.386516 0.500399 183 177 191
0.354017 0.427203 0.591343 173 182 203
-0.166766 -0.0284827 0.743253 106 124 222
-0.441156 -0.516717 -0.598128 71 62 51
-0.117943 -0.435345 -0.952616 112 72 6
-0.435295 -0.51708 -0.598128 72 62 51
0.446567 0.117988 0.402752 184 143 179
0.1099 0.687594 0.556961 142 215 199
-0.436089 -0.516717 -0.589991 72 62 52
0.231958 0.549261 0.633975 157 198 208
-0.085394 0.605155 0.337655 117 205 171
-0.435295 -0.516756 -0.589991 72 62 52
0.174998 0.532987 0.654775 150 195 211
0.1099 0.688421 0.55736 142 215 199
-0.085394 0.602711 0.492262 117 204 190
-0.435295 -0.516717 -0.589743 72 62 52
0.1099 0.695732 0.562006 142 216 199
0.353534 0.43534 0.589909 173 183 203
-0.085394 0.606222 0.490855 117 205 190
0.354017 0.433544 0.589909 173 183 203
-0.085394 0.599918 0.500399 117 204 191
0.1099 0.696923 0.288831 142 216 164
0.1099 0.703869 0.291148 142 217 165
0.354017 0.43534 0.58978 173 183 203
-0.231213 0.402791 0.419027 98 179 181
-0.117943 -0.41907 -0.958865 112 74 5
0.346237 0.43534 0.598046 172 183 204
-0.287372 0.028478 0.272557 91 131 162
-0.12128 -0.41907 -0.6795 112 74 41
-0.117943 -0.420014 -0.6795 112 74 41
-0.282276 0.028478 0.589909 92 131 203
0.443736 0.126125 0.378341 184 144 176
0.174998 0.541124 0.64779 150 196 210
-0.117943 -0.41907 -0.678477 112 74 41
0.446413 0.126125 0.394615 184 144 178
0.1099 0.712006 0.568309 142 218 200
0.248233 0.801532 0.427164 159 230 182
-0.166766 -0.0203454 0.740834 106 125 222
0.248233 0.803213 0.475988 159 230 188
-0.117943 -0.410933 -0.957991 112 75 5
0.167723 0.549261 0.64687 149 198 210
-0.0355913 -0.215639 0.720105 123 100 219
0.174998 0.541567 0.64687 150 197 210
-0.0314268 -0.215639 0.728242 123 100 220
-0.117943 -0.415541 0.858438 112 75 237
-0.166766 -0.0122081 0.122367 106 126 143
0.174998 0.549261 0.640429 150 198 209
0.447154 0.134262 0.386478 185 145 177
-0.0284334 -0.215639 0.733565 124 100 221
-0.166766 -0.0122081 0.738728 106 126 222
0.352323 0.476026 0.41089 172 188 180
-0.117943 -0.410933 0.85433 112 75 236
-0.224344 0.410928 0.313243 99 180 167
0.354017 0.469289 0.41089 173 187 180
-0.166766 -0.00407097 0.736385 106 127 221
-0.23139 0.410928 0.32138 98 180 168
-0.117943 -0.40763 -0.687637 112 76 40
-0.231326 0.410928 0.353929 98 180 173
0.248233 0.822228 0.459713 159 232 186
-0.117943 -0.402796 -0.692073 112 76 39
-0.230112 0.410928 0.402752 98 180 179
-0.287924 0.0366152 0.272557 91 132 162
0.174998 0.55253 0.638732 150 198 209
-0.280688 0.0317635 0.589909 92 132 203
-0.166766 -0.00402385 0.736379 106 127 221
-0.22696 0.410928 0.419027 99 180 181
0.352071 0.484163 0.41089 172 189 180
-0.124918 -0.402796 0.834026 112 76 234
-0.166766 0.00406631 0.735485 106 128 221
-0.0284334 -0.207502 0.731126 124 101 221
0.174998 0.557399 0.633825 150 199 208
-0.117943 -0.407296 0.834026 112 76 234
-0.0304398 -0.207502 0.728242 124 101 220
0.354017 0.484163 0.412652 173 189 180
-0.117943 -0.402796 0.828702 112 76 233
0.171869 0.565536 0.630595 149 200 208
0.174998 0.559967 0.630595 150 199 208
0.174998 0.565536 0.626927 150 200 207
0.351998 0.492301 0.41089 172 190 180
-0.117943 -0.396729 -0.785284 112 77 27
-0.117943 -0.394658 -0.789605 112 77 27
0.231958 0.612745 0.313243 157 206 167
0.167883 0.573673 0.630595 149 201 208
0.104161 0.785241 0.475988 141 228 188
0.354017 0.492301 0.414514 173 190 180
0.174998 0.573673 0.626784 150 201 207
0.427426 0.459752 0.443439 182 186 184
0.435389 0.459752 0.449794 183 186 185
-0.168593 0.0203407 0.101675 106 130 140
0.229959 0.614359 0.32138 157 206 168
-0.0887562 0.630634 0.435301 116 208 183
-0.166766 0.0200879 0.101675 106 130 140
-0.117943 -0.396626 -0.777147 112 77 28
0.352008 0.500438 0.41089 172 191 180
-0.120681 -0.394658 -0.76901 112 77 29
-0.166766 0.0203407 0.096212 106 130 140
-0.166766 0.0123791 0.109812 106 129 142
-0.223727 0.411283 0.313243 99 180 167
0.352423 0.500438 0.419027 172 191 181
-0.117943 -0.397009 -0.695775 112 77 39
0.432844 0.467889 0.451576 183 187 185
-0.223727 0.416585 0.32138 99 181 168
0.435389 0.463129 0.451576 183 187 185
-0.228585 0.419065 0.353929 98 181 173
-0.231771 0.419065 0.362066 98 181 174
-0.125929 -0.394658 -0.606265 111 77 50
0.1099 0.789121 0.370203 142 228 175
-0.225627 0.419065 0.402752 99 181 179
-0.122609 -0.394658 -0.598128 112 77 51
-0.174588 0.028478 0.0935374 105 131 139
0.1099 0.789149 0.378341 142 228 176
0.352854 0.508575 0.41089 172 192 180
-0.223727 0.419065 0.405843 99 181 179
0.346705 0.508575 0.419027 172 192 181
0.1099 0.789417 0.386478 142 228 177
0.105155 0.793379 0.394615 141 229 178
-0.386472 -0.51581 0.622458 78 62 207
0.1099 0.792371 0.394615 142 229 178
-0.117943 -0.390327 -0.817833 112 78 23
0.1099 0.793379 0.395815 142 229 178
-0.386472 -0.514544 0.630595 78 62 208
0.106891 0.793379 0.475988 141 229 188
-0.282004 0.0610269 0.191184 92 135 152
-0.386472 -0.513276 0.638732 78 62 209
0.1099 0.786338 0.484125 142 228 189
-0.386472 -0.509944 0.64687 78 62 210
-0.280688 0.0595049 0.191184 92 135 152
-0.117943 -0.393822 -0.809696 112 77 24
0.1099 0.793379 0.478802 142 229 189
-0.388351 -0.50858 0.655007 78 63 211
-0.117943 -0.393256 -0.793422 112 77 26
0.1099 0.788791 0.492262 142 228 190
-0.386472 -0.50858 0.647989 78 63 210
-0.391079 -0.50858 0.663144 78 63 212
-0.353923 -0.524854 0.809231 82 61 231
-0.285986 0.0691642 0.191184 91 136 152
-0.230009 0.427203 0.337655 98 182 171
-0.174034 0.0610269 0.711968 105 135 218
-0.226428 0.427203 0.353929 99 182 173
-0.358938 -0.516717 -0.777147 82 62 28
-0.22605 0.427203 0.362066 99 182 174
-0.166766 0.0610269 0.71569 106 135 219
-0.353923 -0.516717 -0.784112 82 62 28
0.303235 0.0366152 0.0528513 166 132 134
-0.117943 -0.389791 -0.62254 112 78 48
0.304984 0.0366152 0.0609884 166 132 135
-0.117943 -0.38794 -0.614402 112 78 49
-0.117943 -0.387397 -0.606265 112 78 50
0.305193 0.0366152 0.0615091 166 132 135
-0.117943 -0.392691 -0.598128 112 77 51
-0.286886 0.0773015 0.191184 91 137 152
0.10641 0.801516 0.475988 141 230 188
-0.117943 -0.388315 -0.589991 112 78 52
0.1099 0.801516 0.47766 142 230 188
-0.117943 -0.386521 -0.588427 112 78 52
-0.359336 -0.50858 0.0365767 82 63 132
0.302591 0.0447525 0.0609884 166 133 135
0.410977 -0.890761 0.663144 180 14 212
0.174998 0.638771 0.315551 150 209 168
-0.353923 -0.509201 0.044714 82 63 133
0.410977 -0.890203 0.671281 180 14 213
-0.353923 -0.50858 0.0437374 82 63 133
0.167172 0.638771 0.532948 149 209 195
-0.353923 -0.510662 0.0528513 82 62 134
0.174998 0.638771 0.529399 150 209 195
-0.437161 -0.50858 -0.589991 72 63 52
-0.117943 -0.391027 -0.53303 112 78 60
0.174998 0.634154 0.549223 150 208 198
-0.435295 -0.516534 -0.589991 72 62 52
-0.125142 -0.386521 -0.524893 112 78 61
-0.435295 -0.50858 -0.597414 72 63 51
-0.117943 -0.386521 -0.52938 112 78 60
-0.28724 0.0854386 0.191184 91 138 152
0.231958 0.628792 0.55736 157 208 199
-0.439531 -0.50858 -0.581853 71 63 53
-0.117943 -0.387678 0.134224 112 78 145
0.174998 0.646908 0.319097 150 210 168
-0.441822 -0.50858 -0.573716 71 63 54
-0.280688 0.0854386 0.559328 92 138 199
-0.166766 0.101713 0.743066 106 140 222
-0.117943 -0.386521 0.13263 112 78 144
-0.443398 -0.50858 -0.126168 71 63 111
-0.282569 0.0854386 0.55736 91 138 199
-0.439197 -0.50858 -0.118031 72 63 112
-0.280688 0.0848117 0.573635 92 138 201
-0.223727 0.430418 0.362066 99 182 174
-0.166766 0.10407 0.744517 106 141 222
0.224471 0.638771 0.386478 156 209 177
-0.435295 -0.50858 -0.110215 72 63 113
0.231958 0.634379 0.386478 157 208 177
-0.117943 -0.378384 -0.935116 112 79 8
-0.231346 0.43534 0.378341 98 183 176
0.228637 0.638771 0.394615 157 209 178
-0.0929796 0.67132 0.565497 116 213 200
0.231958 0.63535 0.394615 157 209 178
0.229442 0.638771 0.402752 157 209 179
0.231958 0.635818 0.402752 157 209 179
0.231353 0.638771 0.41089 157 209 180
-0.125585 -0.378384 -0.720186 111 79 36
0.354017 0.549261 0.392358 173 198 178
0.231958 0.638771 0.411909 157 209 180
0.231577 0.638771 0.459713 157 209 186
0.231958 0.638771 0.45869 157 209 186
-0.223727 0.43534 0.770501 99 183 226
0.226694 0.638771 0.46785 156 209 187
-0.286566 0.0935759 0.191184 91 139 152
0.224726 0.638771 0.475988 156 209 188
-0.117943 -0.381181 -0.581853 112 79 53
-0.283535 0.0935759 0.549223 91 139 198
-0.280688 0.0884147 0.55736 92 139 199
-0.280688 0.0935759 0.553545 92 139 198
-0.286457 0.0935759 0.565497 91 139 200
-0.117943 -0.382374 -0.524893 112 79 61
-0.280688 0.0892408 0.565497 92 139 200
-0.125531 -0.378384 -0.516755 111 79 62
0.1099 0.842202 0.40361 142 235 179
-0.280688 0.0935759 0.560019 92 139 199
-0.117943 -0.381422 -0.516755 112 79 62
-0.122403 -0.378384 -0.508618 112 79 63
0.228021 0.646908 0.386478 157 210 177
0.354017 0.55527 0.386478 173 198 177
0.23159 0.646908 0.394615 157 210 178
-0.117943 -0.384649 -0.508618 112 78 63
-0.117943 -0.381656 -0.500481 112 79 64
-0.117943 -0.379428 -0.492344 112 79 65
-0.117943 -0.378384 -0.488807 112 79 65
0.229701 0.646908 0.46785 157 210 187
-0.125205 -0.378384 0.0609884 112 79 135
-0.28464 0.101713 0.191184 91 140 152
-0.286745 0.101713 0.508537 91 140 192
0.305193 0.134262 0.114721 166 145 142
-0.282699 0.101713 0.541086 91 140 196
-0.332571 -0.0854433 0.46785 85 117 187
-0.280688 0.098664 0.549223 92 140 198
-0.280688 0.101713 0.54583 92 140 197
-0.284326 0.101713 0.55736 91 140 199
0.174998 0.679457 0.307664 150 214 167
-0.280688 0.0966761 0.55736 92 140 199
-0.353923 -0.513445 0.459713 82 62 186
-0.280688 0.101713 0.551621 92 140 198
0.230257 0.655045 0.402752 157 211 179
-0.353923 -0.513774 0.46785 82 62 187
-0.123811 -0.370247 -0.492344 112 80 65
0.231958 0.655045 0.40748 157 211 179
0.168821 0.687594 0.305106 149 215 166
-0.353923 -0.513066 0.475988 82 62 188
-0.117943 -0.373526 -0.476069 112 80 67
0.174998 0.687594 0.307988 150 215 167
-0.353923 -0.511933 0.484125 82 62 189
-0.117943 -0.377227 -0.484206 112 79 66
0.228629 0.655045 0.475988 157 211 188
-0.353923 -0.509956 0.492262 82 62 190
-0.117943 -0.370247 -0.471698 112 80 67
-0.117943 -0.37092 -0.109893 112 80 113
-0.329511 -0.085589 0.549223 85 117 198
-0.355227 -0.50858 0.500399 82 63 191
0.225648 0.655045 0.484125 156 211 189
0.169641 0.695732 0.305106 149 216 166
-0.353923 -0.50858 0.495833 82 63 191
0.174998 0.69531 0.305106 150 216 166
-0.356404 -0.50858 0.508537 82 63 192
0.174998 0.695732 0.304925 150 216 166
-0.357868 -0.50858 0.516674 82 63 193
-0.125913 -0.370247 -0.0122466 111 80 126
-0.332662 -0.0773061 0.475988 85 118 188
-0.35966 -0.50858 0.524811 82 63 194
-0.169505 0.215635 0.117949 106 155 143
-0.124031 -0.370247 0.0203023 112 80 130
-0.361383 -0.50858 0.532948 81 63 195
-0.329511 -0.0853038 0.475988 85 117 188
-0.166766 0.215635 0.113947 106 155 142
0.297056 -0.248188 0.557362 165 96 199
-0.174513 0.215635 0.126086 105 155 144
-0.28272 0.10985 0.191184 91 142 152
-0.28593 0.10985 0.508537 91 142 192
-0.282036 0.10985 0.516674 92 142 193
0.174998 0.715945 0.296968 150 219 165
-0.171702 0.223772 0.117949 106 156 143
-0.280688 0.104907 0.541086 92 141 196
0.174998 0.720143 0.294887 150 219 165
-0.171323 0.223772 0.126086 106 156 144
0.22404 0.663183 0.386478 156 212 177
0.227049 0.663183 0.394615 156 212 178
-0.284054 0.10985 0.549223 91 142 198
-0.280688 0.104031 0.549223 92 141 198
-0.280688 0.10985 0.544852 92 142 197
0.231958 0.658807 0.475988 157 211 188
0.305193 0.183086 0.713124 166 151 218
0.305193 0.191223 0.0986097 166 152 140
0.305193 0.191223 0.713652 166 152 218
-0.168964 0.231909 0.134224 106 157 145
-0.174152 0.231909 0.142361 105 157 146
0.305193 0.19936 0.0969545 166 153 140
0.305193 0.19936 0.71711 166 153 219
0.354017 0.582255 0.370203 173 202 175
-0.28074 0.117988 0.191184 92 143 152
-0.280803 0.117988 0.516674 92 143 193
-0.117943 -0.363086 -0.0529328 112 81 121
-0.16966 0.240046 0.134224 106 158 145
-0.171172 0.240046 0.142361 106 158 146
0.349648 0.589947 0.541086 172 203 196
-0.171711 0.248183 0.101675 106 159 140
0.354017 0.58604 0.541086 173 202 196
-0.280688 0.118095 0.191184 92 143 152
-0.117943 -0.365709 0.0203023 112 81 130
-0.117943 -0.362109 0.0129731 112 81 129
-0.167507 0.248183 0.134224 106 159 145
0.231958 0.687594 0.489611 157 215 190
-0.170138 0.248183 0.70383 106 159 217
-0.393035 -0.451619 0.614321 77 70 206
-0.166766 0.248183 0.706167 106 159 218
-0.125678 -0.362109 0.0691257 111 81 136
-0.173981 0.256321 0.109812 105 160 142
0.169463 0.785241 0.459713 149 228 186
-0.169534 0.256321 0.126086 106 160 144
-0.169381 0.256321 0.134224 106 160 145
-0.169963 0.256321 0.70383 106 160 217
-0.166766 0.252786 0.70383 106 160 217
0.174998 0.793081 0.378341 150 229 176
-0.166766 0.256321 0.702446 106 160 217
-0.386831 -0.443482 0.581772 78 71 202
0.174998 0.793379 0.378032 150 229 176
-0.173015 0.256321 0.711968 105 160 218
0.0464769 -0.524854 0.825889 133 61 233
0.174998 0.787546 0.386478 150 228 177
0.0529391 -0.524854 -0.935939 134 61 8
0.427252 -0.389235 -0.191266 182 78 103
-0.390083 -0.443482 0.589909 78 71 203
0.174998 0.785784 0.394615 150 228 178
0.0529391 -0.524854 0.825411 134 61 233
0.174998 0.788273 0.419027 150 228 181
-0.39277 -0.443482 0.598046 77 71 204
-0.393904 -0.443482 0.606184 77 71 205
-0.392089 -0.443482 0.614321 78 71 206
0.174998 0.788784 0.459713 150 228 186
-0.168502 0.264458 0.117949 106 161 143
-0.166766 0.261535 0.126086 106 161 144
-0.117943 -0.359185 -0.0447956 112 82 122
-0.166766 0.264458 0.122552 106 161 143
-0.166766 0.264458 0.127907 106 161 144
-0.166766 0.257815 0.70383 106 160 217
-0.166766 0.260753 0.711968 106 161 218
-0.117943 -0.356355 -0.0203839 112 82 125
-0.117943 -0.353972 -0.0264948 112 82 124
0.174998 0.800447 0.305106 150 230 166
0.174998 0.801516 0.312382 150 230 167
0.168197 0.801516 0.32138 149 230 168
-0.280688 0.150537 0.526216 92 147 195
-0.170556 0.272595 0.126086 106 162 144
-0.387039 -0.435345 0.573635 78 72 201
0.0529391 -0.516717 0.823001 134 62 232
-0.166766 0.270189 0.126086 106 162 144
0.171657 0.801516 0.427164 149 230 182
-0.166766 0.272595 0.124275 106 162 143
-0.386472 -0.442677 0.581772 78 71 202
0.174998 0.801516 0.426102 150 230 182
-0.280688 0.153025 0.524811 92 147 194
-0.386472 -0.435345 0.574917 78 72 201
-0.287198 0.158674 0.532948 91 148 195
0.443526 -0.89035 0.549223 184 14 198
-0.119768 -0.353972 0.077263 112 82 137
0.443526 -0.889806 0.55736 184 14 199
-0.166766 0.280732 0.122154 106 163 143
0.443526 -0.889568 0.565497 184 14 200
0.1706 0.801516 0.500399 149 230 191
-0.394403 -0.435345 0.606184 77 72 205
0.443526 -0.888593 0.573635 184 14 201
-0.117943 -0.353972 0.0880282 112 82 139
-0.394159 -0.435345 0.614321 77 72 206
-0.391974 -0.435345 0.622458 78 72 207
-0.286099 0.166811 0.532948 91 149 195
-0.173914 0.28887 0.150498 105 164 147
0.174998 0.801857 0.313243 150 230 167
0.297655 0.329556 0.777065 165 170 227
0.172273 0.809653 0.32138 149 231 168
-0.288188 0.174948 0.532948 91 150 195
0.305193 0.329556 0.770831 166 170 226
-0.386472 -0.437948 0.744517 78 72 222
-0.167469 0.297007 0.150498 106 165 147
-0.386472 -0.435345 0.741844 78 72 222
0.223953 0.744555 0.313243 156 222 167
-0.280688 0.183086 0.602802 92 151 204
0.167312 0.809653 0.427164 149 231 182
0.174998 0.802713 0.427164 150 230 182
0.174998 0.80847 0.435301 150 231 183
0.0529391 -0.451619 -0.951562 134 70 6
-0.280688 0.1908 0.598046 92 152 204
0.174998 0.808985 0.443439 150 231 184
-0.280688 0.191223 0.597792 92 152 204
-0.166766 0.298017 0.150498 106 165 147
0.170072 0.809653 0.508537 149 231 192
-0.280688 0.19936 0.591882 92 153 203
0.0529391 -0.443482 -0.943586 134 71 7
-0.117943 -0.353283 -0.0285212 112 82 124
0.174998 0.805404 0.508537 150 230 192
-0.166766 0.305144 0.154514 106 166 147
-0.117943 -0.352991 0.0691257 112 82 136
0.174998 0.809653 0.515589 150 231 193
0.225803 0.752692 0.313243 156 223 167
-0.280688 0.201857 0.589909 92 153 203
-0.168088 0.313281 0.126086 106 167 144
-0.117943 -0.353685 0.109812 112 82 142
-0.280688 0.207497 0.585753 92 154 202
-0.0353072 -0.0122081 0.044714 123 126 133
-0.117943 -0.345835 0.180471 112 83 151
-0.287261 0.215635 0.41089 91 155 180
-0.280688 0.213213 0.581772 92 155 202
-0.437457 -0.386521 -0.134305 72 78 110
-0.280688 0.215635 0.580143 92 155 201
0.227249 0.76083 0.313243 156 225 167
-0.435295 -0.386521 -0.132456 72 78 111
-0.390634 -0.427207 0.606184 78 73 205
-0.394292 -0.427207 0.614321 77 73 206
-0.392532 -0.427207 0.630595 77 73 208
-0.284994 0.223772 0.394615 91 156 178
-0.166766 0.316217 0.126086 106 168 144
-0.435295 -0.381 -0.614402 72 79 49
0.174998 0.811179 0.516674 150 231 193
-0.281006 0.223772 0.402752 92 156 179
-0.435295 -0.385594 -0.606265 72 78 50
-0.387619 -0.427207 0.638732 78 73 209
0.226934 0.768967 0.313243 156 226 167
-0.0284334 -0.00566125 0.0365767 124 127 132
-0.280688 0.223772 0.57453 92 156 201
-0.386472 -0.427207 0.641169 78 73 209
-0.435295 -0.378384 -0.599676 72 79 51
-0.386472 -0.434276 0.663144 78 72 212
-0.435295 -0.378384 -0.129381 72 79 111
-0.435295 -0.376909 -0.598128 72 79 51
0.0529391 -0.402796 -0.901657 134 76 13
-0.287753 0.231909 0.305106 91 157 166
-0.442761 -0.370247 -0.581853 71 80 53
0.225223 0.777104 0.313243 156 227 167
0.229786 0.777104 0.32138 157 227 168
-0.440452 -0.370247 -0.565579 71 80 55
-0.439286 -0.370247 -0.557442 71 80 56
-0.392863 -0.427207 0.728242 77 73 220
-0.280688 0.224813 0.402752 92 156 179
-0.435295 -0.371307 -0.126168 72 80 111
0.0529391 -0.394658 0.777786 134 77 227
-0.0284334 0.00406631 0.037658 124 128 132
-0.435295 -0.37017 -0.589991 72 80 52
-0.280688 0.22507 0.573635 92 156 201
0.224646 0.785241 0.313243 156 228 167
-0.280688 0.231909 0.568998 92 157 200
-0.358455 -0.435345 -0.809696 82 72 24
-0.435295 -0.362528 -0.557442 72 81 56
-0.359735 -0.435345 -0.801559 82 72 25
-0.435295 -0.365022 -0.549304 72 81 57
0.0459583 -0.370247 -0.752735 133 80 32
-0.0284334 0.00735053 0.0365767 124 128 132
0.0515924 -0.370247 -0.744598 134 80 33
-0.0284334 0.0122035 0.0350883 124 129 132
0.04798 -0.370247 -0.736461 134 80 34
-0.2837 0.240046 0.280694 91 158 163
-0.281424 0.240046 0.288831 92 158 164
0.0529391 -0.375106 -0.736461 134 80 34
-0.438373 -0.362109 -0.53303 72 81 60
-0.0284334 0.0203407 0.032071 124 130 132
0.0529391 -0.370247 -0.743151 134 80 33
-0.435295 -0.364535 -0.524893 72 81 61
-0.28483 0.240046 0.305106 91 158 166
0.0529391 -0.370247 -0.730054 134 80 34
0.0456054 -0.370247 0.760791 133 80 225
-0.355542 -0.435345 0.459713 82 72 186
-0.0284334 0.028478 0.0300312 124 131 131
0.0529391 -0.370247 0.758517 134 80 224
-0.392519 -0.41907 0.614321 77 74 206
-0.0284334 0.0328921 0.0284395 124 132 131
-0.0284334 0.0366152 0.026459 124 132 131
-0.391671 -0.41907 0.638732 78 74 209
0.0529391 -0.368029 -0.744598 134 81 33
-0.356152 -0.427207 -0.817833 82 73 23
-0.280688 0.237063 0.565497 92 158 200
-0.386472 -0.41907 0.64442 78 74 210
-0.442596 -0.353972 -0.44352 71 82 71
-0.360591 -0.427207 -0.809696 82 73 24
0.0529391 -0.369255 -0.728324 134 80 35
-0.443094 -0.353972 -0.435383 71 82 72
-0.36183 -0.427207 -0.801559 81 73 25
0.0529391 -0.365125 -0.712049 134 81 37
0.0529391 -0.362109 -0.707992 134 81 37
0.226723 0.801516 0.427164 156 230 182
-0.353923 -0.432703 0.459713 82 72 186
-0.280688 0.242186 0.288831 92 158 164
-0.435295 -0.348411 -0.44352 72 83 71
-0.281904 0.248183 0.296968 92 159 165
-0.437366 -0.345835 -0.435383 72 83 72
-0.332317 0.0203407 0.378341 85 130 176
0.231958 0.80243 0.427164 157 230 182
-0.280688 0.248183 0.293643 92 159 165
0.0529391 -0.358317 -0.703912 134 82 38
-0.441753 -0.345835 -0.362148 71 83 81
0.0529391 -0.354993 -0.695775 134 82 39
0.0529391 -0.354408 -0.687637 134 82 40
-0.21559 -0.876896 -0.956166 100 16 6
0.0529391 -0.353972 -0.686109 134 82 40
0.0471744 -0.353972 -0.646951 134 82 45
-0.356752 -0.41907 -0.809696 82 74 24
-0.21559 -0.881247 -0.948029 100 15 7
0.0466787 -0.353972 -0.638814 133 82 46
-0.0284334 0.0854386 0.0214815 124 138 130
-0.332694 0.028478 0.378341 85 131 176
-0.387131 -0.410933 0.589909 78 75 203
-0.0284334 0.0935759 0.022368 124 139 130
-0.33282 0.028478 0.386478 85 131 177
-0.386472 -0.410933 0.610686 78 75 205
-0.166766 0.448325 0.288831 106 185 164
-0.393274 -0.410933 0.630595 77 75 208
-0.166766 0.451614 0.282754 106 185 164
-0.390178 -0.410933 0.638732 78 75 209
0.0529391 -0.351205 -0.6795 134 83 41
0.0529391 -0.347945 -0.671363 134 83 42
-0.442249 -0.337698 -0.354011 71 84 82
-0.287743 0.256321 0.516674 91 160 193
0.0529391 -0.347125 -0.655088 134 83 44
-0.437941 -0.337698 -0.29705 72 84 90
-0.329724 0.0366152 0.329517 85 132 170
-0.358823 -0.410933 -0.801559 82 75 25
0.0480362 -0.345835 -0.646951 134 83 45
-0.353923 -0.410933 -0.805416 82 75 25
-0.329511 0.0363162 0.329517 85 132 170
0.0529391 -0.345835 -0.654185 134 83 44
-0.336257 0.0366152 0.378341 85 132 176
0.049132 -0.345835 -0.638814 134 83 46
-0.333275 0.0366152 0.386478 85 132 177
-0.361994 -0.410933 0.655007 81 75 211
-0.361596 -0.410933 0.695693 81 75 216
-0.3873 -0.402796 0.589909 78 76 203
0.0529391 -0.339512 -0.646951 134 84 45
0.449912 0.386516 0.484125 185 177 189
-0.283366 0.264458 0.516674 91 161 193
0.0529391 -0.340336 -0.638814 134 84 46
-0.440628 -0.32956 -0.354011 71 85 82
-0.33557 0.0447525 0.329517 85 133 170
-0.438715 -0.32956 -0.305187 72 85 89
-0.333583 0.0447525 0.386478 85 133 177
-0.435295 -0.330792 -0.305187 72 85 89
-0.335372 0.0447525 0.394615 85 133 178
0.0486943 -0.337698 -0.598128 134 84 51
-0.435295 -0.32956 -0.306733 72 85 88
-0.356769 -0.402796 -0.809696 82 76 24
0.0529391 -0.339123 -0.598128 134 84 51
0.451664 0.3882 0.484125 185 177 189
-0.435295 -0.334026 -0.29705 72 85 90
-0.386472 -0.399134 -0.695775 78 77 39
0.448013 0.394654 0.500399 185 178 191
0.0467518 -0.337698 -0.589991 133 84 52
-0.357161 -0.402796 -0.801559 82 76 25
-0.386472 -0.396698 -0.687637 78 77 40
0.451664 0.394654 0.495935 185 178 191
0.0529391 -0.337698 -0.595865 134 84 52
-0.359604 -0.402796 -0.793422 82 76 26
-0.388066 -0.394658 -0.6795 78 77 41
-0.386472 -0.394658 -0.681633 78 77 41
-0.439254 -0.321423 -0.38656 71 87 78
-0.386472 -0.394658 -0.0520854 78 77 121
-0.280688 0.268374 0.516674 92 162 193
-0.336839 0.0528897 0.386478 85 134 177
-0.357873 -0.402796 0.516674 82 76 193
-0.438683 -0.321423 -0.354011 72 87 82
-0.357538 -0.402796 0.524811 82 76 194
0.0529391 -0.335552 -0.630677 134 85 47
-0.44183 -0.321423 -0.345873 71 87 83
-0.361035 -0.402796 0.532948 81 76 195
0.0529391 -0.330446 -0.62254 134 85 48
-0.172514 0.476026 0.443439 106 188 184
-0.386472 -0.400483 0.589909 78 76 203
0.0529391 -0.331393 -0.614402 134 85 49
-0.435295 -0.325764 -0.321462 72 86 87
-0.359793 -0.402796 0.64687 82 76 210
-0.435295 -0.321423 -0.329571 72 87 85
-0.355131 -0.402796 0.655007 82 76 211
-0.435295 -0.32684 -0.313325 72 86 88
-0.355131 -0.402796 0.663144 82 76 212
-0.389602 -0.386521 -0.671363 78 78 42
-0.391302 -0.386521 -0.663226 78 78 43
-0.393477 -0.386521 -0.655088 77 78 44
-0.170252 0.484163 0.443439 106 189 184
-0.3914 -0.386521 -0.101756 78 78 115
-0.353923 -0.406692 0.695693 82 76 216
-0.280688 0.274848 0.508537 92 163 192
-0.172013 0.492301 0.329517 106 190 170
0.450602 0.443477 0.475988 185 184 188
-0.0284334 0.231909 0.0724706 124 157 137
-0.166766 0.492301 0.322901 106 190 169
-0.386472 -0.394073 -0.0447956 78 77 122
0.451664 0.440286 0.475988 185 184 188
-0.435295 -0.316702 -0.354011 72 87 82
-0.360872 -0.394658 -0.809696 81 77 24
-0.435295 -0.316624 -0.345873 72 87 83
-0.166981 0.492301 0.443439 106 190 184
0.302619 0.492301 0.622458 166 190 207
-0.361892 -0.394658 -0.801559 81 77 25
0.305193 0.488901 0.622458 166 190 207
0.305193 0.492301 0.620036 166 190 207
-0.359714 -0.394658 -0.785284 82 77 27
-0.386472 -0.384461 -0.093619 78 78 116
-0.166792 0.500438 0.32138 106 191 168
-0.386472 -0.378384 -0.0968734 78 79 115
-0.442437 -0.313286 -0.174991 71 88 105
-0.166766 0.500099 0.32138 106 191 168
-0.167042 0.500438 0.329517 106 191 170
-0.168491 0.500438 0.337655 106 191 171
-0.174753 0.500438 0.345792 105 191 172
-0.354826 -0.394658 0.500399 82 77 191
-0.173993 0.500438 0.386478 105 191 177
-0.286378 0.28887 0.386478 91 164 177
-0.172479 0.500438 0.394615 106 191 178
-0.356246 -0.394658 0.508537 82 77 192
-0.172525 0.500438 0.402752 106 191 179
-0.172528 0.500438 0.41089 106 191 180
-0.356892 -0.394658 0.524811 82 77 194
-0.280688 0.28887 0.397825 92 164 178
-0.240001 -0.41907 -0.904048 97 74 12
-0.166766 0.492847 0.443439 106 190 184
-0.435295 -0.308459 -0.240089 72 88 97
-0.356792 -0.394658 0.64687 82 77 210
-0.435295 -0.307574 -0.174991 72 88 105
-0.391405 -0.362109 -0.093619 78 81 116
-0.240001 -0.422497 0.850301 97 74 236
-0.386472 -0.369399 -0.093619 78 80 116
-0.353923 -0.401808 0.671281 82 76 213
-0.168622 0.508575 0.337655 106 192 171
-0.168488 0.508575 0.345792 106 192 172
-0.172904 0.508575 0.353929 105 192 173
-0.358555 -0.386521 -0.809696 82 78 24
-0.28635 0.297007 0.394615 91 165 178
-0.170505 0.508575 0.402752 106 192 179
-0.36095 -0.386521 -0.801559 81 78 25
-0.168192 0.508575 0.41089 106 192 180
-0.334555 0.0773015 0.419027 85 137 181
-0.435295 -0.301482 -0.183129 72 89 104
-0.358589 -0.386521 -0.793422 82 78 26
-0.35727 -0.386521 -0.785284 82 78 27
-0.356325 -0.386521 -0.777147 82 78 28
-0.394467 -0.353972 -0.093619 77 82 116
-0.334332 0.0773015 0.451576 85 137 185
0.0484521 -0.231914 0.752654 134 98 223
0.0529391 -0.231914 0.749871 134 98 223
-0.393946 -0.345835 -0.093619 77 83 116
-0.361991 -0.386521 0.581772 81 78 202
-0.170106 0.516712 0.345792 106 193 172
-0.361763 -0.386521 0.589909 81 78 203
0.305193 0.581513 0.435301 166 202 183
-0.359935 -0.386521 0.598046 82 78 204
-0.358388 -0.386521 0.606184 82 78 205
0.302798 0.58181 0.443439 166 202 184
-0.174648 0.516712 0.370203 105 193 175
0.305193 0.579029 0.443439 166 201 184
-0.358339 -0.386521 0.614321 82 78 206
-0.333017 0.0854386 0.419027 85 138 181
-0.35872 -0.386521 0.622458 82 78 207
-0.35894 -0.386521 0.630595 82 78 208
-0.358646 -0.386521 0.638732 82 78 209
-0.331169 0.0854386 0.451576 85 138 185
-0.123375 -0.288874 0.663144 112 91 212
0.291498 -0.174953 0.638732 165 105 209
-0.38747 -0.337698 -0.101756 78 84 115
-0.389981 -0.337698 -0.093619 78 84 116
-0.391938 -0.337698 -0.0854818 78 84 117
-0.353923 -0.384416 -0.777147 82 78 28
-0.333584 0.0935759 0.280694 85 139 163
0.403359 -0.524854 -0.500481 179 61 64
-0.331163 0.0935759 0.427164 85 139 182
0.410977 -0.527882 -0.500481 180 60 64
0.406253 -0.524854 -0.492344 179 61 65
0.410977 -0.527797 -0.492344 180 60 65
-0.35752 -0.378384 0.573635 82 79 201
0.40737 -0.524854 -0.484206 179 61 66
-0.386472 -0.329914 -0.109893 78 85 113
0.410977 -0.527691 -0.484206 180 60 66
-0.353923 -0.378384 0.566763 82 79 200
-0.386472 -0.32956 -0.110207 78 85 113
0.40959 -0.524854 -0.476069 180 61 67
-0.170473 0.52485 0.362066 106 194 174
-0.388833 -0.32956 -0.101756 78 85 115
-0.286032 0.313281 0.435301 91 167 183
0.410977 -0.526256 -0.476069 180 60 67
0.410977 -0.524854 -0.468625 180 61 68
-0.386472 -0.32956 -0.109013 78 85 114
-0.390768 -0.32956 -0.093619 78 85 116
0.410096 -0.524854 0.353929 180 61 173
-0.389631 -0.32956 -0.0854818 78 85 117
0.410977 -0.527109 0.353929 180 60 173
-0.335304 0.101713 0.272557 85 140 162
0.410977 -0.524854 0.348853 180 61 172
0.249664 -0.524854 -0.744598 159 61 33
-0.329511 0.093876 0.272557 85 139 162
0.408821 -0.524854 0.362066 180 61 174
-0.386472 -0.32956 -0.0793013 78 85 117
0.25637 -0.526755 -0.744598 160 60 33
-0.333801 0.101713 0.280694 85 140 163
0.410977 -0.529356 0.362066 180 60 174
0.255227 -0.524854 -0.736461 160 61 34
0.407628 -0.524854 0.370203 179 61 175
-0.280688 0.311707 0.655007 92 167 211
0.25637 -0.525879 -0.736461 160 60 34
0.25637 -0.524854 -0.735059 160 61 34
0.410977 -0.53001 0.370203 180 60 175
-0.329511 0.100857 0.427164 85 140 182
0.253885 -0.524854 0.711968 160 61 218
-0.117943 -0.285099 0.663144 112 91 212
0.406237 -0.524854 0.378341 179 61 176
0.25637 -0.526946 0.711968 160 60 218
0.410977 -0.530213 0.378341 180 60 176
0.25637 -0.524854 0.709285 160 61 218
0.404388 -0.524854 0.386478 179 61 177
0.410977 -0.530653 0.386478 180 60 177
0.402944 -0.524854 0.394615 179 61 178
-0.387277 -0.321423 -0.118031 78 87 112
0.0508476 -0.158678 0.785203 134 107 228
-0.38783 -0.321423 -0.109893 78 87 113
0.410977 -0.530985 0.394615 180 60 178
-0.117943 -0.2726 -0.454997 112 93 69
-0.334169 0.10985 0.280694 85 142 163
-0.386472 -0.328065 -0.109893 78 86 113
0.0529391 -0.158678 0.783316 134 107 227
0.04556 -0.158678 0.79334 133 107 229
0.0529391 -0.156158 0.785203 134 108 228
0.370291 0.516712 0.400196 175 193 179
-0.288217 0.321419 0.370203 91 168 175
-0.386472 -0.320961 -0.118031 78 87 112
-0.0284334 0.492301 0.71645 124 190 219
-0.387897 -0.313286 -0.109893 78 88 113
-0.280688 0.321419 0.40358 92 168 179
-0.280688 0.318292 0.435301 92 168 183
-0.125847 -0.2726 0.638732 111 93 209
-0.117943 -0.2726 0.646265 112 93 210
-0.393947 -0.305149 -0.313325 77 89 88
-0.353923 -0.362109 -0.0397699 82 81 122
-0.117943 -0.264463 -0.454694 112 94 70
-0.33689 0.158674 0.296968 85 148 165
-0.386472 -0.312778 -0.126168 78 88 111
-0.0284334 0.549261 0.15547 124 198 147
-0.0772567 -0.524854 -0.946951 118 61 7
0.459801 -0.889802 0.370203 186 14 175
0.459801 -0.88984 0.378341 186 14 176
0.459801 -0.889462 0.386478 186 14 177
-0.0284334 0.565536 0.158039 124 200 148
-0.288092 0.329556 0.370203 91 170 175
-0.392584 -0.297012 -0.305187 77 90 89
-0.392664 -0.297012 -0.15058 77 90 108
-0.386472 -0.299247 -0.15058 78 89 108
-0.386472 -0.297012 -0.152821 78 90 108
-0.386472 -0.302429 -0.142442 78 89 109
-0.0772567 -0.516717 -0.947524 118 62 7
-0.0772567 -0.524473 0.858438 118 61 237
-0.0772567 -0.516717 0.85424 118 62 236
-0.120009 -0.256325 -0.451658 112 95 70
-0.117943 -0.256325 -0.455846 112 95 69
-0.0314991 0.58181 0.199321 123 202 153
-0.118409 -0.256325 -0.223815 112 95 99
-0.0363361 0.58181 0.264419 123 202 161
-0.117943 -0.256325 -0.223563 112 95 99
-0.391288 -0.288874 -0.29705 78 91 90
-0.39369 -0.288874 -0.288913 77 91 91
-0.386472 -0.291624 -0.158717 78 90 107
-0.394542 -0.280737 -0.29705 77 92 90
-0.0284334 0.585652 0.199321 124 202 153
-0.33671 0.183086 0.248145 85 151 159
-0.390448 -0.280737 -0.288913 78 92 91
0.111439 -0.524854 -0.891068 142 61 14
-0.334695 0.183086 0.256282 85 151 160
-0.387702 -0.280737 -0.280776 78 92 92
0.118037 -0.527788 -0.891068 143 60 14
-0.387254 -0.280737 -0.272638 78 92 93
0.118037 -0.524854 -0.886129 143 61 15
0.117518 -0.524854 0.801477 142 61 230
0.118037 -0.524999 0.801477 143 61 230
0.249077 -0.427207 -0.793422 159 73 26
0.118037 -0.524854 0.801334 143 61 230
0.256268 -0.427207 -0.785284 160 73 27
-0.0308893 0.589947 0.264419 124 203 161
-0.0772567 -0.435345 -0.962551 118 72 5
-0.0772567 -0.427207 -0.956336 118 73 6
0.251972 -0.410933 -0.76901 160 75 29
-0.0772567 -0.426902 -0.956166 118 73 6
-0.0284334 0.594687 0.264419 124 203 161
-0.0772567 -0.41907 -0.952415 118 74 6
-0.119821 -0.248188 -0.451658 112 96 70
0.25637 -0.413432 -0.76901 160 75 29
-0.0838567 -0.41907 0.842163 117 74 235
-0.389069 -0.2726 -0.280776 78 93 92
-0.0772567 -0.421166 0.842163 118 74 235
0.251915 -0.410933 -0.752735 160 75 32
-0.0772567 -0.41907 0.838417 118 74 234
-0.386472 -0.279013 -0.272638 78 92 93
0.240096 -0.890162 0.899124 158 14 242
-0.386472 -0.277824 -0.264501 78 92 94
-0.0772567 -0.415072 0.834026 118 75 234
0.251452 -0.410933 -0.728324 160 75 35
0.25637 -0.412155 -0.728324 160 75 35
-0.0785847 -0.402796 0.809614 117 76 231
-0.0772567 -0.402796 0.811319 118 76 231
-0.0296812 0.614359 0.565497 124 206 200
-0.0284334 0.614359 0.56636 124 206 200
-0.0772567 -0.397058 -0.549304 118 77 57
-0.281564 0.386516 0.728242 92 177 220
-0.280688 0.386516 0.729192 92 177 220
-0.078462 -0.394658 0.809614 117 77 231
-0.0772567 -0.400067 0.809614 118 76 231
-0.286854 0.394654 0.720105 91 178 219
-0.0772567 -0.394658 0.808894 118 77 231
0.25637 -0.390653 -0.695775 160 78 39
-0.0772567 -0.389555 -0.785284 118 78 27
-0.394486 -0.264463 -0.29705 77 94 90
-0.393064 -0.264463 -0.288913 77 94 91
0.254517 -0.386521 0.589909 160 78 203
0.25637 -0.387987 0.589909 160 78 203
0.25637 -0.386521 0.586534 160 78 202
0.251318 -0.386521 0.598046 160 78 204
-0.0827588 -0.386521 -0.712049 117 78 37
-0.120861 -0.240051 -0.451658 112 97 70
-0.0801279 -0.386521 -0.703912 117 78 38
0.251849 -0.386521 0.606184 160 78 205
-0.0772567 -0.389329 -0.695775 118 78 39
-0.0772567 -0.386521 -0.703445 118 78 38
-0.0772567 -0.388574 -0.687637 118 78 40
-0.0772567 -0.391625 -0.6795 118 78 41
0.25637 -0.390203 0.679419 160 78 214
-0.0772567 -0.390406 -0.671363 118 78 42
-0.287746 0.410928 0.728242 91 180 220
-0.0772567 -0.386521 -0.66821 118 78 42
0.254336 -0.378384 -0.671363 160 79 42
-0.0772567 -0.389358 -0.524893 118 78 61
0.25637 -0.379391 -0.671363 160 79 42
0.25637 -0.378384 -0.667707 160 79 42
-0.287105 0.419065 0.711968 91 181 218
0.249966 -0.378384 0.589909 159 79 203
-0.285748 0.419065 0.720105 91 181 219
-0.0772567 -0.38157 -0.956166 118 79 6
-0.0772567 -0.378384 -0.952834 118 79 6
0.0529391 0.00406631 0.806678 134 128 230
-0.0852636 -0.378384 -0.939892 117 79 8
-0.0804622 -0.378384 -0.817833 117 79 23
0.112405 -0.410933 -0.866657 142 75 17
0.251203 -0.378384 0.663144 160 79 212
0.407338 -0.435345 0.500399 179 72 191
0.410977 -0.435345 0.492366 180 72 190
0.25637 -0.385206 0.671281 160 78 213
-0.284316 0.427203 0.695693 91 182 216
0.11509 -0.402796 -0.858519 142 76 18
-0.284569 0.427203 0.70383 91 182 217
0.118037 -0.40533 -0.858519 143 76 18
0.118037 -0.402796 -0.856 143 76 18
-0.124876 -0.231914 -0.44352 112 98 71
0.409621 -0.427207 0.451576 180 73 185
-0.0847141 -0.378384 -0.720186 117 79 36
-0.0801119 -0.378384 -0.712049 117 79 37
0.410977 -0.427207 0.450079 180 73 185
0.118037 -0.402796 0.774977 143 76 226
-0.0772567 -0.385965 -0.703912 118 78 38
-0.0284334 0.67132 0.36195 124 213 174
-0.0772567 -0.378384 -0.663876 118 79 43
0.118037 -0.394658 0.770387 143 77 226
-0.0772567 -0.382528 -0.62254 118 79 48
-0.0772567 -0.378384 -0.625483 118 79 48
-0.0284334 0.67132 0.611005 124 213 205
-0.285213 0.43534 0.687556 91 183 215
-0.281434 0.443477 0.679419 92 184 214
-0.0772567 -0.376033 -0.948029 118 80 7
0.356639 -0.524854 -0.606265 173 61 50
-0.0772567 -0.377107 -0.939892 118 79 8
0.362154 -0.526532 -0.606265 174 60 50
0.0529391 0.0366152 0.0105815 134 132 129
-0.0284334 0.674694 0.353929 124 214 173
-0.0772567 -0.376088 -0.817833 118 80 23
0.359818 -0.524854 -0.598128 173 61 51
0.410977 -0.419528 -0.557442 180 74 56
0.362154 -0.526808 -0.598128 174 60 51
-0.0772567 -0.370247 -0.823148 118 80 23
0.362154 -0.524854 -0.594251 174 61 52
-0.0772567 -0.372973 -0.809696 118 80 24
0.361842 -0.524854 0.541086 174 61 196
-0.0772567 -0.372791 -0.801559 118 80 25
0.410977 -0.420642 0.370203 180 74 175
-0.0772567 -0.37732 -0.793422 118 79 26
0.362154 -0.525586 0.541086 174 60 196
0.0529391 0.0447525 0.0111348 134 133 129
0.362154 -0.524854 0.540231 174 61 196
0.113944 -0.362109 0.720105 142 81 219
-0.0300973 0.679457 0.402752 124 214 179
0.359322 -0.524854 0.549223 173 61 198
0.410977 -0.425508 0.378341 180 73 176
0.410977 -0.425171 0.386478 180 73 177
0.118037 -0.362109 0.716963 143 81 219
0.362154 -0.528072 0.549223 174 60 198
-0.0772567 -0.372126 -0.720186 118 80 36
0.118037 -0.3668 0.720105 143 81 219
0.356748 -0.524854 0.55736 173 61 199
-0.0772567 -0.375315 -0.712049 118 80 37
0.410977 -0.423584 0.394615 180 73 178
0.362154 -0.529018 0.55736 174 60 199
0.0529391 0.0528897 0.0115593 134 134 129
-0.0772567 -0.377612 -0.663226 118 79 43
0.404622 -0.41907 0.402752 179 74 179
-0.21559 -0.521118 0.874712 100 61 239
0.410977 -0.423378 0.402752 180 74 179
-0.21559 -0.516717 0.872368 100 62 239
-0.0772567 -0.372106 -0.630677 118 80 47
0.410977 -0.425702 0.41089 180 73 180
0.407204 -0.41907 0.427164 179 74 182
0.410977 -0.420233 0.427164 180 74 182
-0.353923 -0.321423 -0.053765 82 87 121
-0.0772567 -0.370258 -0.565579 118 80 55
0.403432 -0.41907 0.451576 179 74 185
-0.0284334 0.679457 0.492296 124 214 190
-0.0284334 0.679457 0.609829 124 214 205
0.11247 -0.337698 -0.614402 142 84 49
-0.0322685 0.687594 0.378341 123 215 176
0.403198 -0.410933 -0.557442 179 75 56
0.406062 -0.410933 -0.549304 179 75 57
0.410977 -0.418647 0.183047 180 74 151
-0.033344 0.687594 0.402752 123 215 179
0.406261 -0.410933 0.191184 179 75 152
0.1779 -0.524854 -0.825971 150 61 22
0.410977 -0.414674 0.191184 180 75 152
-0.0284334 0.683003 0.500399 124 215 191
0.410977 -0.410933 0.19822 180 75 153
-0.0772567 -0.365846 -0.606265 118 81 50
0.183135 -0.524854 -0.820073 151 61 23
0.410977 -0.414679 0.296968 180 75 165
0.114364 -0.32956 -0.614402 142 85 49
0.183135 -0.52718 0.777065 151 60 227
0.410977 -0.410933 0.293162 180 75 165
0.183135 -0.524854 0.772482 151 61 226
0.405833 -0.410933 0.305106 179 75 166
-0.118927 -0.215639 0.166773 112 100 149
-0.029069 0.695732 0.362066 124 216 174
-0.0772567 -0.362109 -0.462591 118 81 69
-0.123976 -0.215639 0.17491 112 100 150
-0.21559 -0.443482 -0.921669 100 71 10
-0.0314421 0.695732 0.370203 123 216 175
0.408866 -0.402796 -0.541167 180 76 59
-0.0293857 0.695732 0.443439 124 216 184
0.410977 -0.405464 -0.541167 180 76 59
0.113647 -0.321423 -0.614402 142 87 49
-0.0284334 0.693935 0.443439 124 216 184
-0.0772567 -0.353972 -0.462491 118 82 69
-0.218045 -0.427207 -0.907343 100 73 12
-0.21559 -0.427207 -0.909945 100 73 11
-0.0284334 0.687626 0.549223 124 215 198
0.410977 -0.405132 -0.0854818 180 76 117
0.410977 -0.402796 -0.0891451 180 76 116
0.410977 -0.410303 -0.0773446 180 75 118
0.111761 -0.313286 -0.614402 142 88 49
0.410977 -0.410668 -0.0692073 180 75 119
-0.0348359 0.703869 0.370203 123 217 175
-0.0284334 0.703869 0.366183 124 217 174
-0.0360755 0.703869 0.41089 123 217 180
-0.21559 -0.402796 -0.91583 100 76 11
-0.0306442 0.703869 0.443439 124 217 184
-0.223063 -0.402796 -0.777147 99 76 28
0.410977 -0.40597 -0.0529328 180 76 121
-0.21559 -0.406136 -0.777147 100 76 28
-0.0287699 0.703869 0.451576 124 217 185
0.410977 -0.410231 -0.0447956 180 75 122
0.410977 -0.402796 -0.0391503 180 76 123
0.25637 -0.251724 0.614321 160 95 206
-0.0284334 0.712006 0.367641 124 218 174
0.050103 0.142399 0.801477 134 146 230
0.25637 -0.254836 0.630595 160 95 208
-0.0347951 0.712006 0.419027 123 218 181
0.410977 -0.402796 0.190816 180 76 152
-0.0350998 0.712006 0.427164 123 218 182
-0.21559 -0.40684 -0.720186 100 76 36
-0.034508 0.712006 0.435301 123 218 183
0.410977 -0.407867 0.288831 180 75 164
-0.21559 -0.405284 -0.712049 100 76 37
-0.21559 -0.403682 -0.703912 100 76 38
0.0529391 0.147495 0.801477 134 146 230
-0.21559 -0.407135 -0.695775 100 76 39
-0.360203 -0.280737 -0.166854 82 92 106
-0.358148 -0.280737 -0.158717 82 92 107
-0.21559 -0.405318 -0.687637 100 76 40
-0.359644 -0.280737 -0.15058 82 92 108
0.404007 -0.394658 -0.541167 179 77 59
-0.21559 -0.405919 0.126086 100 76 144
0.118037 -0.30638 -0.62254 143 88 48
0.118037 -0.305149 -0.620759 143 89 48
0.408204 -0.394658 -0.508618 180 77 63
-0.360313 -0.2726 -0.191266 82 93 103
-0.359443 -0.2726 -0.183129 82 93 104
0.410977 -0.399539 -0.500481 180 77 64
-0.358133 -0.2726 -0.174991 82 93 105
0.0459014 0.174948 0.785203 133 150 228
0.410977 -0.394658 -0.495441 180 77 64
0.0529391 0.174948 0.7907 134 150 228
0.410977 -0.394905 -0.101756 180 77 115
-0.353923 -0.276358 -0.0854818 82 92 117
0.050259 0.183086 0.79334 134 151 229
-0.353923 -0.2726 -0.08932 82 93 116
0.410977 -0.400051 -0.093619 180 76 116
0.0529391 0.183086 0.797987 134 151 229
0.409386 -0.394658 -0.00410945 180 77 127
0.410977 -0.398173 0.166773 180 77 149
0.0529391 0.18437 0.801477 134 151 230
0.410977 -0.394658 0.162568 180 77 148
0.118037 -0.297012 -0.616818 143 90 49
0.238149 -0.524854 -0.760873 158 61 30
-0.361574 -0.264463 -0.142442 81 94 109
0.0529391 0.19936 0.839295 134 153 235
0.240096 -0.524854 -0.757975 158 61 31
-0.353923 -0.264463 -0.0902375 82 94 116
0.0529391 0.207497 0.0522723 134 154 134
-0.21559 -0.396876 0.142361 100 77 146
0.238048 -0.524854 0.728242 158 61 220
-0.216812 -0.394658 0.150498 100 77 147
0.0476462 0.207497 0.842163 134 154 235
0.240096 -0.52647 0.728242 158 60 220
0.406047 -0.386521 -0.508618 179 78 63
0.0529391 0.207497 0.840072 134 154 235
-0.117943 -0.193218 0.158635 112 103 148
0.240096 -0.524854 0.726024 158 61 220
-0.117943 -0.191227 0.157587 112 103 148
-0.21559 -0.397556 0.166773 100 77 149
-0.158629 -0.876827 -0.980578 107 16 2
0.410758 -0.386521 -0.492344 180 78 65
0.410977 -0.38739 -0.492344 180 78 65
0.118037 -0.264463 0.728519 143 94 220
0.410977 -0.386521 -0.492144 180 78 65
-0.158629 -0.882414 -0.972441 107 15 4
0.183135 -0.416579 -0.850382 151 74 19
0.118037 -0.256325 0.73008 143 95 221
-0.215731 -0.394658 0.858438 100 77 237
0.410977 -0.390327 -0.126168 180 78 111
0.410977 -0.386521 -0.13191 180 78 111
-0.218725 -0.386521 -0.907343 100 78 12
-0.360784 -0.256325 -0.134305 82 95 110
-0.117943 -0.183952 -0.174991 112 104 105
0.178635 -0.402796 -0.801559 150 76 25
0.180197 -0.402796 -0.793422 150 76 26
-0.220231 -0.386521 -0.638814 99 78 46
0.182854 -0.402796 -0.785284 151 76 27
0.183135 -0.402913 -0.785284 151 76 27
-0.21559 -0.389412 -0.630677 100 78 47
0.183135 -0.402796 -0.786086 151 76 27
0.410977 -0.394469 -0.00410945 180 77 127
0.183135 -0.402796 -0.784827 151 76 27
-0.21559 -0.389887 -0.62254 100 78 48
0.409857 -0.386521 0.00402783 180 78 128
0.410977 -0.390878 0.00402783 180 78 128
-0.21559 -0.389792 -0.614402 100 78 49
-0.21559 -0.393925 -0.606265 100 77 50
0.410977 -0.391244 0.158635 180 78 148
-0.21559 -0.389543 -0.598128 100 78 51
0.410977 -0.386521 0.153739 180 78 147
-0.21559 -0.386521 -0.595184 100 78 52
-0.21559 -0.390428 0.0609884 100 78 135
0.360091 -0.410933 -0.646951 173 75 45
0.183135 -0.401783 -0.801559 151 76 25
0.175034 -0.394658 -0.793422 150 77 26
0.183135 -0.401796 -0.793422 151 76 26
0.180705 -0.394658 -0.785284 151 77 27
0.362154 -0.413045 0.524811 174 75 194
-0.21559 -0.389908 0.0935374 100 78 139
0.183135 -0.394658 -0.782183 151 77 28
-0.117943 -0.183319 0.150498 112 104 147
-0.117943 -0.18309 0.150005 112 104 147
-0.216253 -0.386521 0.199321 100 78 153
-0.117943 -0.18309 0.734533 112 104 221
-0.21559 -0.388348 0.215596 100 78 155
0.407755 -0.378384 -0.492344 179 79 65
-0.21559 -0.386521 0.20795 100 78 154
0.410977 -0.378384 -0.487655 180 79 65
-0.21559 -0.38983 0.223733 100 78 156
-0.0818667 -0.231914 0.695693 117 98 216
-0.21559 -0.390817 0.23187 100 78 157
-0.0774566 -0.231914 0.70383 118 98 217
0.404932 -0.378384 -0.00410945 179 79 127
-0.21559 -0.391586 0.240008 100 78 158
0.178148 -0.370247 0.671281 150 80 213
-0.21559 -0.39203 0.248145 100 78 159
0.183135 -0.37602 0.671281 151 80 213
-0.21559 -0.387551 0.256282 100 78 160
0.409152 -0.378384 0.0528513 180 79 134
0.183135 -0.370247 0.666975 151 80 213
0.410977 -0.38078 0.0528513 180 79 134
0.410977 -0.378384 0.0464583 180 79 133
0.362154 -0.397204 0.32138 174 77 168
0.408437 -0.378384 0.0609884 180 79 135
-0.0835058 -0.223776 0.695693 117 99 216
0.362154 -0.394658 0.314854 174 77 168
-0.0772567 -0.231649 0.70383 118 98 217
-0.21559 -0.386521 0.856443 100 78 237
-0.0363278 0.809653 0.41089 123 231 180
0.410977 -0.378384 0.0656424 180 79 136
-0.0772567 -0.223776 0.701158 118 99 217
0.362154 -0.400549 0.329517 174 76 170
-0.0772567 -0.229849 0.711968 118 98 218
0.362154 -0.399843 0.337655 174 77 171
0.410977 -0.383331 0.150498 180 79 147
0.362154 -0.401558 0.362066 174 76 174
-0.21559 -0.380703 -0.589991 100 79 52
0.410977 -0.375848 -0.484206 180 80 66
-0.216147 -0.378384 -0.0610701 100 79 120
0.362154 -0.396303 0.394615 174 77 178
-0.21559 -0.378747 -0.0610701 100 79 120
0.402924 -0.370247 -0.467932 179 80 68
-0.21559 -0.378384 -0.0613669 100 79 120
