ply
format ascii 1.0
comment Created by Open3D
element vertex 1222
property double x
property double y
property double z
property uchar red
property uchar green
property uchar blue
end_header
0.0381884 -0.443485 -0.618977 132 71 49
-0.508492 0.449892 -0.215437 63 185 100
-0.597119 -0.638919 -0.575467 51 46 54
-0.0154865 -0.913357 -0.725075 126 11 35
-0.146229 -0.912862 0.631254 109 11 208
-0.595214 -0.0223545 -0.0785412 52 125 117
0.596296 -0.382522 0.231071 204 79 157
-0.391097 -0.206299 0.422982 78 101 181
-0.597915 -0.365762 0.0363566 51 81 132
-0.20826 0.591325 -0.627041 101 203 48
-0.545793 -0.534312 0.300597 58 59 166
0.257199 -0.307555 0.340569 160 88 171
0.632746 0.364751 0.351377 208 174 172
0.379571 0.192408 -0.606192 176 152 50
-0.514868 -0.946868 -0.743049 62 7 33
-0.615029 0.181646 -0.393683 49 151 77
0.435244 0.534251 0.236281 183 196 158
0.507854 -0.819269 0.448177 192 23 185
-0.245537 -0.396755 -0.622807 96 77 48
-0.156923 -0.67824 0.331085 107 41 170
0.597894 -0.678295 -0.586049 204 41 53
-0.149669 0.826082 -0.712634 108 233 37
-0.568475 -0.996596 0.448313 55 0 185
-0.505045 0.452913 -0.432109 63 185 72
-0.726091 -0.909892 -0.545737 35 11 58
-0.508531 -0.0590549 -0.627313 63 120 48
-0.28419 -0.844857 0.513519 91 20 193
-0.112279 0.90385 0.0272958 113 243 131
-0.41159 -0.999135 -0.335238 75 0 85
-0.523418 -0.997783 -0.0515038 61 0 121
0.0639857 0.29848 0.224927 136 166 156
0.395832 0.520137 -0.791483 178 194 27
0.704555 -0.993742 0.690297 217 1 216
-0.563727 -0.338068 0.300468 56 84 166
-0.685905 -0.996515 -0.322369 40 0 86
-0.677793 0.131095 -0.321387 41 144 87
-0.596268 -0.344498 -0.421306 51 84 74
0.599799 -0.735043 -0.423926 204 34 73
0.227931 0.0326236 -0.610992 157 132 50
-0.595153 -0.0254642 -0.537444 52 124 59
-0.597387 -0.6754 -0.496888 51 41 64
0.0731134 0.922634 -0.738193 137 245 33
0.00129537 0.170785 0.245667 128 149 159
0.0300062 -0.321328 0.584065 131 87 202
-0.126265 -0.912617 0.747269 111 11 223
0.23195 0.225278 0.342045 157 156 171
0.147874 -0.183397 0.580195 146 104 201
0.485382 0.499585 0.286326 189 191 164
-0.451919 0.218239 -0.625785 70 155 48
0.596865 -0.478367 0.187823 204 67 151
-0.0172651 -0.913455 0.555085 125 11 198
-0.767929 -0.938118 0.211032 30 8 154
0.271439 -0.998715 -0.33862 162 0 84
0.661984 -0.993956 0.371452 212 1 175
-0.496495 -0.314237 0.413167 64 87 180
-0.210534 -0.18165 0.40108 101 104 179
-0.751375 -0.905578 0.743966 32 12 222
-0.0492255 0.974118 -0.530615 121 252 60
-0.297429 -0.999315 -0.0773422 90 0 118
-0.351269 0.629975 0.571922 83 208 200
-0.352291 -0.999341 -0.465144 83 0 68
-0.532906 -0.997293 0.279565 60 0 163
-0.352549 -0.951696 -0.742222 83 6 33
0.0667534 -0.782922 0.336802 136 28 170
0.365787 0.561019 0.183329 174 199 151
0.120309 0.42836 0.340801 143 182 171
0.226635 -0.130731 -0.610935 156 111 50
-0.457273 -0.896902 0.458586 69 13 186
0.387073 -0.146255 0.380525 177 109 176
0.596255 0.0333791 -0.293764 204 132 90
0.696675 -0.907037 -0.70723 216 12 37
0.61631 0.374098 -0.324658 206 175 86
-0.597815 -0.898529 -0.112895 51 13 113
-0.0251099 0.161227 0.285646 124 148 164
0.440803 0.496855 0.0950465 184 191 140
-0.293107 -0.318828 0.579788 90 87 201
0.301941 0.495719 0.459531 166 191 186
-0.437265 0.0226257 0.323546 72 130 169
0.157459 0.31693 0.340775 148 168 171
-0.279957 -0.493809 -0.623418 92 65 48
0.323892 -0.546272 -0.606867 169 58 50
0.373233 -0.997787 -0.581942 175 0 53
0.582488 0.395458 0.272764 202 178 162
-0.615637 -0.381621 -0.0398264 49 79 122
0.580841 0.398499 -0.400924 202 178 76
0.608104 -0.994971 0.293633 205 1 165
0.0176041 -0.188709 0.344373 130 103 171
-0.279736 0.585811 -0.790582 92 202 27
-0.400284 -0.999256 -0.310115 76 0 88
0.103909 0.688161 -0.644216 141 215 45
-0.4535 0.525822 -0.0412883 70 195 122
0.490489 0.461678 -0.583646 190 186 53
0.199273 -0.988422 -0.738049 153 1 33
0.599107 -0.624384 -0.29843 204 48 89
0.113811 -0.999339 -0.00523183 142 0 127
-0.616893 -0.482375 -0.109036 49 66 114
0.427108 -0.38967 0.326675 182 78 169
0.136431 -0.205505 0.440775 145 101 184
0.489527 -0.197301 0.430191 190 102 182
-0.596347 -0.233421 -0.195154 51 98 103
0.64736 0.14937 -0.686555 210 147 40
0.699991 -0.907421 0.261558 217 12 161
-0.639763 -0.910796 -0.0799122 46 11 117
-0.554284 -0.181575 0.382462 57 104 176
-0.59643 -0.713805 -0.610533 51 36 50
0.48973 -0.557016 0.453811 190 56 185
-0.0637506 0.957798 -0.504385 119 250 63
0.639798 0.302428 0.367466 209 166 174
-0.614134 -0.155756 -0.139475 49 108 110
0.0643495 -0.677939 0.336286 136 41 170
-0.207551 0.784861 0.556353 101 228 198
0.0106511 0.247535 0.180831 129 159 151
0.0529407 -0.922177 -0.738636 134 10 33
0.700019 -0.993404 0.42954 217 1 182
0.236031 0.690762 -0.788971 158 216 27
0.340175 -0.911272 -0.640003 171 11 46
0.489775 -0.61447 0.467074 190 49 187
0.0574438 -0.999333 0.155059 135 0 147
0.47112 -0.310375 0.345979 188 88 172
0.551007 0.244472 -0.707867 198 159 37
-0.521758 -0.876849 0.319117 61 16 168
0.495119 -0.99676 0.221269 191 0 156
-0.330879 -0.999457 -0.364954 85 0 81
-0.683938 -0.995877 -0.16915 40 1 106
-0.0102302 0.149822 0.334526 126 147 170
0.464546 0.225082 -0.603641 187 156 51
-0.120681 0.319853 0.262485 112 168 161
-0.716192 -0.908477 0.176199 36 12 150
-0.127798 -0.878739 -0.626276 111 15 48
0.373102 -0.997702 -0.0196094 175 0 125
-0.0988714 -0.118744 0.33671 115 112 170
0.616677 -0.285264 -0.0119769 206 91 126
0.242024 -0.200043 0.320375 158 102 168
0.452163 0.148971 -0.604069 185 146 50
-0.671744 -0.996817 -0.511822 42 0 62
-0.18661 -0.999312 0.334319 104 0 170
0.314893 -0.88883 0.322824 168 14 169
-0.325434 -0.938278 -0.742176 86 8 33
0.639753 0.15682 -0.65541 209 147 44
-0.271683 0.658958 -0.791129 93 212 27
-0.348922 0.60366 -0.180005 83 204 105
-0.489094 -0.220084 0.601108 65 99 204
0.185599 0.611991 0.500203 151 206 191
0.208705 0.589348 0.630002 154 203 208
0.000282347 -0.975716 0.791423 128 3 228
0.23201 -0.367401 0.320132 157 81 168
-0.399138 0.566323 -0.500142 77 200 64
-0.525836 0.439002 0.574845 60 183 201
0.588879 -0.798702 0.516749 203 26 193
0.626328 -0.994511 -0.488262 207 1 65
-0.346783 -0.437295 -0.624578 83 72 48
0.510099 -0.183723 0.327024 193 104 169
0.245011 -0.238856 0.481766 159 97 189
-0.524955 -0.995535 0.688701 61 1 215
-0.202453 -0.715263 0.44219 102 36 184
0.59629 -0.572504 0.294689 204 55 165
0.597684 0.156118 -0.545095 204 147 58
-0.540176 0.428065 -0.349755 59 182 83
0.190639 -0.724098 0.437025 152 35 183
0.183778 -0.401861 -0.609785 151 76 50
-0.590428 0.0107055 0.338621 52 129 171
0.367471 -0.998099 0.261739 174 0 161
0.596385 -0.04707 -0.298945 204 121 89
0.694486 -0.95352 0.795631 216 6 229
0.660555 0.140449 0.38876 212 145 177
0.147514 -0.905809 0.332391 146 12 170
-0.31496 -0.911124 0.765796 87 11 225
-0.659951 -0.910855 -0.406477 43 11 76
-0.40831 -0.280902 0.611827 75 92 206
0.196266 0.749882 -0.199235 153 223 102
0.583045 -0.995416 0.312023 202 1 167
-0.485989 0.466332 0.393202 66 187 178
-0.029675 0.76797 0.57235 124 225 200
-0.7145 -0.99521 0.0412467 36 1 133
-0.580402 -0.792144 0.366412 53 27 174
-0.250825 0.158365 0.329669 96 148 170
0.295089 -0.129239 0.522173 165 111 194
-0.635225 0.357838 0.0521855 47 173 134
0.104693 0.0466372 -0.614272 141 133 49
0.665754 0.275138 -0.645219 212 163 45
0.0840285 0.914501 -0.0873055 138 244 116
0.630813 0.365105 0.00140494 208 174 128
-0.597389 -0.821149 0.128353 51 23 144
-0.490374 -0.115691 0.499548 65 113 191
-0.654041 0.197709 -0.78965 44 153 27
0.587341 -0.435313 0.49402 202 72 190
0.457193 -0.640887 -0.603138 186 46 51
-0.37401 -0.355464 0.32503 80 82 169
-0.64846 -0.911004 -0.176982 45 11 105
-0.166296 0.810892 0.0991962 106 231 140
-0.368942 0.0660208 0.306482 80 136 167
-0.668159 0.130871 0.227566 42 144 157
-0.605956 -0.911058 -0.138723 50 11 110
-0.729508 -0.995943 -0.61356 34 1 49
-0.584335 -0.99769 -0.471092 53 0 67
0.101866 0.897836 -0.778542 140 242 28
0.143786 -0.91295 0.75095 146 11 223
-0.118438 -0.337029 -0.619941 112 85 48
0.23782 -0.998888 0.417082 158 0 181
-0.444323 -0.73813 0.44218 71 33 184
-0.760348 -0.910399 0.0870711 31 11 139
0.596827 -0.383733 -0.591406 204 79 52
-0.652911 -0.910608 -0.120899 44 11 112
-0.497473 -0.738446 0.421342 64 33 181
0.0163374 -0.999471 0.0198729 130 0 130
0.596997 0.0225126 -0.42681 204 130 73
-0.200741 0.789256 -0.453513 102 228 70
0.132927 -0.446837 0.337003 144 71 170
0.500535 -0.996082 0.0801403 191 0 138
0.398606 0.515747 0.0920074 178 193 139
-0.597563 -0.735363 0.0728214 51 34 137
-0.615028 0.376773 0.553642 49 176 198
0.370514 -0.997736 -0.699831 175 0 38
0.160741 0.483509 -0.61099 148 189 50
-0.59623 -0.382394 -0.532719 51 79 60
-0.462472 -0.160709 0.368335 69 107 174
0.0523465 0.924434 -0.793136 134 245 26
0.506458 -0.997174 0.775485 192 0 226
0.372529 -0.7042 0.323157 175 38 169
0.418202 0.546596 -0.724653 181 197 35
0.59835 -0.847383 0.123906 204 19 143
0.595612 -0.0999526 0.103225 203 115 141
0.597965 -0.246603 -0.187993 204 96 104
0.489344 -0.347509 0.505574 190 83 192
0.111495 0.884065 0.611903 142 240 206
-0.722087 0.181012 0.643709 35 151 210
-0.596223 -0.338389 -0.366274 51 84 81
0.589843 0.207937 -0.787127 203 154 27
-0.237573 0.559313 0.526904 97 199 195
-0.596395 0.0910251 0.165265 51 139 149
-0.442459 -0.886316 -0.626475 71 14 48
0.52125 0.0288523 0.348112 194 131 172
-0.126083 0.888019 0.624134 111 241 207
-0.548719 0.422042 -0.451121 58 181 70
-0.086363 0.932269 -0.481557 116 246 66
0.523771 -0.562791 0.32683 194 56 169
-0.422421 -0.105479 0.506582 74 114 192
0.595722 0.170776 -0.0992255 203 149 115
-0.59602 -0.478956 -0.375911 52 66 80
-0.0613766 -0.467885 -0.620783 120 68 48
0.598886 -0.690795 -0.186023 204 39 104
-0.58611 -0.286737 0.298951 53 91 166
-0.241698 -0.999416 -0.105556 97 0 114
-0.598074 -0.525166 0.154004 51 61 147
-0.195425 0.603829 -0.744101 103 204 33
0.494778 -0.95717 0.79434 191 5 229
0.244364 0.553341 0.440787 159 198 184
-0.0544685 -0.999267 0.067587 121 0 136
-0.694103 -0.994901 0.26367 39 1 161
0.278047 -0.998642 -0.458264 163 0 69
0.560397 0.41258 -0.537854 199 180 59
0.491761 0.493271 0.461969 190 190 186
0.597537 -0.618883 0.221651 204 49 156
0.595847 0.0555072 -0.178112 203 135 105
-0.243492 -0.240393 -0.622611 96 97 48
0.598064 -0.568568 -0.569839 204 55 55
-0.53274 0.4337 0.259755 60 183 161
-0.560758 0.41429 -0.158642 56 180 107
0.204041 -0.723165 -0.612951 154 35 49
0.0536442 0.888213 -0.793108 134 241 26
-0.602621 -0.210459 0.578282 51 101 201
-0.597568 -0.0668722 -0.597735 51 119 51
-0.418272 -0.998581 -0.0742112 74 0 118
0.60278 -0.905201 -0.0883883 204 12 116
-0.394039 0.569829 -0.435619 77 200 72
0.360708 0.404793 0.324553 173 179 169
-0.196139 0.790101 -0.674561 102 228 41
-0.343461 0.123985 0.307121 84 143 167
-0.539891 -0.996907 0.433642 59 0 183
-0.478495 0.50737 0.0656479 66 192 136
0.597865 -0.794028 0.239118 204 26 158
0.685482 0.144672 -0.406208 215 146 76
-0.532221 -0.996396 0.562443 60 0 199
-0.215782 -0.999704 -0.545938 100 0 58
-0.568492 -0.90821 0.737205 55 12 221
0.596099 -0.091608 -0.0857713 204 116 117
-0.0962521 -0.148022 -0.619408 115 109 49
0.681089 0.26101 -0.69989 214 161 38
0.217975 -0.998865 0.0934634 155 0 139
-0.0739727 0.94793 0.0863999 118 248 139
-0.501531 0.345306 -0.790487 64 172 27
0.186735 -0.912935 0.732489 151 11 221
0.014451 -0.99928 0.261747 129 0 161
-0.690585 -0.996443 -0.562639 39 0 56
0.54149 0.257108 0.533687 197 160 196
-0.442373 -0.258993 0.630425 71 94 208
-0.101758 0.362026 -0.618422 115 174 49
-0.766627 -0.917608 0.143091 30 11 146
0.734689 -0.906357 0.182546 221 12 151
-0.63113 0.364348 -0.5289 47 174 60
0.0272695 0.958394 0.597852 131 250 204
-0.567478 -0.261393 0.300479 55 94 166
0.0511862 -0.627956 -0.617299 134 47 49
0.658483 0.284105 0.0386708 211 164 132
0.294964 0.648609 0.223154 165 210 156
-0.27181 -0.999457 -0.0855538 93 0 117
-0.126742 0.887495 -0.333069 111 241 85
-0.265083 0.701733 -0.251014 94 217 95
-0.678214 -0.910883 -0.355996 41 11 82
0.178832 -0.329091 0.318326 150 86 168
-0.611877 0.379434 0.472181 49 176 188
-0.416017 -0.316208 -0.625837 74 87 48
-0.387783 -0.642198 -0.624942 78 46 48
-0.193935 -0.725678 0.326098 103 35 169
0.472972 -0.391322 0.345684 188 78 172
-0.125814 0.849356 -0.574215 111 236 54
0.102663 -0.571278 0.336643 141 55 170
-0.282323 0.313033 -0.62232 92 167 48
0.346537 0.622109 0.46799 172 207 187
-0.542535 -0.845439 0.511754 58 20 193
0.529337 -0.141364 0.543303 195 109 197
0.574795 -0.994835 0.0469766 201 1 133
0.496481 -0.520734 0.336907 191 61 170
0.766398 -0.986509 -0.327935 225 2 86
-0.0834577 0.535967 0.336361 117 196 170
-0.14993 -0.8926 0.46597 108 14 187
0.0663389 0.927681 0.467671 136 246 187
0.713789 -0.992738 0.140291 219 1 145
-0.423919 0.37209 0.434696 73 175 183
0.169344 -0.999187 -0.487015 149 0 65
0.561748 -0.995813 0.676483 199 1 214
-0.000498953 -0.539857 0.334233 127 59 170
0.598791 -0.654718 -0.13705 204 44 110
-0.597316 -0.677582 0.0573734 51 41 135
-0.208766 0.587968 0.485938 101 202 189
0.333161 -0.26727 0.646265 170 93 210
-0.177939 -0.815428 -0.627074 105 24 48
-0.202845 -0.164962 0.309729 102 106 167
0.180472 0.616662 0.420688 151 206 181
0.595343 -0.108396 0.206948 203 114 154
0.534645 -0.705223 0.53267 196 38 195
0.573197 -0.120816 0.521732 201 112 194
0.766119 -0.970592 0.359628 225 4 173
0.54446 -0.995632 -0.390548 197 1 78
-0.33785 -0.896837 0.453742 84 13 185
0.0505544 0.940931 0.420044 134 247 181
-0.566652 0.409705 -0.266473 55 180 94
-0.348958 0.604783 -0.579169 83 205 54
-0.693231 -0.909487 0.123427 39 12 143
0.391314 0.272838 0.324968 177 162 169
-0.31641 0.664292 0.239614 87 212 158
0.586224 -0.214531 0.61533 202 100 206
0.106071 0.868971 -0.516637 141 238 62
0.581043 -0.995446 0.542316 202 1 197
0.183047 -0.998963 -0.615642 151 0 49
0.624844 -0.995519 0.762174 207 1 225
-0.0197458 -0.232835 0.634093 125 98 208
0.477454 0.320835 0.536483 188 168 196
-0.661561 0.2224 0.65628 43 156 211
-0.449952 -0.998368 -0.0314615 70 0 123
-0.558421 0.374485 0.656268 56 175 211
0.271513 -0.147885 0.381019 162 109 176
0.597784 -0.542233 0.0323461 204 58 132
0.528474 0.434839 -0.743568 195 183 33
-0.163779 -0.122222 0.31099 107 112 167
-0.597069 -0.707015 -0.332604 51 37 85
-0.741883 -0.995991 -0.204333 33 1 101
-0.712739 -0.992118 0.76368 37 1 225
-0.595778 -0.478936 -0.42178 52 66 74
0.112335 0.885343 0.036609 142 240 132
-0.37502 -0.528083 -0.62494 80 60 48
0.228386 0.72261 -0.44988 157 220 70
-0.305061 0.491884 0.613682 89 190 206
-0.712163 -0.907155 0.44556 37 12 184
-0.171408 0.625638 0.475433 106 207 188
0.445552 0.353001 0.608456 184 173 205
-0.741801 -0.994051 0.257362 33 1 160
-0.0979304 -0.420254 -0.622681 115 74 48
0.0910011 0.908262 -0.540361 139 243 59
0.598311 -0.314196 -0.37848 204 87 79
-0.255022 -0.999331 -0.0480368 95 0 121
0.271301 0.633169 0.00533993 162 208 128
-0.0782848 0.942836 -0.0602433 118 248 120
0.600595 -0.904591 -0.537201 204 12 59
-0.585214 0.178923 0.300348 53 150 166
0.389015 -0.997975 0.565199 177 0 200
0.0158128 0.165315 -0.616152 130 149 49
0.642884 0.338191 0.360815 209 171 174
0.236967 0.464582 -0.609451 158 187 50
-0.0910751 0.281071 -0.618374 116 163 49
0.122951 0.766719 0.649516 143 225 210
0.215544 0.0384511 0.320297 155 132 168
0.0960675 0.558371 0.340977 140 199 171
-0.701744 0.240335 -0.111864 38 158 113
-0.597074 -0.826821 -0.597839 51 22 51
0.265913 0.531286 0.336077 161 195 170
0.47569 0.470197 -0.786705 188 187 27
0.138324 -0.999246 -0.582939 145 0 53
0.245558 0.0180718 0.357161 159 130 173
-0.564907 0.411706 0.334481 55 180 170
0.271832 -0.998473 -0.178238 162 0 105
0.599566 -0.388165 -0.0602633 204 78 120
0.550256 -0.90923 -0.668742 198 12 42
-0.242704 0.721847 0.45033 97 220 185
-0.432468 -0.997052 0.649126 72 0 210
0.160389 -0.047978 -0.612925 148 121 49
0.175536 -0.58643 0.318035 150 53 168
-0.414347 -0.237692 0.45686 75 97 186
0.0228672 0.965728 -0.550905 130 251 57
-0.496545 0.298925 0.42202 64 166 181
0.739903 -0.906352 0.0309863 222 12 131
0.759898 -0.907456 -0.070314 224 12 119
-0.697791 0.149264 -0.240371 39 147 97
-0.0929582 0.926128 -0.0123896 116 246 126
-0.735416 -0.908365 0.137659 34 12 145
-0.72041 -0.906978 0.401929 36 12 179
-0.213608 0.583293 0.616359 100 202 206
0.070444 0.925992 -0.470884 136 246 67
-0.134392 0.859012 -0.518383 110 237 61
-0.192945 0.105328 0.322446 103 141 169
-0.597212 -0.832859 -0.187817 51 21 104
0.18299 0.735747 -0.0569364 151 221 120
-0.145561 0.651637 0.602097 109 211 204
-0.632032 -0.995048 0.553076 47 1 198
0.0180873 0.451298 0.338002 130 185 171
0.50255 0.455401 0.442478 192 186 184
0.222756 0.66902 -0.781801 156 213 28
-0.197517 -0.247918 0.640171 102 96 209
0.0066305 -0.569569 0.334498 128 55 170
0.589205 -0.175677 0.554098 203 105 198
0.597727 -0.107376 -0.571546 204 114 55
0.0803738 -0.999362 0.108852 138 0 141
0.330583 -0.935077 0.793743 170 8 229
-0.436269 -0.998262 0.291241 72 0 165
-0.584649 -0.335267 -0.627308 53 85 48
0.0949625 0.696757 -0.748915 140 216 32
0.441971 -0.824465 0.502923 184 22 192
0.390852 0.407603 0.583508 177 179 202
0.600049 -0.725061 -0.527988 204 35 60
-0.594583 -0.0798299 -0.41448 52 117 75
-0.767552 -0.981371 0.0480046 30 2 134
0.739202 0.200702 0.493478 222 153 190
-0.0580296 0.288012 0.197582 120 164 153
-0.309481 0.671608 -0.735246 88 213 34
0.459338 -0.996878 -0.716374 186 0 36
0.59787 -0.178721 -0.403476 204 105 76
-0.593336 0.104962 -0.122208 52 141 112
-0.490422 -0.909806 0.77181 65 11 226
0.451762 -0.337525 0.338636 185 84 171
-0.637755 0.303333 -0.226479 46 166 99
-0.496798 0.458601 0.318131 64 186 168
0.295237 -0.99841 0.27667 165 0 163
0.597847 -0.683249 0.150815 204 40 147
0.341057 -0.337276 0.32819 171 84 169
0.622224 -0.908454 -0.477464 207 12 67
-0.498295 -0.339385 0.462629 64 84 186
0.630814 -0.908744 0.631477 208 12 208
0.386964 -0.503282 0.33849 177 63 171
0.571961 0.40573 0.198452 200 179 153
0.0377167 -0.523577 0.326682 132 61 169
0.0988257 0.902221 -0.0497069 140 243 121
-0.592601 0.138536 -0.465042 52 145 68
-0.345311 -0.999229 -0.124212 83 0 112
-0.343991 -0.998544 0.526803 84 0 195
-0.0750515 -0.9993 0.309023 118 0 167
-0.689016 0.139061 -0.528578 40 145 60
0.507355 -0.0736032 0.504118 192 118 192
0.00948604 0.41346 0.337796 129 180 171
-0.268575 -0.999147 0.0503724 93 0 134
0.540351 -0.995446 0.0897069 196 1 139
-0.342673 -0.24648 0.472032 84 96 188
-0.384365 0.576765 -0.241271 78 201 97
-0.0957246 -0.999545 0.369491 115 0 175
-0.59764 0.0144382 0.26136 51 129 161
0.110481 0.876769 -0.232277 142 239 98
-0.496393 -0.606021 0.431045 64 50 182
0.562835 -0.814346 -0.599953 199 24 51
0.308584 -0.259823 0.34221 167 94 171
0.495888 -0.0826927 -0.603113 191 117 51
0.0902324 0.909679 0.176618 139 243 150
0.442744 0.529435 -0.749365 184 195 32
-0.202862 0.0488411 -0.621342 102 134 48
-0.277284 0.519169 0.629608 92 194 208
0.36245 0.588601 -0.442099 174 203 71
0.436899 -0.204463 0.614016 183 101 206
-0.596378 -0.0510132 0.100466 51 121 140
0.494007 -0.996969 0.372302 190 0 175
-0.62864 0.344433 -0.786383 47 171 27
0.618674 -0.414391 -0.258055 206 75 95
-0.0458641 -0.550104 -0.620043 122 57 48
-0.102694 0.914436 -0.333823 114 244 85
0.594787 0.157587 0.261919 203 148 161
-0.414685 0.554118 -0.268808 75 198 93
-0.38441 0.411484 0.566447 78 180 200
-0.530503 -0.213891 -0.627361 60 100 48
-0.0647396 0.553787 0.318295 119 198 168
0.64577 0.341833 0.453056 210 171 185
-0.711873 0.16498 0.00318976 37 149 128
-0.307773 -0.99791 0.744243 88 0 222
-0.0104799 0.989402 0.62769 126 254 208
0.348528 0.238627 -0.606967 172 158 50
-0.476033 0.188895 0.30406 67 152 166
-0.590752 -0.937764 -0.74382 52 8 33
0.000234433 0.300799 -0.616026 128 166 49
0.345554 0.632952 0.280823 172 208 163
-0.0118387 0.787078 -0.643335 126 228 45
0.502227 0.339381 -0.793644 192 171 26
-0.133398 0.835725 0.0518051 110 234 134
0.48012 0.469999 0.126347 189 187 144
0.567831 -0.216652 0.416455 200 100 181
-0.644546 0.294758 0.331086 45 165 170
0.599399 -0.357799 -0.273158 204 82 93
0.477656 0.315297 0.590661 188 168 203
-0.653156 0.28963 -0.755932 44 164 31
-0.387353 -0.0350109 0.417779 78 123 181
-0.306977 0.673491 0.485051 88 213 189
0.468135 -0.997002 0.632479 187 0 208
-0.470805 0.51366 -0.631108 67 193 47
0.599412 -0.709385 -0.342778 204 37 84
0.153496 -0.999524 -0.287033 147 0 91
0.361417 -0.997846 -0.452316 174 0 70
0.739361 -0.90671 0.481523 222 12 189
0.515494 -0.996251 -0.582776 193 0 53
0.285422 -0.689749 -0.617358 164 40 49
0.0346107 -0.999551 -0.149499 132 0 108
0.209031 -0.999006 0.572717 154 0 201
-0.0693741 0.950954 -0.729417 119 249 34
0.316559 -0.297554 0.336528 168 90 170
0.133231 -0.335703 0.337245 144 85 170
-0.143009 -0.642128 -0.624133 109 46 48
0.0903086 -0.439694 -0.618477 139 71 49
-0.287172 -0.362679 -0.623517 91 81 48
0.220193 -0.998856 0.330559 156 0 170
-0.0411196 0.878285 -0.790933 122 239 27
-0.520728 -0.910987 -0.714988 61 11 36
-0.585609 0.211169 -0.736614 53 154 34
-0.597721 -0.781991 0.21389 51 28 155
0.616342 -0.350176 -0.102258 206 83 114
-0.474222 -0.310717 0.583743 67 88 202
0.500491 -0.326086 0.326988 191 86 169
0.70219 -0.992751 -0.170676 217 1 106
0.584711 -0.356232 0.5113 202 82 193
0.251275 0.705235 -0.600312 160 217 51
-0.371555 0.4249 0.422819 80 182 181
-0.559597 -0.215214 -0.62778 56 100 47
-0.642356 0.29963 -0.550301 46 166 57
0.184447 0.162658 0.340298 151 148 171
-0.366114 0.590833 0.641524 81 203 209
-0.0626702 -0.999188 0.651303 120 0 211
0.0811672 -0.120806 0.342024 138 112 171
0.41292 -0.241724 0.654848 180 97 211
0.314239 -0.600655 -0.606985 168 51 50
0.744283 -0.992834 -0.689453 222 1 40
-0.542549 -0.419845 0.30093 58 74 166
-0.112492 0.903693 -0.126511 113 243 111
-0.650862 0.145344 -0.720656 45 146 36
0.677827 0.26684 0.130442 214 162 144
0.00753484 0.97867 -0.0229054 128 252 125
-0.266058 -0.293431 0.52671 94 90 195
-0.404509 0.197991 -0.625002 76 153 48
-0.591198 0.16886 -0.1415 52 149 109
-0.40004 -0.741346 0.443138 76 33 184
-0.00110857 -0.684988 -0.619686 127 40 48
0.452866 0.341586 -0.661258 185 171 43
-0.635374 0.303109 0.593824 46 166 203
0.138593 0.824757 0.576907 145 233 201
0.124109 -0.820929 0.337587 143 23 171
-0.69745 -0.994944 0.15583 39 1 147
0.598083 -0.267404 -0.362542 204 93 81
-0.710988 -0.910417 -0.515872 37 11 62
0.757559 -0.992263 -0.641588 224 1 46
0.266566 -0.746174 -0.606648 161 32 50
-0.408897 -0.912056 0.366061 75 11 174
-0.595914 -0.629323 0.484201 52 47 189
-0.668838 -0.995267 0.30795 42 1 167
0.744414 -0.906531 0.573993 222 12 201
0.143891 -0.913309 0.700259 146 11 217
0.597036 -0.558757 0.229663 204 56 157
0.0302471 -0.999673 -0.372057 131 0 80
0.211041 0.712902 -0.00197654 154 218 127
0.231913 -0.798841 0.439306 157 26 184
-0.442821 -0.246305 -0.62621 71 96 48
0.597219 -0.00592033 -0.475433 204 127 67
-0.0233827 -0.837627 -0.621975 125 21 48
0.619836 0.176636 -0.655789 207 150 44
-0.581752 -0.446749 0.394136 53 71 178
0.556006 -0.910101 0.589771 198 11 203
0.569597 -0.888049 0.54079 200 14 196
-0.109778 -0.57066 -0.622479 114 55 48
0.30685 -0.822395 0.492746 167 23 190
0.158051 0.809871 0.0620282 148 231 135
-0.721192 0.176826 0.551207 36 150 198
-0.598088 -0.576142 0.211254 51 54 154
-0.265828 -0.787167 0.307514 94 27 167
0.689381 0.254571 -0.221047 215 160 99
0.354997 -0.158053 0.323253 173 107 169
-0.693544 -0.992882 0.718621 39 1 219
-0.147882 0.826842 0.407397 109 233 179
0.598249 -0.670301 0.0544503 204 42 134
0.686244 0.259749 0.3147 215 161 168
0.734716 -0.993012 0.777951 221 1 227
0.138784 0.824493 -0.0740405 145 233 118
-0.235629 -0.913227 -0.666137 97 11 43
0.443699 -0.149691 -0.60459 184 108 50
-0.18285 -0.927727 -0.741176 104 9 33
-0.12892 0.841843 -0.767611 111 235 30
0.0636045 0.511683 0.339822 136 193 171
0.112252 -0.99969 -0.274386 142 0 93
0.529342 0.390498 -0.793086 195 177 26
0.596744 -0.50679 0.263242 204 63 161
-0.0143245 0.783034 0.551558 126 227 198
-0.688611 0.143254 0.408893 40 146 180
0.158198 -0.999215 0.676702 148 0 214
-0.198361 -0.999605 -0.138371 102 0 110
0.596532 -0.267787 0.0951814 204 93 140
-0.174136 -0.283052 0.615165 105 91 206
0.113462 -0.652145 0.337083 142 44 170
-0.428842 -0.910931 0.611407 73 11 205
0.692207 -0.993618 0.60956 216 1 205
-0.15134 -0.777895 0.499691 108 28 191
0.599516 -0.828142 -0.263435 204 22 94
0.0424865 0.947909 0.368396 133 248 174
0.371472 -0.997854 -0.660414 175 0 43
0.598517 -0.322366 -0.436178 204 86 72
-0.118159 -0.999265 0.481046 112 0 189
0.526539 -0.901836 0.345572 195 13 172
-0.596647 0.159085 0.247939 51 148 159
0.603483 -0.379048 -0.00655385 204 79 127
0.57761 0.218368 -0.66221 201 155 43
0.594643 0.129011 0.22803 203 144 157
-0.190818 -0.24399 -0.621444 103 96 48
0.622273 -0.909138 0.285814 207 12 164
0.594773 0.141998 0.130505 203 146 144
-0.298826 0.141285 0.308115 89 146 167
-0.305035 -0.912282 0.583266 89 11 202
-0.723068 0.220657 -0.332382 35 156 85
-0.545476 -0.530932 -0.6274 58 60 48
0.112162 0.886712 -0.547694 142 241 58
0.59669 0.386356 -0.744235 204 177 33
0.372487 0.425891 0.535769 175 182 196
-0.596406 -0.588895 -0.314474 51 52 87
0.240199 0.0763939 -0.610535 158 137 50
0.515216 -0.996386 0.605618 193 0 205
0.164433 -0.496264 -0.611841 148 64 49
0.0411378 -0.574108 0.335394 133 54 170
0.134515 0.0594796 0.318403 145 135 168
0.231332 0.671835 0.025329 157 213 131
0.598512 -0.237852 -0.526461 204 97 60
-0.597248 -0.6902 -0.0300319 51 39 124
-0.10857 -0.309039 0.593203 114 88 203
0.591866 -0.147606 0.486007 203 109 189
0.599174 -0.729875 -0.295471 204 34 90
-0.0166874 -0.254841 0.340057 125 95 171
-0.0439318 0.00273807 -0.618158 122 128 49
-0.592712 0.109401 -0.205869 52 141 101
-0.587502 0.207424 0.356863 53 154 173
0.420738 -0.0186163 -0.605188 181 125 50
-0.322211 0.474211 0.408574 86 188 180
-0.597707 -0.352404 -0.0142205 51 83 126
0.665835 -0.908165 0.544182 212 12 197
0.690879 -0.993412 -0.371875 216 1 80
0.158905 0.737144 -0.359798 148 221 82
0.566746 -0.758838 -0.599831 200 31 51
-0.235827 -0.121658 -0.622358 97 112 48
0.508358 -0.996541 0.659988 192 0 212
0.27213 -0.787317 0.523654 162 27 194
0.248405 -0.191651 -0.610189 159 103 50
-0.734334 -0.995982 -0.509623 34 1 63
0.125688 0.835849 0.0305903 144 234 131
-0.345755 -0.245639 0.314495 83 96 168
0.451551 0.489676 -0.0664913 185 190 119
0.52504 0.259833 -0.601752 194 161 51
0.126999 -0.245226 0.485792 144 96 189
0.109672 0.873685 -0.432957 141 239 72
0.13911 0.824415 0.302473 145 233 166
-0.594816 0.138568 0.296186 52 145 165
0.0327267 0.919963 0.654174 132 245 211
-0.592134 -0.650104 0.41841 52 45 181
-0.567883 0.408717 0.647175 55 180 210
-0.579185 0.215728 0.427329 54 155 182
0.54764 0.248051 -0.626316 197 159 48
-0.144061 0.828834 0.206776 109 233 154
-0.124592 -0.156086 -0.620066 112 108 48
0.112419 -0.913372 0.508418 142 11 192
0.639037 0.340899 0.0448722 209 171 133
-0.0883835 0.931032 0.54571 116 246 197
-0.594927 -0.816992 0.478664 52 23 189
0.0821778 -0.0697698 0.488293 138 119 190
-0.122413 0.460988 -0.618328 112 186 49
0.632699 0.342463 -0.36748 208 171 81
0.426635 -0.997029 -0.259121 182 0 94
-0.592573 0.128749 -0.41048 52 144 75
0.128717 0.275101 0.287761 144 163 164
-0.273868 -0.292743 -0.623125 93 90 48
0.133706 -0.999686 0.770448 145 0 226
0.644194 -0.94065 0.79563 210 8 229
-0.234957 -0.047471 -0.622249 98 121 48
-0.72326 0.214215 0.550195 35 155 198
0.448091 0.350478 0.5767 185 172 201
-0.70627 0.237181 -0.599011 37 158 51
0.428891 -0.997087 -0.391172 182 0 78
0.516522 -0.996176 0.16012 193 0 148
0.0537414 0.355196 0.230747 134 173 157
0.183242 -0.877167 0.437599 151 16 183
-0.29498 -0.910458 0.461266 90 11 186
0.595872 -0.258316 0.261201 203 95 161
-0.0516156 0.44677 0.336332 121 184 170
0.294198 0.227016 -0.608619 165 156 50
0.372427 -0.275054 0.526884 175 92 195
0.6166 0.183354 0.304325 206 151 166
0.134646 0.826907 0.545909 145 233 197
0.533306 -0.770651 0.356531 195 29 173
-0.353351 -0.99872 0.328798 82 0 169
0.0315242 -0.999672 -0.474939 132 0 67
0.13203 0.0138325 0.356531 144 129 173
0.594944 0.0134262 0.215395 203 129 155
0.617804 -0.307307 -0.132383 206 88 111
0.587792 -0.750237 0.487258 202 32 190
-0.62084 0.373995 -0.0119542 48 175 126
-0.596566 -0.60478 -0.121271 51 50 112
-0.0329086 -0.912378 0.767106 123 11 225
-0.0720004 -0.99954 0.42928 118 0 182
-0.0167501 0.994251 0.564186 125 254 199
-0.280337 0.486674 -0.622005 92 190 48
0.178715 0.52942 -0.610624 150 195 50
-0.0861101 -0.804638 0.333598 117 25 170
0.599089 -0.67899 -0.299041 204 41 89
-0.562769 -0.0107278 0.373741 56 126 175
-0.584601 -0.910685 -0.717666 53 11 36
-0.356112 -0.752668 -0.624264 82 32 48
-0.151315 -0.665073 0.47234 108 43 188
-0.597128 -0.690999 -0.567249 51 39 55
-0.596086 -0.748179 0.251567 51 32 160
-0.731965 -0.909845 -0.233238 34 11 98
-0.49026 0.493075 -0.526914 65 190 60
-0.300224 0.496383 0.372321 89 191 175
0.599678 -0.591023 -0.482588 204 52 66
0.281094 -0.422414 -0.608589 163 74 50
-0.659833 0.136067 -0.640601 43 145 46
-0.685796 0.256921 -0.733065 40 160 34
0.683424 -0.907639 0.357985 215 12 173
-0.344536 0.00721577 -0.624542 84 128 48
0.612049 0.186872 0.468975 206 151 187
0.599232 -0.862989 -0.100952 204 17 115
0.0454979 0.841966 0.652219 133 235 211
-0.615389 -0.995995 0.382699 49 1 176
0.688219 0.254426 -0.412106 215 160 75
-0.167675 0.813021 -0.730468 106 231 34
0.374099 -0.891199 0.487302 175 14 190
-0.716776 0.223612 0.243577 36 156 159
-0.769643 -0.936315 0.582543 29 8 202
-0.381223 -0.0610834 -0.625255 79 120 48
0.612771 -0.924689 0.795698 206 10 229
0.280916 0.0556635 -0.609376 163 135 50
-0.254046 -0.261089 0.490278 95 94 190
0.101665 -0.675201 -0.615988 140 41 49
-0.660178 0.281135 -0.140937 43 163 110
0.390988 0.459382 0.651724 177 186 211
-0.613083 -0.261539 -0.144337 49 94 109
0.0156317 -0.190795 -0.616611 129 103 49
-0.183806 0.801318 -0.551383 104 230 57
0.405036 0.556791 -0.622427 179 198 48
-0.167974 -0.160651 0.543126 106 107 197
-0.45243 -0.426905 -0.6262 70 73 48
0.334809 0.462805 0.385167 170 187 177
0.183238 -0.839884 0.535092 151 20 196
0.336192 -0.299552 0.554133 170 89 198
-0.0573207 0.9658 -0.386461 120 251 78
-0.0620238 0.737436 -0.675817 120 222 41
0.121202 -0.911544 0.343883 143 11 171
0.526459 -0.840129 0.415987 195 20 181
0.445915 0.529794 0.530531 184 195 195
0.00387693 0.447588 -0.615322 128 185 49
-0.596431 -0.52427 -0.139935 51 61 110
-0.00258232 0.659029 -0.614649 127 212 49
0.108162 -0.194241 0.350819 141 103 172
0.196688 -0.998902 -0.541904 153 0 58
-0.427707 0.0670377 0.305286 73 136 166
0.270743 0.633913 0.634784 162 208 208
-0.309353 -0.0878 -0.623892 88 116 48
0.56996 -0.302152 0.56315 200 89 199
0.340855 0.527765 -0.792755 171 195 26
0.156781 -0.999211 0.555126 147 0 198
-0.597095 0.0717437 0.187797 51 137 151
-0.423694 -0.282712 0.508153 73 91 192
-0.110536 -0.265472 0.499504 113 94 191
-0.141256 0.237142 -0.619481 109 158 49
-0.628874 0.311306 0.194905 47 167 152
0.465735 0.512913 0.559855 187 193 199
-0.767425 -0.964059 -0.129064 30 5 111
-0.229117 0.567663 0.476071 98 200 188
-0.279338 0.519869 -0.739911 92 194 33
0.135041 0.826513 -0.426747 145 233 73
0.482197 0.473479 0.322566 189 188 169
0.420674 0.227192 -0.604902 181 156 50
0.617806 -0.460894 -0.0958064 206 69 115
-0.229399 0.416016 0.332096 98 181 170
0.765503 -0.939382 0.456797 225 8 186
0.661038 0.279433 -0.687974 212 163 40
0.243362 0.707859 0.528835 159 218 195
-0.59769 -0.296194 0.0112297 51 90 129
0.634337 0.165173 0.433604 208 149 183
-0.596766 -0.634481 -0.360973 51 47 81
0.709216 0.169379 -0.472575 218 149 67
-0.244706 -0.783786 0.463654 96 28 187
-0.693903 0.146457 -0.0252771 39 146 124
0.600172 -0.699775 -0.502018 204 38 63
0.325302 -0.998328 -0.415814 169 0 74
-0.495942 -0.998319 -0.580348 64 0 54
-0.454329 0.523954 -0.47833 70 194 67
0.200811 0.756077 -0.149549 153 224 108
0.103313 -0.109445 0.515822 141 114 193
0.247318 0.698936 0.247815 159 217 159
-0.546807 0.421267 -0.785248 58 181 27
0.221162 0.70317 0.131146 156 217 144
-0.454082 -0.818844 0.496435 70 23 191
-0.554174 -0.269691 0.386435 57 93 177
-0.598362 -0.107314 0.183536 51 114 151
-0.0158052 0.996442 -0.541348 125 255 58
-0.505879 -0.998442 -0.252056 63 0 95
0.596689 -0.136838 -0.20879 204 110 101
0.311888 -0.998326 0.0555283 167 0 135
-0.268768 -0.129054 -0.623067 93 111 48
0.628254 -0.908804 0.434816 208 12 183
0.580117 -0.734487 0.394857 201 34 178
-0.0796761 0.381717 -0.617845 117 176 49
-0.0524583 0.971988 -0.2596 121 251 94
0.764713 -0.967498 0.595262 225 4 203
0.596089 -0.188834 0.128447 204 103 144
0.595874 -0.040401 -0.0841717 203 122 117
0.131541 0.55981 0.3189 144 199 168
0.595523 -0.163037 0.259711 203 107 161
0.452665 -0.409207 0.345026 185 75 171
-0.231154 -0.999129 0.366449 98 0 174
0.298842 -0.998281 -0.123667 166 0 112
0.164529 -0.912603 -0.692784 148 11 39
0.536124 -0.996071 -0.63323 196 1 47
0.444397 0.0328946 0.328139 184 132 169
0.265592 0.532785 0.541781 161 195 197
-0.318809 0.662887 0.354973 87 212 173
-0.343313 0.61108 0.377392 84 205 176
-0.624035 0.315771 0.322859 48 168 169
-0.322775 -0.079231 0.489545 86 117 190
-0.597354 -0.738394 -0.371018 51 33 80
0.581174 -0.994694 -0.472861 202 1 67
0.639275 0.302883 0.177421 209 166 150
0.0302985 0.221992 0.215231 131 156 155
-0.580536 0.400975 -0.122319 53 179 112
-0.636154 -0.995948 0.189879 46 1 152
0.109067 0.687883 0.621125 141 215 207
0.599205 -0.436171 -0.520051 204 72 61
0.457385 -0.997391 0.449815 186 0 185
-0.616957 -0.452836 -0.0671868 49 70 119
0.59834 -0.293396 -0.406094 204 90 76
0.545715 0.423494 0.472876 197 181 188
0.63582 0.32823 0.384547 209 169 177
0.0482423 0.944345 0.109041 134 248 141
0.244339 -0.891486 -0.590461 159 14 52
-0.533007 -0.78935 0.338344 60 27 171
-0.632518 -0.996961 -0.633113 47 0 47
0.465517 -0.996597 -0.0578466 187 0 120
-0.741571 0.195721 -0.535502 33 152 59
0.138206 0.825073 0.215237 145 233 155
0.243212 -0.847518 0.520556 159 19 194
0.489902 -0.735619 0.451126 190 34 185
0.238638 -0.998801 -0.215549 158 0 100
-0.0430059 -0.553695 0.333429 122 57 170
-0.595416 -0.528764 0.460961 52 60 186
0.770415 -0.951734 -0.345183 226 6 83
0.209555 -0.99882 0.185314 154 0 151
0.380756 -0.748552 0.474686 176 32 188
0.550833 -0.0805276 0.520864 198 117 194
-0.312102 0.484481 0.542591 88 189 197
-0.0146669 0.784027 -0.668839 126 227 42
0.652495 -0.908227 -0.344667 211 12 84
0.482709 -0.845365 0.49462 189 20 191
-0.167755 0.629092 0.336212 106 208 170
-0.593468 0.0534232 -0.336418 52 134 85
-0.468768 -0.606303 -0.62619 68 50 48
0.380957 -0.923672 0.793884 176 10 229
0.765673 -0.937936 0.423279 225 8 181
-0.551431 0.245616 -0.661394 57 159 43
0.599492 -0.681121 -0.400901 204 41 76
-0.708972 0.234401 -0.699204 37 157 38
0.598082 -0.482082 -0.577105 204 66 54
-0.597594 -0.0970382 0.137647 51 115 145
0.0133555 -0.792479 -0.654571 129 26 44
-0.217709 -0.543296 -0.625616 100 58 48
-0.0382578 -0.999632 -0.177783 123 0 105
-0.0607743 -0.683629 0.333784 120 40 170
0.421904 -0.854321 -0.602901 181 19 51
0.303282 -0.912539 0.46607 166 11 187
-0.532671 -0.995889 0.614969 60 1 206
0.101348 0.864913 0.0480945 140 238 134
0.144614 -0.739872 0.501206 146 33 191
-0.229869 0.768227 0.552863 98 225 198
0.532408 -0.180683 -0.601748 195 104 51
-0.0359653 0.98885 -0.6924 123 254 39
0.41097 -0.947176 -0.737254 180 7 34
-0.487538 0.464952 0.272345 65 187 162
0.76845 -0.923412 -0.12967 225 10 111
-0.219991 0.739356 -0.147061 99 222 109
-0.595695 -0.155438 -0.516479 52 108 62
-0.666614 -0.907911 0.391004 43 12 177
-0.3859 0.575958 -0.0734282 78 201 118
-0.482236 0.504939 0.390126 66 192 177
-0.175827 -0.854583 0.330169 105 19 170
0.597541 -0.664269 0.248731 204 43 159
0.598276 -0.286565 -0.16828 204 91 106
0.326185 -0.998262 0.170855 169 0 149
0.464975 -0.997063 0.191321 187 0 152
-0.596232 -0.512345 0.252537 51 62 160
-0.660584 -0.910167 -0.711174 43 11 37
-0.518091 0.443951 -0.575833 61 184 54
-0.204449 -0.364453 -0.622037 101 81 48
-0.342834 -0.999279 -0.17594 84 0 105
0.598121 -0.715244 -0.552883 204 36 57
0.260898 -0.998691 0.397862 161 0 178
0.674402 0.270795 0.392033 213 162 177
0.366245 0.552393 -0.331232 174 198 85
-0.641267 -0.909958 0.124991 46 11 143
-0.43179 -0.6632 -0.625503 72 43 48
-0.436298 0.540198 -0.749373 72 196 32
-0.497101 -0.884071 -0.627165 64 15 48
-0.316274 0.0905759 -0.623637 87 139 48
0.59795 -0.214396 -0.37267 204 100 80
-0.441015 0.535039 -0.513606 71 196 62
-0.593986 -0.0879495 -0.255366 52 116 95
0.629297 0.174002 0.0676776 208 150 136
0.0302651 -0.202886 0.436529 131 102 183
-0.691528 0.147188 0.631942 39 146 208
-0.7684 -0.962702 0.269728 30 5 162
-0.594797 -0.00621588 -0.117965 52 127 112
-0.30129 0.428148 -0.622506 89 182 48
0.598574 -0.378491 -0.191983 204 79 103
-0.367986 -0.91248 0.37548 81 11 175
-0.594682 -0.0888094 -0.465429 52 116 68
-0.59723 -0.142546 0.0756923 51 109 137
0.192832 0.0975145 0.319923 152 140 168
0.495239 -0.275615 0.636952 191 92 209
0.014925 -0.261821 0.500788 129 94 191
-0.596066 -0.286547 -0.419059 52 91 74
0.556552 -0.594389 0.528385 198 52 195
0.300287 0.670541 -0.675612 166 213 41
-0.622134 0.319883 -0.54563 48 168 58
0.527365 -0.295061 0.327088 195 90 169
-0.597015 -0.535164 -0.0074458 51 59 127
-0.598186 0.388431 -0.162872 51 177 107
0.428181 -0.368197 -0.604626 182 81 50
-0.529877 0.267275 -0.679377 60 162 41
-0.7002 0.150098 -0.554378 38 147 57
-0.436896 -0.570546 -0.625808 72 55 48
-0.539783 -0.909475 0.620594 59 12 207
-0.371812 0.587714 -0.651339 80 202 44
-0.379917 -0.998622 0.288791 79 0 164
0.497424 -0.428265 0.332753 191 73 170
-0.0420456 0.755158 0.497349 122 224 191
0.125086 0.515865 -0.611829 143 193 49
0.30241 0.49275 -0.786169 166 190 27
-0.204079 0.618203 -0.790346 101 206 27
-0.674772 0.131823 0.275471 41 144 163
0.648897 0.294301 0.480661 210 165 189
-0.497505 0.297955 0.511668 64 165 193
-0.559668 0.235221 0.462839 56 157 187
0.103607 0.665153 -0.612012 141 212 49
-0.69813 0.241143 0.29212 38 158 165
-0.550924 -0.996486 0.498475 57 0 191
-0.611647 0.183089 0.390613 50 151 177
0.305379 -0.998456 0.387184 166 0 177
0.222251 0.702619 -0.0492644 156 217 121
-0.0739425 -0.180386 0.405007 118 105 179
-0.59396 -0.24094 0.409381 52 97 180
-0.221372 0.191848 -0.621378 99 152 48
-0.741999 -0.906021 0.666943 33 12 213
0.208395 -0.322315 0.582848 154 86 202
0.268146 -0.998516 -0.204817 162 0 101
-0.316249 0.666096 0.543731 87 212 197
0.0130392 -0.999529 0.761904 129 0 225
-0.758095 -0.99299 0.369354 31 1 175
-0.653428 -0.996891 -0.362627 44 0 81
0.637215 0.305703 0.615142 209 166 206
0.414493 -0.213873 -0.605354 180 100 50
0.642784 0.340244 0.294524 209 171 165
-0.449865 -0.124476 0.327156 70 112 169
-0.49986 0.295467 0.484651 64 165 189
0.702907 0.244604 0.19683 217 159 153
0.418279 0.548793 0.446614 181 197 184
-0.553884 0.416298 -0.605407 57 181 50
-0.334325 -0.999454 -0.39208 85 0 78
-0.121382 -0.999685 -0.607073 112 0 50
0.327197 0.172533 -0.607709 169 149 50
0.695789 0.153569 0.0252595 216 147 131
-0.511027 -0.980144 0.78858 62 3 228
-0.541458 -0.633966 0.300489 58 47 166
-0.0520761 0.973065 0.456518 121 252 186
-0.724301 -0.995481 -0.688901 35 1 40
0.468331 -0.911423 0.545232 187 11 197
-0.494343 -0.730461 0.301619 64 34 166
-0.154796 -0.999304 0.408064 108 0 180
0.371194 0.580814 -0.73745 175 202 33
0.598428 -0.871793 0.131443 204 16 144
0.594813 0.0450114 0.21762 203 133 155
0.203268 0.770973 -0.742668 153 226 33
0.52031 0.443288 0.51566 194 184 193
0.0701836 -0.999679 -0.310191 136 0 88
-0.0232721 0.362535 0.20682 125 174 154
-0.201611 -0.999134 0.386428 102 0 177
-0.737556 0.196624 -0.295143 33 153 90
-0.764221 -0.989676 -0.250546 30 1 96
-0.725637 0.214728 -0.481894 35 155 66
0.499438 -0.888835 -0.601319 191 14 51
0.403385 0.517919 -0.0210596 179 194 125
0.455736 -0.996781 -0.305893 186 0 88
0.350304 -0.281599 -0.607104 172 92 50
0.102653 0.866205 -0.1967 141 238 102
-0.157429 0.64193 -0.660751 107 209 43
0.134467 0.657655 -0.664159 145 211 43
-0.59907 -0.139387 0.223763 51 110 156
-0.594302 -0.0116831 -0.354296 52 126 82
0.385717 0.272453 -0.605957 177 162 50
-0.421492 -0.998307 0.433593 74 0 183
-0.391101 0.40699 -0.648393 78 179 45
-0.103459 -0.059454 0.466194 114 120 187
-0.575865 0.378576 -0.790574 54 176 27
0.371508 0.573252 -0.368499 175 201 81
0.466672 -0.737469 0.52128 187 33 194
0.585715 -0.994786 -0.24134 202 1 97
0.598856 -0.652941 -0.171297 204 44 106
-0.592229 -0.738267 0.293901 52 33 165
-0.286734 -0.998937 0.142468 91 0 146
0.58139 -0.995474 0.361864 202 1 174
-0.0148535 -0.145675 -0.617579 126 109 49
-0.0672223 0.491258 0.330623 119 190 170
0.672383 0.272623 0.492245 213 162 190
-0.324981 0.471693 0.495847 86 188 191
-0.00546869 -0.999672 -0.1869 127 0 104
-0.624848 0.34603 0.469761 48 172 187
0.270126 0.527548 0.45228 162 195 185
-0.593207 0.123794 -0.526324 52 143 60
-0.395064 -0.878405 -0.625369 77 16 48
0.647619 -0.907646 0.750777 210 12 223
-0.38698 0.448454 -0.790264 78 185 27
0.463726 -0.190971 0.598811 187 103 204
0.555526 0.243422 0.386349 198 159 177
-0.162523 -0.998855 0.597258 107 0 204
-0.439274 -0.910246 0.673376 71 11 213
0.0110536 -0.913534 0.360658 129 11 173
0.158573 -0.913255 0.728976 148 11 220
0.200038 -0.370817 -0.61107 153 80 50
0.623984 -0.994451 -0.609887 207 1 50
0.0962116 0.904588 -0.275086 140 243 92
-0.00763202 -0.91344 0.740884 127 11 222
0.769187 -0.945209 -0.146341 226 7 109
0.768969 -0.98394 -0.393362 226 2 77
0.385865 0.496746 -0.79162 177 191 27
0.549384 0.245741 -0.757639 198 159 31
-0.736092 0.194416 0.0920493 34 152 139
-0.485318 0.310086 0.569288 66 167 200
0.0690199 -0.558545 -0.616065 136 56 49
-0.486672 -0.909701 0.711482 65 12 218
-0.281581 -0.32328 0.322224 92 86 169
0.596759 -0.4844 0.217545 204 66 155
0.061539 0.7339 0.429448 135 221 182
0.698007 0.152772 0.623564 216 147 207
0.0413761 0.26925 0.205682 133 162 154
-0.478401 -0.996715 0.615093 67 0 206
0.647713 0.152385 0.276821 210 147 163
-0.468947 -0.442589 0.32283 68 71 169
0.0380385 0.953495 -0.27218 132 249 93
-0.617836 0.376507 0.0511994 49 176 134
0.201276 0.740185 0.636091 153 222 209
0.59481 0.131015 0.181012 203 144 151
-0.517412 -0.997589 0.196833 62 0 153
-0.072044 0.949087 -0.337671 118 249 84
-0.671876 0.269572 -0.0886377 42 162 116
0.217157 -0.193255 0.429077 155 103 182
-0.595296 0.0953004 0.0769515 52 140 137
0.763902 -0.965512 0.760448 225 4 224
0.675054 -0.907612 -0.473362 214 12 67
0.413133 -0.997295 -0.475061 180 0 67
-0.556913 -0.997859 -0.260535 56 0 94
0.59827 -0.851348 -0.548511 204 19 58
-0.0733221 -0.514496 -0.620716 118 62 48
-0.596409 -0.571454 -0.161623 51 55 107
0.199255 0.758325 -0.230649 153 224 98
0.304099 -0.591731 0.336761 166 52 170
0.548503 -0.995584 -0.3308 197 1 85
-0.492665 0.461965 -0.059424 65 186 120
0.499482 -0.488478 0.328032 191 65 169
0.282342 0.104659 -0.609276 163 141 50
0.0972566 0.857575 0.216427 140 237 155
-0.349906 -0.860028 0.305345 83 18 166
0.445396 0.0243117 -0.6044 184 131 50
-0.0936363 0.925404 0.335102 116 245 170
-0.731375 0.182772 -0.150105 34 151 108
0.27054 -0.792217 -0.606311 162 26 50
-0.564063 -0.155406 -0.627845 56 108 47
-0.446943 0.531915 -0.70775 71 195 37
0.580396 0.398923 -0.337938 202 178 84
-0.515153 -0.668279 -0.626938 62 42 48
-0.287254 -0.91142 0.371647 91 11 175
0.263704 -0.976758 0.792922 161 3 229
0.408285 0.508664 -0.152091 180 192 108
-0.335105 0.647094 -0.413894 85 210 75
0.743725 -0.906305 -0.655673 222 12 44
-0.596968 -0.420974 -0.194556 51 74 103
0.458926 0.485737 0.646533 186 189 210
-0.428824 -0.275477 -0.626045 73 92 48
-0.606067 -0.996414 0.161081 50 0 148
0.687756 0.147443 -0.594214 215 146 52
-0.616119 -0.477887 -0.234256 49 67 98
-0.44076 -0.912047 0.438528 71 11 183
-0.597272 -0.690811 0.00151286 51 39 128
0.00034261 0.98474 -0.200988 128 253 102
0.0531105 0.166381 0.275208 134 149 163
0.573924 0.221674 -0.714604 201 156 36
0.246145 0.701181 0.298855 159 217 166
0.00222744 -0.0642597 -0.617214 128 119 49
-0.598454 -0.438129 0.137095 51 72 145
0.335315 -0.363609 0.323023 170 81 169
-0.374229 0.585253 0.307587 80 202 167
-0.154009 -0.222044 0.34787 108 99 172
0.510165 -0.406568 0.520497 193 76 194
-0.0327456 -0.371408 0.334442 123 80 170
0.333737 -0.911938 0.699612 170 11 217
-0.331412 0.465155 0.466884 85 187 187
0.752648 -0.958846 0.79571 223 5 229
-0.638734 -0.92449 0.788432 46 10 228
-0.384331 0.0320419 -0.62522 78 132 48
0.686646 0.14114 0.469306 215 145 187
0.595565 -0.189576 0.248138 203 103 159
-0.375534 0.420887 0.392051 80 181 177
0.541501 -0.995364 -0.171461 197 1 106
-0.294015 0.00461877 -0.623393 90 128 48
0.598161 -0.798153 -0.57441 204 26 54
-0.554927 -0.994461 0.768402 57 1 225
0.203188 -0.999061 0.0184374 153 0 130
0.0174105 0.970577 -0.347277 130 251 83
0.203986 0.758438 0.524987 154 224 194
0.454152 -0.159475 0.561655 185 107 199
-0.584885 0.396743 -0.430802 53 178 73
0.0222667 0.589527 -0.614192 130 203 49
0.312214 0.432837 0.32321 167 183 169
-0.468503 -0.719866 0.478456 68 36 189
0.437034 -0.749799 0.324666 183 32 169
-0.589168 -0.996898 0.00439731 52 0 128
-0.0405491 0.495582 0.337011 122 191 170
-0.0153421 -0.140896 0.525608 126 110 195
-0.313384 -0.78803 -0.623254 88 27 48
-0.624814 0.315937 -0.124555 48 168 112
0.71942 0.179539 -0.573956 219 150 54
-0.488303 0.495904 -0.330481 65 191 85
-0.0975531 0.920902 -0.0545274 115 245 121
0.208418 -0.352754 0.319049 154 83 168
-0.615493 -0.363839 -0.280938 49 81 92
-0.594002 0.0432959 -0.460137 52 133 69
-0.588777 -0.671896 0.296934 52 42 165
0.597682 -0.226803 -0.32281 204 99 86
-0.0934331 0.0821546 -0.618793 116 138 49
0.12674 0.137213 0.338722 144 145 171
0.23209 0.682874 -0.115462 157 215 113
0.598088 -0.799509 0.160291 204 26 148
-0.0742329 0.191244 0.248909 118 152 159
0.211205 -0.998897 0.402958 154 0 179
-0.0615981 0.962253 -0.0253798 120 250 124
0.145401 -0.850395 0.519086 146 19 194
-0.267806 0.701891 -0.560312 93 217 56
-0.596876 -0.611123 0.114969 51 50 142
0.569895 0.406065 -0.116858 200 179 113
-0.0498443 0.749175 -0.698166 121 223 38
-0.235761 -0.835567 0.537031 97 21 196
-0.502739 0.454351 -0.76738 63 185 30
-0.654593 0.13917 0.465829 44 145 187
0.597618 0.051949 -0.531376 204 134 60
-0.601691 -0.0974149 0.378461 51 115 176
-0.596184 -0.322984 -0.39313 51 86 77
0.727107 -0.992755 -0.255354 220 1 95
-0.765296 -0.914245 0.184003 30 11 151
0.694077 -0.9069 0.763849 216 12 225
-0.237308 -0.352188 -0.622592 97 83 48
-0.276664 -0.998144 0.701643 92 0 217
-0.535551 0.432743 0.0229469 59 183 130
0.538521 -0.996202 0.389575 196 0 177
-0.597639 -0.359633 -0.111444 51 82 113
0.597293 -0.518741 0.132214 204 61 144
-0.204914 0.784138 0.084328 101 227 138
0.488302 -0.250734 0.459798 190 96 186
0.208233 0.589592 0.521169 154 203 194
-0.596175 -0.470416 -0.543878 51 68 58
-0.470803 0.513284 -0.566383 67 193 55
0.729992 0.216953 -0.402481 221 155 76
0.335282 -0.194573 -0.607593 170 103 50
0.506326 0.453402 0.623912 192 185 207
-0.747044 -0.99592 -0.54278 32 1 58
0.571023 0.406076 0.00784994 200 179 129
0.226191 0.129616 0.341354 156 144 171
-0.0233835 -0.985712 -0.739825 125 2 33
0.6874 0.254898 -0.622012 215 160 48
-0.637513 0.158468 0.0796407 46 148 138
0.597775 0.0314703 -0.578912 204 132 54
0.411085 -0.908633 0.52109 180 12 194
-0.0153734 0.994789 0.429851 126 254 182
0.735997 -0.992022 -0.0848743 221 1 117
0.623627 -0.994743 0.461469 207 1 186
0.287934 -0.215733 0.32155 164 100 168
-0.128604 0.583019 0.312824 111 202 167
0.264795 0.69352 0.62717 161 216 207
-0.217416 -0.601097 -0.626011 100 51 48
-0.0275539 -0.999293 0.683073 124 0 215
-0.34063 -0.229683 -0.624522 84 98 48
0.65449 -0.907682 0.775132 211 12 226
0.479741 0.470072 0.0196014 189 187 130
-0.651791 0.28623 0.606147 44 164 205
0.169106 -0.00110539 0.384631 149 127 177
-0.165745 -0.999597 -0.627479 106 0 47
0.285 0.620282 0.0278082 164 207 131
0.688784 0.145469 0.181213 215 146 151
-0.596872 -0.697493 0.268224 51 39 162
-0.372299 -0.999325 -0.355352 80 0 82
0.323875 -0.750369 0.523581 169 32 194
0.314346 0.478605 -0.734761 168 189 34
-0.228664 -0.999584 -0.172844 98 0 105
0.376574 -0.120499 0.350011 176 112 172
-0.134621 0.859731 -0.198799 110 237 102
-0.593083 -0.305767 0.478909 52 89 189
0.205828 -0.268619 0.640923 154 93 209
0.0503448 0.942074 0.27324 134 248 162
-0.597701 0.192963 -0.573915 51 152 54
0.00471807 -0.999225 0.638187 128 0 209
0.426797 0.371503 0.527094 182 175 195
-0.427786 -0.434971 -0.625838 73 72 48
-0.376054 0.582808 -0.309561 80 202 88
