ply
format ascii 1.0
comment Created by Open3D
element vertex 1215
property double x
property double y
property double z
property uchar red
property uchar green
property uchar blue
end_header
-0.0285522 0.997759 0.533102 124 255 195
-0.429421 -0.85024 0.500552 73 19 191
0.239991 -0.248053 0.654015 158 96 211
0.239991 -0.907204 0.435904 158 12 183
0.0365491 0.0367651 0.31579 132 132 168
-0.671428 0.130032 -0.126048 42 144 111
0.62862 0.321583 0.468001 208 169 187
0.642769 0.354134 0.101806 209 173 140
0.58991 0.345996 -0.792423 203 172 26
0.642013 0.354134 0.0367047 209 173 132
0.402744 -0.101636 0.329661 179 115 170
0.394606 -0.907204 0.520009 178 12 194
0.598048 -0.153167 -0.142324 204 108 109
-0.00413924 0.793504 0.565653 127 229 200
-0.533087 -0.174814 0.381171 60 105 176
-0.760942 -0.908727 0.516827 30 12 193
-0.240131 -0.500321 0.327701 97 64 169
0.149158 -0.866516 0.329661 147 17 170
0.196794 0.75288 -0.57362 153 223 54
0.535593 -0.736313 0.370349 196 34 175
0.635247 0.354134 -0.516656 208 173 62
0.484266 0.468061 0.378487 189 187 176
0.233936 0.687778 -0.0772225 157 215 118
-0.0204145 0.998639 0.345936 125 255 172
0.500396 -0.695625 0.531461 191 39 195
0.500396 0.0320404 0.337798 191 132 171
0.598048 0.204968 0.0367047 204 154 132
-0.0773782 0.614539 0.313856 118 206 168
0.531948 -0.760726 0.427313 195 31 182
-0.313371 -0.248053 0.636603 88 96 209
-0.500537 0.0286275 0.303167 64 131 166
0.524809 -0.988581 -0.734539 194 1 34
0.598048 0.195966 -0.288802 204 152 91
-0.0529652 -0.248053 0.645507 121 96 210
-0.00413924 -0.378256 -0.620891 127 79 48
0.598365 -0.256191 -0.215563 204 95 100
-0.431804 -0.907204 0.492414 72 12 190
-0.191305 -0.7119 0.329156 103 37 169
-0.233315 0.761017 0.622617 98 225 207
-0.0611029 -0.36198 0.313273 120 81 167
-0.199694 -0.81769 0.313385 102 23 167
-0.467986 -0.256191 0.631553 68 95 208
-0.734351 0.199518 0.614479 34 153 206
-0.671428 0.130555 0.215733 42 144 155
-0.101791 -0.256191 0.337491 115 95 171
0.248128 -0.565422 -0.599809 159 55 51
0.615822 0.329721 -0.622446 206 170 48
0.322135 0.622677 -0.451555 169 207 70
0.477464 0.500612 -0.402729 188 191 76
-0.764007 -0.915342 -0.598033 30 11 51
-0.198827 -0.305017 0.321523 102 89 168
-0.0204145 0.999476 -0.158599 125 255 107
0.305092 -0.541009 0.322721 166 59 169
-0.349171 0.630815 -0.532932 83 208 60
0.760801 -0.907938 -0.0202588 225 12 125
0.112532 0.883082 -0.199287 142 240 102
0.096513 0.858669 -0.158599 140 237 107
-0.671428 0.130758 0.630754 42 144 208
0.472306 0.500612 -0.752649 188 191 32
0.598048 -0.153615 -0.126048 204 108 111
0.34578 -0.109713 0.323557 172 114 169
-0.191305 -0.744451 0.329043 103 33 169
0.112347 0.883082 0.370349 142 240 175
-0.606326 -0.353843 -0.295432 50 82 90
0.386469 -0.910809 -0.606171 177 11 50
-0.272682 0.0277473 0.321523 93 131 168
0.671287 0.134985 0.256422 213 145 160
0.203886 0.769155 -0.71196 153 226 37
-0.490384 0.492474 -0.760786 65 190 30
0.728251 -0.915342 -0.734255 220 11 34
-0.125425 0.850532 -0.0446718 112 236 122
0.598048 -0.907416 0.207596 204 12 154
0.296954 -0.912483 0.484276 165 11 189
-0.0855159 -0.907204 0.333291 117 12 170
-0.598189 -0.145289 -0.0690848 51 109 119
0.760801 -0.909003 0.0367047 225 12 132
-0.0692405 0.476199 0.335972 119 188 170
0.449451 -0.46777 0.329661 185 68 170
0.296954 0.0307381 0.329661 165 131 170
0.112486 0.883082 0.29711 142 240 165
-0.248269 -0.101575 0.512474 96 115 193
-0.591683 0.191381 -0.0446718 52 152 122
-0.590051 -0.337567 0.483752 52 84 189
0.768483 -0.988581 -0.622446 225 1 48
-0.338043 0.614539 -0.622446 84 206 48
0.34578 -0.11785 0.515943 172 112 193
0.768434 -0.980443 -0.0609472 225 2 120
-0.245979 -0.695625 0.533102 96 39 195
-0.231994 -0.345705 0.308868 98 83 167
0.112756 0.883082 0.0611177 142 240 135
0.435295 -0.915342 -0.733591 183 11 34
0.362056 0.0367651 0.324044 174 132 169
0.126063 -0.322829 0.581928 144 86 202
-0.734334 0.191381 0.533102 34 152 195
0.196249 0.744742 -0.630584 153 222 47
0.239991 0.232069 0.341809 158 157 171
0.760801 -0.907554 -0.524794 225 12 61
-0.198321 -0.720038 0.321523 102 36 168
-0.215718 -0.248053 0.640089 100 96 209
0.459708 -0.532871 0.344823 186 60 171
-0.671428 0.129402 -0.508519 42 144 63
-0.126543 0.850532 -0.752649 111 236 32
-0.489909 0.492474 -0.386454 65 190 78
-0.48329 0.468061 -0.207425 66 187 101
-0.0855159 -0.125988 0.50647 117 111 192
0.337643 -0.532871 0.323259 171 60 169
-0.573776 -0.890929 0.401073 54 14 179
0.288847 -0.907204 0.492414 164 12 190
0.386469 0.5413 0.221768 177 197 156
-0.590051 -0.842103 0.295777 52 20 165
-0.131233 -0.370118 0.313385 111 80 167
0.337643 -0.728175 0.522446 171 35 194
0.618075 0.321583 -0.0365341 206 169 123
0.117926 -0.125988 0.512996 143 111 193
0.0528245 -0.32284 0.573791 134 86 201
-0.489039 0.492474 0.264559 65 190 161
-0.329646 -0.907204 -0.623732 85 12 48
-0.228113 0.75288 -0.671272 98 223 42
-0.340547 0.614539 0.248284 84 206 159
-0.0285522 0.99563 -0.703823 124 254 38
0.111739 0.883082 0.508689 142 240 192
-0.0366898 -0.923479 0.790281 123 10 228
0.350503 0.573851 0.0611177 172 201 135
-0.378472 -0.541009 0.321085 79 59 168
-0.595131 -0.81769 0.500552 52 23 191
0.362056 0.542189 -0.280664 174 197 92
-0.760942 -0.972305 -0.74048 30 4 33
-0.199037 -0.427082 0.321523 102 73 168
0.333524 0.638952 -0.410867 170 209 75
0.296954 -0.541009 0.322394 165 59 169
0.588146 -0.728175 0.524965 202 35 194
0.760801 -0.90761 -0.459693 225 12 69
-0.63376 0.362272 0.166907 47 174 149
0.614323 -0.909479 -0.728236 206 12 35
0.473249 0.500612 -0.695685 188 191 39
0.64403 0.354134 0.232009 210 173 157
0.598048 0.201576 0.232009 204 153 157
0.617257 -0.264328 -0.0121211 206 94 126
0.215578 -0.907204 0.534712 155 12 196
0.472734 0.500612 -0.736373 188 191 34
-0.488557 0.492474 0.29711 65 190 165
-0.223856 -0.81769 -0.627424 99 23 48
-0.305233 -0.793277 0.508164 89 26 192
-0.451711 -0.32943 0.304961 70 85 166
-0.17503 -0.101575 0.514399 105 115 193
-0.720254 -0.988581 -0.740983 36 1 33
-0.140032 0.866807 0.4029 110 238 179
-0.0204145 0.999788 -0.126048 125 255 111
0.151577 -0.728175 0.321523 147 35 168
-0.191305 -0.459632 0.329412 103 69 169
0.638736 -0.909422 -0.728236 209 12 35
-0.305233 -0.231778 0.306902 89 98 167
0.00399847 -0.248053 0.647457 128 96 210
0.112628 0.883082 0.183183 142 240 151
-0.00413924 0.791587 0.337798 127 228 171
-0.565638 -0.256191 0.628344 55 95 208
-0.14248 -0.325187 0.573791 109 86 201
0.0966848 0.858669 -0.305077 140 237 89
0.620387 0.321583 0.223871 207 169 156
-0.459848 -0.353843 0.320754 69 82 168
-0.735579 0.199518 0.524965 34 153 194
0.296954 -0.630523 -0.607091 165 47 50
0.465847 0.484337 -0.614308 187 189 49
-0.598189 -0.280604 -0.24427 51 92 96
-0.0773782 -0.324432 0.573791 118 86 201
0.10165 0.110004 0.334893 140 142 170
-0.435435 -0.327395 0.565653 72 86 200
-0.101791 -0.907204 0.332637 115 12 170
0.00399847 -0.199227 0.351775 128 102 172
-0.63186 0.362272 0.394762 47 174 178
-0.256407 -0.913736 -0.630584 95 11 47
-0.26794 0.329721 0.313385 93 170 167
0.337643 0.0303617 0.329661 171 131 170
0.11955 0.248344 0.264559 143 159 161
-0.370334 -0.326533 0.565653 80 86 200
-0.490042 0.492474 -0.272526 65 190 93
0.619736 0.321583 0.166907 207 169 149
0.233282 -0.280604 0.321523 157 92 168
-0.598189 0.198224 0.118081 51 153 143
0.231853 -0.679349 -0.621362 157 41 48
-0.0448275 0.0367651 0.313949 122 132 168
0.57728 -0.882791 0.354074 201 15 173
-0.740725 0.199518 -0.0690848 33 153 119
-0.207581 -0.833965 0.30876 101 21 167
0.671287 0.134856 -0.280664 213 145 92
-0.199051 -0.500321 0.321523 102 64 168
-0.00413924 0.792636 0.427313 127 229 182
0.166752 0.740222 0.183183 149 222 151
-0.0204145 0.998888 -0.337628 125 255 84
0.4929 -0.654936 0.524965 190 44 194
0.492258 -0.492183 0.342751 190 65 171
-0.671428 0.130132 0.557515 42 144 199
0.0983064 0.858669 -0.71196 140 237 37
-0.17503 -0.656755 0.533102 105 44 195
-0.760942 -0.993618 -0.532932 30 1 60
-0.671428 0.129203 -0.410867 42 144 75
-0.00413924 0.793237 0.573791 127 229 201
0.22962 0.679641 -0.280664 157 214 92
-0.248505 -0.744451 0.516827 96 33 193
-0.370334 -0.0934375 0.507542 80 116 192
-0.489424 0.492474 0.240146 65 190 158
0.0772375 -0.410806 -0.617935 137 75 49
0.129979 0.289033 0.272697 144 164 162
0.598048 -0.174814 -0.271063 204 105 93
0.588033 -0.907204 0.459863 202 12 186
-0.595642 -0.199227 -0.296939 52 102 90
-0.109929 -0.125988 0.505542 113 111 192
0.619409 0.321583 0.0773932 206 169 137
-0.0285522 0.996568 0.622617 124 255 207
0.643821 0.345996 0.150632 210 172 147
0.614323 -0.455299 -0.0934978 206 69 116
-0.0122768 0.101866 0.316633 126 140 168
-0.634501 0.362272 -0.101635 47 174 115
-0.0366898 -0.11785 0.507759 123 112 192
-0.671428 0.129639 0.223871 42 144 156
-0.484261 -0.326672 0.565653 66 86 200
0.644393 0.345996 0.223871 210 172 156
0.362056 0.540536 -0.2237 174 196 99
0.203894 0.769155 -0.728236 153 226 35
0.111556 0.883082 0.451726 142 240 185
0.256266 -0.60611 -0.606982 160 50 50
0.195046 0.744742 0.443588 152 222 184
0.0446868 -0.451495 0.316398 133 70 168
-0.739826 0.199518 -0.67941 33 153 41
-0.14248 -0.46777 0.331082 109 68 170
-0.248269 -0.597973 0.308206 96 51 167
0.196228 0.744742 -0.606171 153 222 50
-0.0285522 -0.378256 -0.620794 124 79 48
-0.221276 0.736604 0.280835 99 221 163
-0.63257 0.362272 0.288972 47 174 164
0.419019 0.503109 -0.126048 181 192 111
-0.14002 0.866807 0.419175 110 238 181
-0.313371 -0.440913 0.321523 88 71 168
0.524809 -0.890929 0.328236 194 14 169
0.643353 0.354134 0.142494 210 173 146
-0.760942 -0.91211 -0.524794 30 11 61
0.598048 0.197286 -0.2237 204 153 99
-0.127536 0.850532 0.337798 111 236 171
0.410882 -0.597973 0.32646 180 51 169
0.113026 0.883082 -0.174874 142 240 105
-0.00413924 0.793832 -0.671272 127 229 42
-0.134342 -0.907204 0.331699 110 12 170
-0.231994 -0.125988 0.501425 98 111 191
-0.17503 -0.125988 0.503307 105 111 192
0.350006 0.630815 0.549378 172 208 198
0.0284115 -0.125988 0.509944 131 111 193
-0.596322 -0.541009 0.484276 51 59 189
0.73701 0.207656 -0.752649 221 154 32
-0.219079 0.736604 -0.256251 100 221 95
0.113011 0.883082 -0.142324 142 240 109
-0.481524 0.476199 -0.777062 66 188 28
0.0853751 0.03032 0.329661 138 131 170
0.238683 -0.695625 0.524965 158 39 194
0.196992 0.75288 -0.565482 153 223 55
0.00399847 -0.158539 0.314816 128 107 168
-0.349193 0.630815 -0.288802 83 208 91
0.207113 0.769155 0.288972 154 226 164
-0.118067 -0.988581 0.790108 112 1 228
0.0446868 0.029427 0.321523 133 131 168
-0.610642 0.329721 0.321523 50 170 168
-0.637317 0.354134 -0.174874 46 173 105
-0.17503 -0.911852 0.54124 105 11 197
0.435295 0.50875 -0.369459 183 192 80
0.149475 -0.524734 0.329661 147 61 170
-0.138642 0.866807 -0.630584 110 238 47
-0.48383 0.468061 -0.459693 66 187 69
0.492258 -0.427082 0.342878 190 73 171
0.117926 -0.109713 0.317823 143 114 168
-0.348321 0.638952 -0.475968 83 209 67
-0.733548 0.191381 0.622617 34 152 207
0.419019 0.501307 0.00415417 181 191 128
0.321367 -0.0934375 0.525143 168 116 194
0.483666 0.468061 0.305248 189 187 166
0.0202738 0.0367651 0.315367 130 132 168
0.532947 -0.32149 0.590066 195 87 203
-0.127203 0.842394 -0.654997 111 235 44
-0.297095 -0.248053 0.637019 90 96 209
-0.738592 0.199518 0.175045 33 153 150
-0.0529652 -0.907204 -0.599858 121 12 51
0.598602 -0.36198 -0.101635 204 81 115
-0.0204145 0.996713 0.565653 125 255 200
-0.349521 0.630815 -0.638721 83 208 46
-0.207581 -0.899066 0.308257 101 13 167
-0.125556 0.842394 0.581928 111 235 202
0.126063 -0.248053 0.650776 144 96 210
-0.741887 0.191381 -0.646859 33 152 45
0.760801 -0.907808 -0.46783 225 12 68
-0.264545 -0.994167 0.78537 94 1 228
-0.125741 0.842394 0.54124 111 235 197
-0.479396 0.476199 0.280835 66 188 163
0.196916 0.744742 -0.492243 153 222 65
-0.5575 -0.256191 0.628539 56 95 208
0.331521 0.64709 -0.484106 170 210 66
-0.268 0.272757 0.313385 93 162 167
0.206971 0.761017 0.614479 154 225 206
0.158614 -0.988581 0.792259 148 1 229
-0.735686 0.191381 0.288972 34 152 164
0.492258 -0.345705 0.343041 190 83 171
-0.350631 0.630815 0.118081 83 208 143
-0.595126 0.110004 -0.622446 52 142 48
0.484121 -0.890929 0.517244 189 14 193
0.573635 -0.321292 0.420347 201 87 181
-0.595591 -0.305017 0.476139 52 89 188
0.337643 -0.337567 0.323126 171 84 169
0.427157 0.504999 -0.0772225 182 192 118
0.337643 -0.508458 0.323288 171 63 169
0.362056 -0.321627 0.581928 174 86 202
0.378331 0.542917 0.0367047 176 197 132
0.565497 -0.90982 0.78537 200 11 228
0.768126 -0.915342 -0.296939 225 11 90
0.768364 -0.980443 0.0367047 225 2 132
-0.741457 0.191381 -0.589895 33 152 52
-0.288958 -0.256191 0.327293 91 95 169
-0.231994 -0.321292 0.308112 98 87 167
0.378331 0.542679 -0.2237 176 197 99
-0.0773782 -0.988581 -0.740368 118 1 33
-0.297095 -0.326005 0.565653 90 86 200
0.480383 0.476199 0.280835 189 188 163
-0.124197 0.842394 0.00415417 112 235 128
0.328696 0.64709 -0.622446 169 210 48
0.109788 -0.248053 0.352014 141 96 172
0.256266 0.435511 0.322331 160 183 169
0.248128 -0.899066 0.521021 159 13 194
0.134201 -0.907319 0.337798 145 12 171
-0.199443 -0.0934375 0.512489 102 116 193
0.49263 -0.874653 0.533102 190 16 195
-0.734433 0.191381 0.484276 34 152 189
-0.0122768 0.937591 -0.0690848 126 247 119
-0.492399 -0.386393 0.320801 65 78 168
0.736741 0.207656 -0.492243 221 154 65
0.760801 -0.907785 -0.199287 225 12 102
-0.671428 0.129157 -0.475968 42 144 67
-0.597762 -0.0934375 0.29711 51 116 165
0.634642 0.354134 -0.57362 208 173 54
-0.199717 -0.679349 0.313385 102 41 167
0.20509 0.769155 -0.272526 154 226 93
-0.23026 0.761017 -0.158599 98 225 107
-0.598189 -0.908231 -0.370178 51 12 80
0.196656 0.744742 -0.614308 153 222 49
0.183027 -0.907204 -0.567774 151 12 55
-0.578585 -0.866516 0.394762 54 17 178
-0.125706 0.850532 -0.557345 111 236 56
0.113469 0.883082 -0.57362 142 240 54
-0.598189 -0.437756 -0.101635 51 72 115
0.598048 -0.272466 -0.00483214 204 93 127
0.598048 -0.908505 0.288972 204 12 164
-0.231994 -0.386393 0.309894 98 78 167
-0.0529652 -0.106438 0.321523 121 114 168
0.55736 -0.720038 0.435223 199 36 183
-0.427871 -0.833965 0.459863 73 21 186
0.248128 -0.46777 -0.600276 159 68 51
-0.394747 -0.911616 0.516827 77 11 193
-0.354059 -0.248053 0.633961 82 96 208
0.524809 -0.907481 0.54124 194 12 197
-0.606326 -0.394531 -0.249166 50 77 96
0.766978 -0.915342 -0.0365341 225 11 123
-0.598189 0.198548 0.0855308 51 153 138
-0.671428 0.130531 0.386624 42 144 177
-0.197543 -0.866516 0.321523 102 17 168
0.272541 -0.703762 -0.607147 162 38 50
-0.467986 -0.101575 0.507214 68 115 192
0.337643 -0.46777 0.323361 171 68 169
0.166752 -0.0934375 0.521977 149 116 194
0.239991 0.321583 0.342465 158 169 171
0.0609621 0.0367651 0.316527 135 132 168
-0.634357 0.362272 0.183183 47 174 151
-0.350443 0.630815 0.175045 83 208 150
-0.118067 0.101866 0.312436 112 140 167
0.205077 0.769155 -0.362041 154 226 81
0.152759 0.744742 0.134357 147 222 145
0.332264 0.638952 -0.451555 170 209 70
-0.288958 -0.321292 0.308364 91 87 167
-0.598189 -0.907825 0.0367047 51 12 132
-0.467986 -0.994922 -0.736373 68 1 34
0.174208 0.736604 0.166907 150 221 149
0.760801 -0.908673 0.0611177 225 12 135
-0.467986 -0.988581 -0.742282 68 1 33
0.760801 -0.90915 0.101806 225 12 140
-0.132272 -0.500321 0.313385 111 64 167
-0.671428 0.130258 0.354074 42 144 173
0.467172 0.484337 -0.581758 187 189 53
0.598048 -0.915342 -0.734808 204 11 34
-0.232562 0.761017 0.345936 98 225 172
-0.230625 0.761017 0.118081 98 225 143
-0.671428 0.129473 -0.337628 42 144 84
-0.598189 -0.239915 -0.244104 51 97 96
0.605999 0.191381 -0.500381 205 152 64
-0.28082 -0.325622 0.565653 92 86 200
-0.671428 0.129738 0.54124 42 144 197
0.204715 0.769155 -0.57362 154 226 54
0.617436 -0.459632 -0.0772225 206 69 118
-0.17503 -0.657346 0.451726 105 44 185
0.280679 -0.923479 0.792972 163 10 229
-0.00413924 0.794092 -0.760786 127 229 30
-0.511578 0.386685 0.630754 62 177 208
0.317845 0.622677 -0.695685 168 207 39
-0.764796 -0.988581 -0.386454 30 1 78
-0.354059 -0.720911 0.492414 82 36 190
0.470297 0.484337 -0.427142 187 189 73
-0.127301 0.842394 -0.687547 111 235 40
0.112313 0.883082 0.256422 142 240 160
0.614323 -0.256191 -0.0510239 206 95 121
0.597914 -0.158539 -0.0283965 204 107 124
-0.198709 -0.638661 0.321523 102 46 168
-0.199093 -0.597973 0.321523 102 51 168
0.280679 -0.866516 0.52197 163 17 194
0.606186 -0.353843 -0.272793 205 82 93
0.6957 -0.908826 -0.728236 216 12 35
-0.516812 0.0286275 0.30276 62 131 166
0.178759 0.736604 -0.199287 150 221 102
0.645773 0.345996 0.288972 210 172 164
-0.345921 -0.907204 -0.624289 83 12 48
0.419019 0.499699 -0.101635 181 191 115
-0.125571 0.842394 0.223871 111 235 156
0.348944 0.630815 0.451726 172 208 185
0.230413 0.679641 -0.166737 157 214 106
0.00399847 0.792425 0.565653 128 229 200
-0.638247 0.354134 -0.305077 46 173 89
-0.636217 0.354134 -0.0446718 46 173 122
0.59388 -0.695625 0.321523 203 39 168
0.602807 -0.907204 -0.0365341 204 12 123
0.142339 -0.687487 0.336679 146 40 170
0.581773 -0.882791 0.539766 202 15 196
0.602167 -0.907204 -0.00398354 204 12 127
-0.565638 -0.85024 0.405421 55 19 179
0.628775 0.313446 0.443588 208 167 184
-0.740928 0.199518 -0.207425 33 153 101
0.207196 0.769155 0.451726 154 226 185
0.620463 0.321583 0.256422 207 169 160
-0.199461 -0.866516 0.313385 102 17 167
0.483373 0.476199 0.4029 189 188 179
0.193938 0.744742 0.248284 152 222 159
0.317809 0.622677 -0.752649 168 207 32
0.34578 0.0367651 0.323564 172 132 169
0.149215 -0.589835 0.329661 147 52 170
-0.248269 -0.911667 0.313385 96 11 167
0.58991 -0.565422 0.325521 203 55 169
-0.191305 -0.32943 0.329233 103 85 169
-0.200118 -0.378256 0.313385 102 79 167
0.256266 -0.11785 0.513659 160 112 193
-0.598224 -0.36198 -0.0853602 51 81 117
0.229936 0.679641 -0.215563 157 214 100
0.378331 0.544009 -0.134186 176 197 110
0.740218 0.207656 0.581928 222 154 202
0.149936 -0.752588 0.329661 147 32 170
-0.386609 -0.0934375 0.507056 78 116 192
0.644642 0.354134 0.29711 210 173 165
-0.340089 0.614539 -0.166737 84 206 106
-0.268309 0.476199 0.313385 93 188 167
0.640103 0.354134 -0.142324 209 173 109
0.239991 -0.484045 0.337496 158 66 171
-0.598189 0.198524 -0.394591 51 153 77
0.74022 0.207656 0.557515 222 154 199
-0.679565 0.130287 -0.703823 41 144 38
-0.489771 0.492474 -0.134186 65 190 110
0.475983 -0.11785 0.518705 188 112 194
0.573635 -0.264328 0.514998 201 94 193
0.0284115 0.101866 0.317566 131 140 168
-0.0122768 0.0367651 0.31471 126 132 168
-0.378472 -0.125988 0.496338 79 111 191
-0.735678 0.191381 0.378487 34 152 176
0.516671 -0.99465 -0.728236 193 1 35
0.0935128 -0.248053 0.351639 139 96 172
0.166752 -0.923479 0.792018 149 10 228
0.386469 -0.728175 0.521825 177 35 194
0.117926 0.101866 0.31893 143 140 168
0.00399847 -0.516596 0.331602 128 62 170
-0.671428 0.130096 -0.0365341 42 144 123
-0.245684 -0.809552 0.533102 96 24 195
-0.596363 -0.345705 0.476139 51 83 188
-0.313371 0.0277908 0.321523 88 131 168
0.739348 0.207656 0.00415417 222 154 128
0.0202738 -0.784036 -0.630584 130 28 47
0.234625 0.687778 -0.0121211 157 215 126
0.598048 0.201432 -0.134186 204 153 110
-0.0204145 0.998467 -0.46783 125 255 68
0.427157 0.503742 0.0285672 182 192 131
-0.740535 0.199518 -0.0609472 33 153 120
-0.598189 -0.410806 -0.297622 51 75 90
-0.230351 0.761017 -0.183012 98 225 104
-0.139107 0.866807 0.0855308 110 238 138
0.639551 0.354134 -0.199287 209 173 102
0.581773 -0.785139 0.535764 202 27 196
0.362056 0.542275 -0.0690848 174 197 119
0.617999 0.321583 -0.345765 206 169 83
0.320546 0.622677 -0.508519 168 207 63
-0.59499 0.0367651 -0.622446 52 132 48
-0.500537 -0.125988 0.491926 64 111 190
0.443432 -0.248053 0.660548 184 96 212
0.11231 0.883082 0.272697 142 240 162
-0.489701 0.492474 -0.0528095 65 190 121
0.671287 0.133454 0.598204 213 145 204
0.204609 0.769155 -0.239976 154 226 97
0.0528245 -0.255309 0.337798 134 95 171
-0.481144 0.476199 -0.2237 66 188 99
0.630599 -0.915342 -0.734038 208 11 34
0.598577 -0.443357 -0.183012 204 71 104
-0.598189 0.198992 -0.0853602 51 153 117
0.494293 0.492474 0.590066 191 190 203
-0.264545 -0.125988 0.500282 94 111 191
-0.742034 0.199518 -0.768924 33 153 29
-0.297095 -0.444171 0.313385 90 71 167
-0.0204145 1 0.00415417 125 255 128
0.419019 0.502163 -0.0528095 181 192 121
0.766585 -0.915342 -0.0121211 225 11 126
-0.638365 0.354134 -0.378316 46 173 79
-0.639322 0.354134 -0.508519 46 173 63
0.190278 -0.199227 0.329661 152 102 170
-0.581913 -0.091908 0.419175 53 116 181
0.0960093 0.858669 0.232009 140 237 157
0.248128 -0.100701 0.321523 159 115 168
-0.199107 -0.516596 0.321523 102 62 168
-0.28082 -0.484045 0.308115 92 66 167
-0.231994 -0.101575 0.512865 98 115 193
0.22958 0.679641 -0.231838 157 214 98
0.234561 0.687778 0.0448425 157 215 133
-0.218705 0.736604 -0.239976 100 221 97
-0.735147 0.191381 0.411037 34 152 180
-0.240131 -0.46777 0.327082 97 68 169
0.443432 -0.256191 0.344534 184 95 171
-0.0204145 -0.158539 0.314043 125 107 168
-0.0285522 0.997379 0.549378 124 255 198
-0.0692405 -0.5184 0.313385 119 61 167
-0.124489 0.842394 0.118081 112 235 143
0.350309 0.630815 0.573791 172 208 201
-0.606326 -0.443357 -0.296516 50 71 90
0.31323 -0.723944 0.476139 167 35 188
-0.191305 -0.378256 0.329474 103 79 170
0.508534 -0.988581 -0.734703 192 1 34
0.0853751 -0.0934375 0.520509 138 116 194
0.179073 0.736604 -0.288802 150 221 91
-0.125469 0.850532 -0.296939 112 236 90
-0.451711 -0.313154 0.303588 70 88 166
-0.0204145 0.998895 0.256422 125 255 160
-0.219977 0.736604 0.175045 99 221 150
0.158614 -0.912557 0.329661 148 11 170
0.352709 -0.825827 0.516827 172 22 193
-0.127946 0.842394 -0.752649 111 235 32
0.482984 0.476199 0.386624 189 188 177
-0.272682 -0.581697 0.327284 93 53 169
0.0772375 -0.0934375 0.520215 137 116 194
-0.640665 0.354134 -0.760786 46 173 30
-0.231524 0.761017 0.223871 98 225 156
0.329505 -0.11785 0.515556 170 112 193
0.618702 0.321583 -0.134186 206 169 110
0.476572 0.500612 -0.484106 188 191 66
0.112487 0.883082 -0.0772225 142 240 118
0.645024 0.345996 0.264559 210 172 161
0.603017 -0.907204 -0.32949 204 12 85
0.233439 -0.451495 0.321523 157 70 168
0.232694 0.687778 -0.207425 157 215 101
-0.0936535 -0.518916 0.313385 116 61 167
0.362056 -0.768864 0.490849 174 29 190
-0.183168 -0.663074 0.538439 104 43 196
-0.606326 -0.296879 -0.294749 50 90 90
-0.00413924 0.0367651 0.314906 127 132 168
0.142339 -0.842103 0.336625 146 20 170
-0.349325 0.630815 -0.362041 83 208 81
-0.435435 -0.988581 -0.74245 72 1 33
0.0935128 -0.410806 -0.617303 139 75 49
0.14916 -0.516596 0.329661 147 62 170
-0.126366 0.842394 -0.419004 111 235 74
-0.125299 0.842394 0.166907 112 235 149
0.642272 0.354134 0.0611177 209 173 135
0.489873 0.492474 0.329661 190 190 170
0.760801 -0.907981 -0.19115 225 12 103
-0.240131 -0.656312 0.476139 97 44 188
-0.598189 -0.394531 -0.0840238 51 77 117
-0.489685 0.492474 -0.174874 65 190 105
0.73695 0.207656 -0.695685 221 154 39
-0.486965 0.500612 0.549378 65 191 198
-0.232331 0.761017 0.354074 98 225 173
0.597767 -0.0446115 -0.589895 204 122 52
-0.5575 -0.32669 0.565653 56 86 200
-0.671428 0.129625 -0.394591 42 144 77
-0.606326 -0.378256 -0.248808 50 79 96
-0.764675 -0.915342 -0.394591 30 11 77
0.500396 -0.703762 0.531728 191 38 195
-0.231994 -0.768864 -0.621779 98 29 48
0.317862 0.622677 -0.67941 168 207 41
0.671287 0.133804 0.614479 213 145 206
-0.124369 0.842394 0.0611177 112 235 135
-0.671428 0.129464 -0.19115 42 144 103
-0.351398 0.630815 0.427313 83 208 182
-0.671428 0.129055 -0.752649 42 144 32
0.232221 0.687778 -0.264389 157 215 94
-0.740959 0.199518 -0.158599 33 153 107
0.671287 0.134429 0.101806 213 145 140
-0.590051 -0.207365 -0.626374 52 101 48
0.255914 0.142555 0.321523 160 146 168
-0.198497 -0.809552 0.321523 102 24 168
0.760801 -0.909252 0.207596 225 12 154
-0.354059 -0.326512 0.565653 82 86 200
-0.321508 -0.81769 0.506394 87 23 192
0.646363 0.354134 0.427313 210 173 182
0.19362 0.744742 0.272697 152 222 162
0.337643 -0.0934375 0.527001 171 116 195
-0.597063 -0.907204 -0.57362 51 12 54
0.671287 0.134709 0.223871 213 145 156
-0.183168 -0.0934375 0.512917 104 116 193
-0.222 0.736604 0.362211 99 221 174
0.207302 0.769155 0.427313 154 226 182
-0.20053 -0.508458 0.313385 102 63 167
-0.598189 -0.166676 -0.0253753 51 106 124
-0.0773782 0.476199 0.335778 118 188 170
0.740191 0.207656 0.321523 222 154 168
0.597257 -0.182952 -0.589895 204 104 52
-0.427298 -0.327002 0.565653 73 86 200
-0.191305 -0.475908 0.329366 103 67 169
0.597972 0.0123521 -0.589895 204 129 52
0.482296 0.476199 0.362211 189 188 174
0.0880365 -0.353843 0.329661 139 82 170
0.160209 0.736604 0.0855308 148 221 138
-0.48379 0.468061 -0.736373 66 187 34
-0.597276 -0.907204 -0.248113 51 12 96
-0.578507 -0.81769 0.362211 54 23 174
0.150476 -0.248053 0.35331 147 96 173
0.206356 0.769155 0.101806 154 226 140
0.45157 -0.0934375 0.530202 185 116 195
0.296954 0.0367651 0.322348 165 132 169
-0.489115 0.492474 0.19132 65 190 152
0.604429 -0.907204 -0.109773 205 12 114
-0.598189 -0.145871 -0.174874 51 109 105
0.0966773 0.858669 -0.19115 140 237 103
0.126063 0.110004 0.335679 144 142 170
-0.138558 0.866807 -0.345765 110 238 83
-0.618699 0.329721 -0.109773 49 170 114
0.0202738 -0.248053 0.647504 130 96 210
-0.191305 -0.125988 0.502938 103 111 192
0.45157 -0.320544 0.581928 185 87 202
0.474037 0.500612 -0.622446 188 191 48
0.459708 -0.597973 0.326487 186 51 169
-0.200314 -0.541009 0.313385 102 59 167
0.280679 -0.11785 0.514137 163 112 193
0.768682 -0.980443 -0.117911 226 2 112
0.0870837 -0.451495 0.329661 139 70 170
-0.109929 0.476199 0.335073 113 188 170
-0.609265 0.329721 0.622617 50 170 207
-0.127959 0.842394 -0.736373 111 235 34
0.234247 0.687778 0.0122917 157 215 129
0.484244 0.476199 0.43545 189 188 183
0.443432 -0.484045 0.325331 184 66 169
-0.598189 0.199176 -0.484106 51 153 66
0.272541 -0.0934375 0.525153 162 116 194
-0.516812 -0.326693 0.565653 62 86 200
0.199302 -0.988581 0.791714 153 1 228
0.31323 -0.320501 0.590066 167 87 203
0.20447 0.769155 -0.532932 154 226 60
-0.199851 -0.85024 0.313385 102 19 167
0.737902 0.207656 -0.288802 222 154 91
0.148693 -0.353843 0.329661 146 82 170
-0.608094 -0.296879 -0.0772225 50 90 118
-0.760942 -0.908082 0.484276 30 12 189
0.671287 0.1334 0.484276 213 145 189
0.142339 -0.484045 0.336323 146 66 170
-0.245633 -0.833965 0.533102 96 21 195
0.618282 0.321583 -0.215563 206 169 100
-0.198276 -0.752588 0.321523 102 32 168
-0.124986 0.850532 -0.264389 112 236 94
0.195026 0.744742 0.516827 152 222 193
0.239991 0.687778 0.223746 158 215 156
-0.481636 0.476199 -0.57362 66 188 54
-0.760942 -0.993535 -0.32949 30 1 85
-0.264545 -0.923479 -0.741676 94 10 33
-0.220589 0.736604 0.232009 99 221 157
-0.0285522 0.0367651 0.314321 124 132 168
0.0984245 0.858669 -0.67941 140 237 41
0.480865 0.476199 0.29711 189 188 165
-0.0204145 0.997667 -0.67941 125 255 41
0.0772375 0.0367651 0.316944 137 132 168
-0.394747 -0.721758 0.492414 77 35 190
0.597854 -0.907204 0.223871 204 12 156
0.233773 0.671503 -0.0446718 157 213 122
0.475329 0.500612 -0.565482 188 191 55
-0.125399 0.850532 -0.142324 112 236 109
0.0365491 -0.313154 0.314933 132 88 168
-0.508674 -0.305017 0.388899 63 89 177
-0.541225 -0.866516 0.353443 58 17 173
0.134201 -0.913073 0.345936 145 11 172
0.370193 -0.0934375 0.527887 175 116 195
-0.609475 0.329721 0.557515 50 170 199
-0.734577 0.199518 0.630754 34 153 208
0.587103 -0.687487 0.524965 202 40 194
-0.200048 -0.484045 0.313385 102 66 167
-0.598189 -0.427082 -0.084394 51 73 117
0.248128 -0.722121 0.516827 159 35 193
-0.739607 0.199518 0.0611177 33 153 135
0.0121361 -0.36198 0.315469 129 81 168
0.0935128 -0.248053 0.649339 139 96 210
0.76768 -0.915342 -0.0934978 225 11 116
0.109788 -0.125988 0.512837 141 111 193
0.145617 -0.663074 0.516827 146 43 193
-0.329646 -0.913017 -0.630584 85 11 47
0.671287 0.134398 0.142494 213 145 146
-0.23132 0.761017 -0.353903 98 225 82
0.443432 -0.996076 -0.728236 184 1 35
-0.671428 0.129197 -0.541069 42 144 59
-0.47739 0.476199 0.622617 67 188 207
0.204649 0.769155 -0.402729 154 226 76
-0.490612 0.492474 -0.598033 65 190 51
-0.480085 0.476199 0.0773932 66 188 137
0.616982 -0.32943 -0.264389 206 85 94
-0.125962 0.850532 0.0529802 111 236 134
-0.741354 0.191381 -0.549207 33 152 57
-0.671428 0.130774 0.313385 42 144 167
0.350516 0.630815 0.614479 172 208 206
-0.598189 -0.907547 -0.451555 51 12 70
0.0853751 -0.923479 0.790703 138 10 228
-0.760942 -0.908124 0.370349 30 12 175
0.597726 0.199518 -0.419004 204 153 74
-0.351073 0.630815 0.443588 83 208 184
-0.598189 -0.410806 -0.13572 51 75 110
-0.598189 -0.475908 -0.299182 51 67 89
-0.297095 -0.907204 0.30721 90 12 167
0.00399847 0.79267 0.598204 128 229 204
-0.141029 0.866807 0.573791 110 238 201
-0.768643 -0.923479 0.777232 29 10 227
0.150287 -0.777001 0.329661 147 28 170
-0.573776 -0.730188 0.337798 54 34 171
-0.0936535 -0.108523 0.313385 116 114 167
0.636548 0.354134 -0.43528 209 173 72
-0.0285522 0.997715 0.484276 124 255 189
-0.636726 0.354134 -0.0690848 46 173 119
-0.760942 -0.908169 0.468001 30 12 187
0.142339 -0.500321 0.33633 146 64 170
0.174889 0.101866 0.319486 150 140 168
0.204151 0.769155 -0.516656 154 226 62
0.419019 -0.549147 0.342008 181 57 171
-0.5974 -0.451495 -0.0283965 51 70 124
0.648724 0.345996 0.484276 210 172 189
0.223715 -0.0934375 0.523701 156 116 194
-0.199785 -0.622386 0.313385 102 48 167
0.166752 0.110004 0.336835 149 142 170
0.0960707 0.858669 0.150632 140 237 147
-0.5575 -0.858378 0.405444 56 18 179
-0.138471 0.866807 -0.305077 110 238 89
0.565497 -0.996306 0.78537 200 0 228
0.0935128 0.0288166 0.321523 139 131 168
-0.411022 -0.60611 0.304173 75 50 166
-0.0285522 0.998442 0.248284 124 255 159
-0.14103 0.866807 0.590066 110 238 203
0.598048 -0.272466 -0.215687 204 93 100
-0.619436 0.321583 -0.313215 49 169 88
-0.232325 0.761017 0.264559 98 225 161
-0.199443 -0.899066 -0.627096 102 13 48
-0.349789 0.638952 0.516827 83 209 193
-0.598189 -0.498434 -0.0853602 51 64 117
-0.635107 0.362272 -0.0121211 47 174 126
0.598048 -0.1523 -0.19115 204 108 103
-0.598189 -0.497878 -0.158599 51 64 107
-0.34043 0.614539 -0.0934978 84 206 116
0.0965614 0.858669 -0.0690848 140 237 119
-0.632556 0.362272 0.272697 47 174 162
0.589732 -0.0283362 0.378487 203 124 176
-0.12569 0.850532 -0.00398354 111 236 127
-0.191305 -0.656392 0.533102 103 44 195
0.362056 0.54198 -0.150461 174 197 108
-0.126362 0.842394 -0.443417 111 235 71
-0.248269 -0.305017 0.326873 96 89 169
-0.350195 0.630815 0.0855308 83 208 138
0.671287 0.134524 -0.321352 213 145 87
0.637678 0.354134 -0.313215 209 173 88
0.0528245 -0.0934375 0.519591 134 116 194
-0.671428 0.129857 0.492414 42 144 190
0.33223 0.64709 -0.443417 170 210 71
-0.28082 -0.907204 0.307215 92 12 167
-0.598189 -0.908849 0.508689 51 12 192
0.500396 -0.410806 0.326942 191 75 169
-0.595348 -0.842103 0.500552 52 20 191
-0.741412 0.191381 -0.622446 33 152 48
-0.248269 -0.321292 0.326802 96 87 169
0.0365491 -0.296879 0.335955 132 90 170
-0.0692405 -0.923479 -0.740251 119 10 33
0.231853 -0.988581 0.7927 157 1 229
0.142339 -0.296879 0.335905 146 90 170
0.419019 -0.907204 0.323466 181 12 169
-0.28082 -0.125988 0.499839 92 111 191
0.142339 -0.57356 0.336226 146 54 170
-0.596218 -0.728175 0.288972 51 35 164
-0.166892 -0.0934375 0.513347 106 116 193
-0.48847 0.492474 0.54124 65 190 197
-0.231994 0.110004 0.32788 98 142 169
0.459708 -0.337567 0.345173 186 84 172
-0.191305 -0.679349 0.329417 103 41 170
0.760801 -0.909001 0.19132 225 12 152
-0.200211 -0.581697 0.313385 102 53 167
-0.0611029 0.557576 0.3145 120 199 168
0.33205 0.638952 -0.475968 170 209 67
0.239991 0.476199 0.344247 158 188 171
0.256266 -0.833965 -0.603876 160 21 51
0.639527 0.354134 -0.183012 209 173 104
-0.671428 0.130321 0.0285672 42 144 131
0.327931 0.638952 -0.663134 169 209 43
0.362056 0.541453 -0.174874 174 197 105
-0.350282 0.630815 0.0448425 83 208 133
0.150764 -0.581697 0.321523 147 53 168
0.606186 -0.427082 -0.117317 205 73 113
-0.240131 -0.32432 0.565653 97 86 200
0.4926 0.492474 0.484276 190 190 189
-0.598189 -0.272466 -0.295408 51 93 90
-0.634554 0.362272 -0.0853602 47 174 117
0.329505 0.0367651 0.323127 170 132 169
0.272541 -0.248053 0.655449 162 96 211
-0.489316 0.492474 0.134357 65 190 145
-0.231994 -0.801414 -0.620276 98 25 48
-0.0855159 -0.11785 0.506756 117 112 192
-0.764462 -0.915342 -0.410867 30 11 75
-0.734722 0.199518 0.598204 34 153 204
0.0609621 -0.923479 -0.739326 135 10 33
-0.0936535 0.476199 0.33546 116 188 170
0.483618 0.468061 0.288972 189 187 164
0.31323 -0.923479 0.793381 167 10 229
0.736388 -0.915342 -0.734447 221 11 34
-0.224353 0.736604 0.590066 99 221 203
0.410882 0.505874 -0.256251 180 192 95
-0.500537 -0.597973 0.406806 64 51 179
-0.760942 -0.907819 0.43545 30 12 183
0.394606 -0.11785 0.517371 178 112 193
0.459708 -0.11785 0.518584 186 112 194
-0.741895 0.199518 -0.43528 33 153 72
0.126063 -0.248053 0.352978 144 96 173
0.0772375 -0.323017 0.581928 137 86 202
0.0965724 0.858669 -0.0853602 140 237 117
-0.0529652 -0.158539 0.313049 121 107 167
-0.340745 0.614539 0.29711 84 206 165
0.112613 0.883082 0.345936 142 240 172
-0.489976 0.492474 -0.248113 65 190 96
0.280679 -0.809552 0.522586 163 24 194
-0.231431 0.761017 -0.370178 98 225 80
0.0202738 -0.988581 0.791298 130 1 228
-0.590622 0.191381 -0.256251 52 152 95
0.150476 0.75288 -0.785298 147 223 27
0.60172 -0.907204 0.00415417 204 12 128
-0.199443 -0.994353 0.78537 102 1 228
-0.349392 0.638952 -0.687547 83 209 40
-0.597809 -0.907204 0.0773932 51 12 137
-0.232646 0.761017 0.329661 98 225 170
0.0956035 0.858669 0.622617 140 237 207
0.628826 0.313446 0.516827 208 167 193
0.524809 -0.11785 0.51922 194 112 194
0.585778 -0.313154 0.508689 202 88 192
-0.125987 0.842394 0.427313 111 235 182
0.183027 -0.988581 0.792322 151 1 229
0.0609621 -0.378256 0.316975 135 79 168
0.604289 -0.907204 -0.207425 205 12 101
0.500396 -0.541009 0.327112 191 59 169
0.493996 -0.85024 0.533102 190 19 195
-0.131351 -0.475908 0.313385 111 67 167
0.628642 0.313446 0.549378 208 167 198
-0.760942 -0.908645 0.305248 30 12 166
-0.635108 0.354134 0.0773932 47 173 137
-0.590814 0.191381 -0.280664 52 152 92
-0.738642 0.199518 0.19132 33 153 152
0.112876 0.883082 -0.272526 142 240 93
0.0772375 -0.255 0.337798 137 95 171
0.0202738 -0.158539 0.315165 130 107 168
-0.598189 0.198049 -0.00398354 51 153 127
-0.138856 0.866807 -0.663134 110 238 43
0.596398 -0.842103 -0.589895 204 20 52
-0.198694 -0.614248 0.321523 102 49 168
0.0528245 -0.516596 0.315642 134 62 168
0.0935128 -0.125988 0.51248 139 111 193
0.739855 0.207656 0.362211 222 154 174
0.598715 -0.46777 -0.280664 204 68 92
0.126063 -0.923479 0.791205 144 10 228
0.112801 0.883082 -0.0446718 142 240 122
-0.760942 -0.993269 -0.516656 30 1 62
-0.636816 0.354134 -0.0934978 46 173 116
-0.0204145 0.999433 -0.142324 125 255 109
-0.636815 0.354134 -0.109773 46 173 114
0.332894 0.64709 -0.410867 170 210 75
0.435295 -0.907204 -0.60218 183 12 51
0.204759 0.769155 -0.500381 154 226 64
0.112974 0.883082 -0.158599 142 240 107
0.419019 0.50035 0.0936685 181 191 139
-0.47913 0.476199 0.394762 66 188 178
-0.768113 -0.915342 0.581928 30 11 202
-0.207581 -0.777001 0.308951 101 28 167
0.194198 0.744742 0.378487 152 222 176
-0.219109 0.736604 0.0367047 100 221 132
-0.125535 0.850532 -0.606171 111 236 50
0.239991 0.370409 0.343444 158 175 171
-0.223856 -0.508458 0.308899 99 63 167
0.348643 0.630815 0.468001 172 208 187
-0.0366898 -0.988581 0.790687 123 1 228
-0.492399 -0.101575 0.50639 65 115 192
-0.5575 -0.842103 0.405459 56 20 179
0.394606 -0.508458 0.32465 178 63 169
0.350686 0.630815 0.622617 172 208 207
0.58839 -0.736313 0.524965 203 34 194
-0.573776 -0.730737 0.378487 54 34 176
0.338315 0.606402 0.264559 171 205 161
-0.305233 -0.325862 0.565653 89 86 200
0.641415 0.354134 -0.0365341 209 173 123
0.142339 -0.386393 0.336163 146 78 170
-0.671428 0.129443 -0.207425 42 144 101
-0.451711 -0.988581 -0.742474 70 1 33
0.378331 -0.597973 0.324451 176 51 169
0.350063 0.630815 0.565653 172 208 200
-0.735397 0.191381 0.419175 34 152 181
0.348041 0.630815 0.419175 172 208 181
-0.232783 0.761017 -0.760786 98 225 30
0.318907 0.622677 -0.589895 168 207 52
0.549222 -0.90998 -0.728236 198 11 35
0.58991 -0.866516 -0.597128 203 17 51
-0.633376 0.362272 0.240146 47 174 158
-0.596009 -0.142263 -0.126048 52 109 111
0.142339 -0.549147 0.336024 146 57 170
-0.233304 0.761017 0.427313 98 225 182
0.370193 -0.321407 0.590066 175 87 203
0.0772375 -0.532871 0.335717 137 60 170
0.34578 -0.882791 0.46947 172 15 187
-0.00413924 0.792979 0.524965 127 229 194
0.158614 -0.874653 0.317598 148 16 168
-0.760942 -0.908808 0.272697 30 12 162
-0.481477 0.476199 -0.46783 66 188 68
-0.0692405 -0.199227 0.349374 119 102 172
-0.125928 0.842394 0.516827 111 235 193
-0.362197 -0.721052 0.492414 81 36 190
0.597497 0.0530405 -0.589895 204 134 52
-0.598189 -0.394531 -0.0289267 51 77 124
0.435295 -0.100656 0.329661 183 115 170
0.272541 -0.11785 0.513996 162 112 193
-0.577836 -0.899066 0.362211 54 13 174
-0.329646 -0.101575 0.51052 85 115 193
-0.760942 -0.993221 0.134357 30 1 145
0.256266 0.50875 0.322061 160 192 169
-0.0773782 -0.0934375 0.51624 118 116 193
-0.634355 0.362272 0.142494 47 174 146
-0.350872 0.630815 0.280835 83 208 163
-0.616762 0.329721 -0.0283965 49 170 124
-0.767648 -0.915342 0.411037 30 11 180
0.737217 0.207656 -0.337628 221 154 84
0.598048 -0.508408 -0.0446718 204 63 122
-0.125155 0.850532 -0.313215 112 236 88
0.738856 0.207656 0.0611177 222 154 135
-0.590878 0.191381 -0.174874 52 152 105
-0.233221 0.761017 0.378487 98 225 176
0.459708 -0.32943 0.344788 186 85 171
-0.598189 0.198401 -0.256251 51 153 95
-0.598189 0.19833 -0.142324 51 153 109
0.760801 -0.911094 0.484276 225 11 189
0.150872 -0.549147 0.321523 147 57 168
0.204328 0.769155 -0.687547 154 226 40
-0.223759 0.736604 0.557515 99 221 199
-0.638877 -0.993891 -0.736373 46 1 34
-0.00413924 0.794228 -0.720098 127 229 36
-0.256407 -0.882791 0.516958 95 15 193
-0.59146 0.191381 -0.410867 52 152 75
0.109788 -0.248053 0.650417 141 96 210
-0.720254 -0.915342 -0.741214 36 11 33
-0.516812 -0.994831 -0.736373 62 1 34
0.740191 0.207656 0.378487 222 154 176
0.459708 -0.484045 0.344839 186 66 171
-0.596645 -0.378256 0.476139 51 79 188
0.204843 0.769155 -0.443417 154 226 71
-0.230038 0.761017 -0.0528095 98 225 121
-0.598189 0.19702 -0.32949 51 153 85
0.150778 -0.492183 0.321523 147 65 168
0.703838 -0.915342 -0.734275 217 11 34
-0.350492 0.630815 0.0692555 83 208 136
0.378331 0.544202 -0.126048 176 197 111
0.0935128 -0.484045 0.335666 139 66 170
0.469837 0.476199 -0.46783 187 188 68
0.280679 -0.833965 0.5221 163 21 194
0.207246 0.769155 0.378487 154 226 176
-0.596098 -0.508458 0.484276 51 63 189
-0.598189 -0.337567 -0.296349 51 84 90
0.205166 0.769155 -0.19115 154 226 103
-0.216606 0.736604 -0.2237 100 221 99
0.58991 -0.500321 0.325297 203 64 169
-0.231994 -0.427082 0.312497 98 73 167
0.362056 0.565713 0.222848 174 200 156
-0.443573 -0.107912 0.305248 71 114 166
-0.151456 -0.663074 0.468001 108 43 187
0.239991 0.215794 0.341741 158 155 171
0.0121361 -0.296879 0.335265 129 90 170
-0.592215 0.191381 -0.516656 52 152 62
0.508534 0.289576 0.606341 192 164 205
0.00399847 0.791769 0.508689 128 228 192
0.467845 -0.100018 0.329661 187 115 170
0.31323 -0.11785 0.515121 167 112 193
-0.349039 0.638952 -0.671272 83 209 42
-0.351679 0.630815 0.508689 83 208 192
0.419019 -0.899066 0.51655 181 13 193
0.149001 -0.541009 0.329661 146 59 170
0.603678 -0.907204 -0.166737 204 12 106
-0.207581 -0.565422 0.308905 101 55 167
-0.232516 0.761017 -0.638721 98 225 46
0.233377 0.687778 -0.134186 157 215 110
-0.339428 0.614539 -0.32949 84 206 85
0.23037 0.695916 -0.256251 157 216 95
-0.245662 -0.85024 0.533102 96 19 195
-0.738888 0.199518 0.166907 33 153 149
-0.0855159 0.0283373 0.313385 117 131 167
0.419019 0.500078 0.0692555 181 191 136
-0.0204145 0.998417 0.354074 125 255 173
0.427157 -0.11785 0.517826 182 112 194
0.597435 -0.239915 -0.0528095 204 97 121
-0.00413924 -0.256191 0.337039 127 95 170
0.239991 0.305308 0.342795 158 166 171
-0.0448275 -0.324559 0.573791 122 86 201
-0.240131 -0.248053 0.639385 97 96 209
-0.126141 0.842394 0.386624 111 235 177
0.598048 -0.182952 0.00055561 204 104 128
0.443432 -0.516596 0.325384 184 62 169
0.0956691 0.858669 0.549378 140 237 198
0.740207 0.207656 0.598204 222 154 204
-0.337784 -0.313154 0.305683 84 88 166
-0.595417 -0.475908 0.484276 52 67 189
0.671287 0.134235 -0.337628 213 145 84
-0.671428 0.130335 0.0122917 42 144 129
0.585289 -0.793277 0.329661 202 26 170
-0.126052 0.850532 -0.654997 111 236 44
-0.0204145 0.99964 -0.109773 125 255 114
0.419019 -0.915342 -0.733439 181 11 34
-0.00413924 -0.158539 0.314624 127 107 168
0.767565 -0.980443 0.0855308 225 2 138
0.59848 -0.296879 -0.0609472 204 90 120
-0.61 0.329721 0.427313 50 170 182
0.76713 -0.915342 -0.0609472 225 11 120
-0.488917 0.492474 0.443588 65 190 184
-0.606326 -0.239915 -0.293917 50 97 90
-0.742077 0.199518 -0.589895 33 153 52
-0.349259 0.630815 -0.305077 83 208 89
-0.594251 -0.516596 -0.622446 52 62 48
0.149005 -0.557284 0.329661 146 56 170
-0.231229 0.761017 -0.402729 98 225 76
-0.598189 -0.908147 0.0122917 51 12 129
-0.767675 -0.915342 0.362211 30 11 174
0.671287 0.133223 0.573791 213 144 201
-0.288958 -0.913412 -0.630584 91 11 47
-0.158755 -0.655896 0.476139 107 44 188
-0.256407 -0.109713 0.309994 95 114 167
-0.590051 -0.60611 0.296504 52 50 165
-0.126899 0.850532 0.256422 111 236 160
-0.0936535 0.492474 0.313521 116 190 167
-0.610727 0.329721 0.183183 50 170 151
-0.14248 -0.912891 0.476139 109 11 188
-0.338183 0.614539 -0.630584 84 206 47
-0.671428 0.129211 -0.459693 42 144 69
0.231645 0.695916 -0.126048 157 216 111
0.427157 -0.913533 0.329661 182 11 170
0.641834 0.354134 0.0204295 209 173 130
0.205204 0.769155 -0.117911 154 226 112
0.329505 -0.320546 0.590066 170 87 203
0.0935128 -0.500321 0.335391 139 64 170
0.149306 -0.687487 0.329661 147 40 170
-0.443573 0.0286275 0.304549 71 131 166
-0.341048 0.614539 0.524965 84 206 194
0.760801 -0.907701 -0.321352 225 12 87
0.740332 0.207656 0.386624 222 154 177
-0.249066 -0.793277 0.516827 96 26 193
0.400968 0.500612 0.622617 179 191 207
-0.481144 0.476199 -0.248113 66 188 96
0.767173 -0.980443 0.126219 225 2 144
-0.354059 -0.988581 -0.741112 82 1 33
0.288004 -0.46777 0.321523 164 68 168
-0.350823 0.630815 0.248284 83 208 159
0.471521 0.500612 -0.777062 188 191 28
0.602739 -0.907204 -0.0528095 204 12 121
0.158614 0.101866 0.319166 148 140 168
0.644467 0.345996 0.207596 210 172 154
0.386469 -0.248053 0.658559 177 96 211
0.59787 -0.158539 -0.0446718 204 107 122
0.321367 -0.909102 -0.606171 168 12 50
-0.598189 0.199155 -0.231838 51 153 98
0.329259 0.638952 -0.598033 169 209 51
0.142339 -0.378256 0.3358 146 79 170
0.645064 0.345996 0.248284 210 172 159
0.152064 -0.842103 0.321523 147 20 168
0.671287 0.13347 0.516827 213 145 193
-0.484261 -0.541009 0.319763 66 59 168
0.272541 -0.475908 0.339794 162 67 171
-0.598189 -0.438195 -0.207425 51 72 101
0.00399847 0.792321 0.451726 128 229 185
0.401258 0.50875 0.614479 179 192 206
-0.484261 -0.109713 0.303566 66 114 166
-0.0204145 0.999026 0.248284 125 255 159
0.00399847 0.792014 0.54124 128 228 197
0.671287 0.133433 0.54124 213 145 197
-0.508674 -0.402669 0.489857 63 76 190
0.166752 -0.248053 0.652157 149 96 211
-0.138339 0.866807 -0.296939 110 238 90
-0.48671 0.500612 0.362211 65 191 174
0.516671 -0.996484 0.78537 193 0 228
0.671287 0.13455 0.305248 213 145 166
0.317112 0.622677 -0.646859 168 207 45
0.617865 0.321583 -0.353903 206 169 82
-0.138867 0.866807 -0.67941 110 238 41
0.63631 0.354134 -0.46783 209 173 68
-0.0285522 0.997986 0.329661 124 255 170
-0.598189 -0.288741 -0.29569 51 91 90
0.272541 -0.728175 0.523302 162 35 194
-0.598189 0.198703 -0.443417 51 153 71
-0.639506 0.354134 -0.516656 46 173 62
-0.620339 0.321583 -0.541069 48 169 59
0.174889 -0.11785 0.511661 150 112 193
0.586918 -0.524734 0.516827 202 61 193
-0.138551 0.866807 -0.0446718 110 238 122
-0.49014 0.492474 -0.549207 65 190 57
-0.288958 -0.532871 0.307324 91 60 167
0.126063 -0.11785 0.510884 144 112 193
-0.0204145 0.998147 -0.57362 125 255 54
-0.0366898 0.101866 0.315842 123 140 168
-0.215718 -0.99455 0.78537 100 1 228
-0.230045 0.761017 -0.0690848 98 225 119
0.58991 -0.85024 -0.59685 203 19 51
0.0121361 0.0367651 0.315239 129 132 168
0.321367 -0.402669 0.340839 168 76 171
-0.125305 0.850532 -0.239976 112 236 97
-0.480093 0.476199 0.150632 66 188 147
-0.0204145 0.998661 -0.386454 125 255 78
-0.478224 0.476199 0.533102 67 188 195
-0.614242 -0.191089 -0.239976 49 103 97
0.0853751 -0.158539 0.317668 138 107 168
0.349983 0.630815 0.533102 172 208 195
-0.742023 0.199518 -0.565482 33 153 55
0.55736 -0.81769 0.37851 199 23 176
-0.0529652 -0.923479 0.790184 121 10 228
0.348367 0.630815 0.4029 172 208 179
-0.138245 0.866807 -0.451555 110 238 70
0.427157 -0.305017 0.325092 182 89 169
-0.351176 0.630815 0.370349 83 208 175
0.679425 0.136207 0.329661 214 145 170
-0.640082 0.354134 -0.654997 46 173 44
-0.598189 -0.248053 -0.0829882 51 96 117
0.489153 0.492474 0.305248 190 190 166
0.322509 0.622677 -0.443417 169 207 71
0.580954 -0.874653 0.329661 202 16 170
-0.158755 -0.825827 0.447363 107 22 185
-0.158755 -0.101575 0.514736 107 115 193
0.113048 0.883082 -0.313215 142 240 88
-0.767636 -0.915342 0.459863 30 11 186
-0.598189 -0.264328 -0.0845906 51 94 117
0.492258 -0.549147 0.343297 190 57 171
0.196739 0.75288 -0.663134 153 223 43
0.508534 -0.32172 0.590066 192 86 203
-0.598189 -0.908395 -0.0853602 51 12 117
-0.595573 -0.654936 0.492414 52 44 190
-0.590051 -0.313154 0.482634 52 88 189
0.419019 0.500973 0.0204295 181 191 130
-0.590051 -0.793277 0.505758 52 26 192
-0.24586 -0.777001 0.533102 96 28 195
0.00399847 -0.475908 0.331625 128 67 170
0.142339 -0.622386 0.336304 146 48 170
0.736073 0.199518 -0.606171 221 153 50
0.34578 -0.988581 0.792984 172 1 229
-0.402885 -0.327309 0.565653 76 86 200
0.493961 0.492474 0.573791 190 190 201
0.508534 -0.11785 0.519191 192 112 194
-0.598189 -0.908163 -0.345765 51 12 83
-0.508674 -0.435219 0.491353 63 72 190
0.768519 -0.980443 -0.0772225 225 2 118
-0.598189 0.198507 0.0448425 51 153 133
0.584115 -0.288741 0.427313 202 91 182
0.151654 -0.744451 0.321523 147 33 168
0.0202738 -0.322427 0.581928 130 86 202
-0.00413924 0.792591 0.354074 127 229 173
-0.596261 -0.142263 -0.101635 51 109 115
0.204655 0.769155 -0.557345 154 226 56
-0.492399 -0.326473 0.565653 65 86 200
-0.484261 -0.500321 0.32119 66 64 168
-0.481822 0.476199 -0.720098 66 188 36
-0.153025 -0.663074 0.500552 108 43 191
-0.0285522 0.998042 0.394762 124 255 178
0.346704 0.630815 0.280835 172 208 163
-0.126082 0.842394 0.362211 111 235 174
0.1971 0.75288 -0.524794 153 223 61
-0.597362 -0.907204 -0.158599 51 12 107
0.597512 -0.280604 -0.589895 204 92 52
0.234111 -0.508458 0.329661 157 63 170
-0.140383 0.866807 0.484276 110 238 189
-0.671428 0.130498 0.272697 42 144 162
-0.128051 0.850532 0.386624 111 236 177
0.598048 -0.239915 -0.272002 204 97 93
0.178461 0.736604 -0.248113 150 221 96
-0.630431 0.362272 0.508689 47 174 192
-0.138405 0.866807 -0.46783 110 238 68
0.733519 0.199518 -0.785199 221 153 27
-0.621102 0.321583 -0.703823 48 169 38
0.153123 -0.809552 0.321523 147 24 168
0.644902 0.354134 0.305248 210 173 166
-0.620959 0.321583 -0.638721 48 169 46
-0.350978 0.638952 0.622617 83 209 207
-0.766495 -0.915342 0.248284 30 11 159
0.410882 0.505648 -0.296939 180 192 90
0.239991 0.345996 0.343161 158 172 171
0.142339 -0.911855 0.508689 146 11 192
0.598048 -0.451495 -0.00509341 204 70 127
0.149219 -0.565422 0.329661 147 55 170
0.593685 -0.549147 0.321523 203 57 168
0.348312 0.630815 0.43545 172 208 183
0.671287 0.134755 0.240146 213 145 158
-0.617992 0.329721 -0.0609472 49 170 120
0.598048 -0.152945 -0.150461 204 108 108
-0.671428 0.129433 -0.313215 42 144 88
0.598048 -0.909394 -0.728236 204 12 35
0.199302 -0.923479 0.792414 153 10 229
0.230764 0.679641 -0.126048 157 214 111
0.581773 -0.622386 0.528237 202 48 195
-0.305233 -0.912333 0.492414 89 11 190
-0.321508 -0.451495 0.306812 87 70 167
0.524809 -0.321715 0.590066 194 86 203
0.485166 0.468061 0.516827 189 187 193
-0.482044 0.476199 -0.695685 66 188 39
0.597499 -0.22364 -0.272526 204 99 93
-0.198703 -0.703762 0.321523 102 38 168
-0.125089 0.842394 0.614479 112 235 206
-0.486838 0.492474 -0.101635 65 190 115
0.642861 0.345996 0.109944 209 172 142
0.604232 -0.907204 -0.174874 205 12 105
0.671287 0.134861 -0.508519 213 145 63
-0.0855159 -0.256191 0.337146 117 95 170
0.150608 -0.532871 0.321523 147 60 168
