ply
format ascii 1.0
comment Created by Open3D
element vertex 1195
property double x
property double y
property double z
property uchar red
property uchar green
property uchar blue
end_header
0.321352 -0.110582 -0.0236796 168 113 124
0.0528166 0.255885 0.248761 134 160 159
-0.0303121 -0.598181 0.366426 124 51 174
0.400736 -0.354407 0.0318231 179 82 132
0.271778 -0.966417 0.103292 162 4 141
-0.347963 -0.71894 0.0804501 83 36 138
-0.212296 -0.992551 -0.103173 100 1 114
-0.340387 -0.795552 -0.200483 84 26 102
-0.000471388 0.601161 0.484178 127 204 189
0.226045 0.1685 -0.128695 156 149 111
0.241291 -0.909286 -0.276219 158 12 92
0.22302 0.55918 0.126134 156 199 144
-0.0730907 0.341822 0.159557 118 171 148
0.103649 0.375128 0.255761 141 175 160
0.293395 -0.87544 -0.228028 165 16 98
0.017633 0.365387 0.163336 130 174 148
0.440488 -0.594264 -0.00470119 184 52 127
-0.0559334 -0.012171 0.220702 120 126 156
-0.520378 0.219989 -0.0563185 61 156 120
0.0245774 -0.874577 0.297458 131 16 165
-0.140298 -0.135207 -0.275015 110 110 92
0.0902161 0.7387 -0.265916 139 222 94
0.000658932 0.0393215 0.22153 128 133 156
-0.365351 -0.828716 -0.11857 81 22 112
0.109592 -0.925395 -0.397163 141 10 77
0.406082 -0.769423 0.0011266 179 29 128
-0.282231 0.822124 0.179202 92 232 150
-0.0329469 0.531943 -0.0756214 123 195 118
-0.399142 0.431992 0.2173 77 183 155
0.151881 0.390993 -0.195408 147 177 103
-0.25692 -0.916585 -0.21206 95 11 100
0.114112 0.105501 0.263108 142 141 161
0.119808 0.657113 -0.039848 143 211 122
0.245422 0.501278 0.174845 159 191 150
-0.247552 0.0210808 -0.0871044 96 130 116
-0.0923805 -0.856657 0.311209 116 18 167
-0.261689 -0.97213 0.05122 94 4 134
0.379613 0.281365 -0.151722 176 163 108
0.384461 0.589969 0.216451 177 203 155
-0.299157 -0.506578 -0.283945 89 63 91
-0.168655 0.702057 0.103308 106 217 141
0.167547 0.0559925 -0.0793943 149 135 117
0.215464 0.250609 -0.168838 155 159 106
0.390873 0.448319 0.0944591 177 185 140
-0.117828 0.290388 0.0792495 112 165 138
-0.072019 -0.97797 -0.296379 118 3 90
0.15171 0.154767 -0.234208 147 147 98
0.16708 0.276534 -0.166834 149 163 106
0.321163 -0.721023 -0.257334 168 36 95
-0.288957 -0.367397 -0.226468 91 81 99
-0.310298 0.505001 0.0766811 88 192 137
-0.0484342 0.353975 -0.036788 121 173 123
0.400546 0.638412 0.0494737 179 209 134
-0.186901 -0.987136 -0.196298 104 2 102
0.391903 0.475802 0.0154969 177 188 129
0.285183 0.0785495 0.0825651 164 138 138
-0.0983074 0.542815 0.0692749 115 197 136
-0.193729 -0.0705391 -0.163408 103 119 107
-0.209925 -0.656018 -0.369549 101 44 80
0.321009 -0.665238 -0.252838 168 43 95
-0.060085 0.469932 -0.0308874 120 187 124
0.0169282 0.477634 -0.213917 130 188 100
0.0346624 0.886615 0.377484 132 241 176
-0.377717 -0.66132 -0.113691 79 43 113
-0.224934 0.427782 0.0485944 99 182 134
-0.305909 -0.28358 -0.221685 88 91 99
0.0857017 0.462945 -0.0156687 138 187 126
0.00406457 0.290611 -0.219528 128 165 100
0.1165 -0.49823 -0.407228 142 64 76
0.206482 0.392216 0.133987 154 178 145
0.0504728 0.316215 0.218557 134 168 155
-0.372797 -0.557812 -0.136066 80 56 110
-0.18714 -0.785471 0.277445 104 27 163
0.286303 -0.242948 0.195567 164 97 152
0.293342 0.375459 -0.00149575 165 175 127
-0.0556176 -0.685857 0.368734 120 40 175
-0.210933 -0.946062 -0.276422 101 7 92
-0.172409 0.863583 -0.0454621 106 238 122
0.309927 0.626862 0.0503641 167 207 134
-0.267109 -0.157727 -0.131424 93 107 111
0.240857 0.716564 0.170778 158 219 149
0.183891 0.0893555 0.157197 151 139 148
0.310634 -0.462212 0.234855 167 69 157
-0.295762 -0.925019 -0.182754 90 10 104
-0.339875 -0.331025 -0.145258 84 85 109
0.0206 0.602291 0.143203 130 204 146
0.0769448 -0.949129 0.00189125 137 6 128
-0.355949 -0.367804 -0.178085 82 81 105
0.178657 0.075368 -0.281161 150 137 92
-0.0186301 0.70666 0.0369269 125 218 132
0.12434 0.563511 -0.0385244 143 199 123
0.282076 -0.785363 -0.265019 163 27 94
-0.231855 0.126634 0.179798 98 144 150
-0.34933 -0.479847 -0.155673 83 66 108
0.137214 -0.980983 0.0537776 145 2 134
-0.0226493 -0.924426 0.294261 125 10 165
0.330302 -0.641351 -0.299366 170 46 89
-0.073557 0.29902 -0.471995 118 166 67
0.309324 0.108505 -0.0913158 167 141 116
-0.274305 0.0937167 -0.239553 93 139 97
-0.40492 -0.68521 0.0308614 76 40 131
0.326752 -0.354707 -0.204995 169 82 101
0.260022 0.484 0.228921 161 189 157
-0.0722671 -0.161912 -0.293323 118 107 90
-0.129894 0.532392 -0.329524 111 195 85
0.353246 -0.846627 0.109326 173 20 141
-0.0954972 -0.953207 -0.0405986 115 6 122
-0.0425679 0.296833 -0.0953825 122 165 115
0.247462 0.901414 -0.0580435 159 242 120
-0.373692 -0.811402 -0.0740432 80 24 118
0.0595662 0.63576 0.0268239 135 209 131
-0.00219412 -0.664305 -0.409368 127 43 75
-0.221001 0.620438 0.181586 99 207 151
-0.351868 -0.466067 0.0184094 83 68 130
0.121966 -0.061648 -0.242621 143 120 97
-0.232693 -0.777348 -0.351322 98 28 83
0.0474679 0.494153 0.119373 134 191 143
0.163226 -0.436716 -0.34099 148 72 84
0.167771 0.382093 -0.0820249 149 176 117
-0.157582 0.0197856 0.105068 107 130 141
0.0989029 -0.90146 0.311284 140 13 167
0.0575776 0.506209 0.0476834 135 192 134
0.00323895 -0.61485 -0.404799 128 49 76
0.182979 0.0184393 0.131473 151 130 144
0.0342699 0.662829 -0.0517627 132 212 121
-0.114713 0.0980913 -0.197313 113 140 102
0.212046 0.546145 -0.0103222 155 197 126
-0.159618 0.293554 0.11381 107 165 142
0.162033 0.10915 -0.182841 148 141 104
-0.363294 -0.729417 -0.163076 81 34 107
0.104073 -0.213483 0.338914 141 100 171
-0.172641 -0.243052 0.288032 105 97 164
-0.46291 0.228842 -0.0482599 68 157 121
-0.164425 -0.551038 0.330001 107 57 170
-0.395764 -0.540316 0.00400909 77 59 128
-0.327085 -0.8747 -0.170811 86 16 106
0.433111 -0.440279 -0.00849837 183 71 126
-0.175824 -0.317411 -0.306086 105 87 88
-0.345321 -0.508542 -0.212126 83 63 100
-0.339049 -0.81889 0.0781697 84 23 137
0.161167 0.60152 0.143905 148 204 146
-0.289641 -0.16226 0.132968 91 107 144
-0.0120726 0.862602 0.0255288 126 237 131
0.48834 0.469035 0.00934924 190 187 129
-0.369692 -0.612775 0.0558885 80 49 135
-0.184805 0.0575177 -0.219504 104 135 100
0.0491909 -0.987422 0.217495 134 2 155
-0.32798 -0.438479 0.151652 86 72 147
-0.0347194 0.6098 -0.309583 123 205 88
-0.315405 -0.667077 -0.28159 87 42 92
-0.183312 0.404752 -0.0255994 104 179 124
0.400636 -0.673159 -0.0905007 179 42 116
-0.236954 -0.493092 -0.340006 97 65 84
-0.134452 0.817869 -0.0410004 110 232 122
-0.111521 0.517947 -0.278736 113 194 92
0.178042 -0.664629 -0.386448 150 43 78
0.12219 0.13455 -0.200072 143 145 102
0.190411 -0.989187 0.114064 152 1 142
0.0154547 -0.622623 0.355624 129 48 173
-0.0645747 -0.637919 0.382697 119 46 176
-0.137894 0.307851 0.193431 110 167 152
-0.369502 0.223333 0.0284117 80 156 131
0.0338788 0.278769 0.499413 132 163 191
0.33031 0.380795 -0.209048 170 176 101
-0.143293 0.661734 0.129195 109 212 144
0.205661 0.238254 0.119543 154 158 143
-0.154648 0.196724 -0.129059 108 153 111
-0.239034 -0.291202 -0.32421 97 90 86
-0.0774567 0.441294 0.0456625 118 184 133
0.178045 0.325752 0.130278 150 169 144
0.185576 0.651384 0.162337 151 211 148
-0.0126828 0.533215 -0.192846 126 195 103
0.104991 -0.126264 -0.274466 141 111 93
0.109191 0.426227 -0.0570184 141 182 120
-0.178416 -0.0360544 -0.240314 105 123 97
-0.322003 -0.338889 0.121162 86 84 143
0.0942526 0.0489856 -0.190467 140 134 103
0.172238 0.0311176 -0.137636 149 131 110
-0.243716 -0.660129 0.278048 96 43 163
0.250863 -0.591451 -0.329324 159 52 86
0.0618092 0.16714 0.22354 135 149 156
0.373337 0.670718 0.0194132 175 213 130
-0.0723754 -0.972812 0.243476 118 3 159
-0.346055 -0.644959 -0.182823 83 45 104
-0.301646 0.532111 0.0305137 89 195 131
-0.0800463 -0.0824094 -0.255253 117 117 95
0.0618963 -0.287032 -0.395502 135 91 77
-0.235899 0.105102 0.00530492 97 141 128
0.322884 -0.131321 -0.0894768 169 111 116
-0.0405231 -0.996352 0.176876 122 0 150
-0.0463006 -0.836332 0.319602 122 21 168
0.279515 -0.0497457 0.0261755 163 121 131
-0.00770022 -0.269406 -0.38759 127 93 78
-0.17434 0.321144 -0.184166 105 168 104
-0.164833 -0.951285 0.20425 106 6 154
0.3552 -0.479319 0.175586 173 66 150
0.357525 0.0567706 0.0761611 173 135 137
-0.069872 -0.619015 -0.445418 119 49 71
0.361807 -0.645705 0.162329 174 45 148
0.14229 0.417385 0.201541 146 181 153
-0.173501 0.618264 0.128869 105 206 144
0.10178 0.424735 0.523498 140 182 194
-0.100116 0.246444 0.328753 115 159 169
-0.195045 0.263517 0.0949916 103 161 140
0.413295 -0.472886 0.0466048 180 67 133
0.339972 -0.72791 0.159241 171 35 148
0.152667 0.500228 -0.0239512 147 191 124
0.292923 0.939748 -0.0990362 165 247 115
0.106982 0.424465 0.313981 141 182 168
0.0164115 0.603354 -0.0412645 130 204 122
0.350458 -0.933893 -0.140607 172 8 110
0.170141 0.155229 0.102771 149 147 141
-0.126873 0.382217 -0.174654 111 176 105
0.220406 0.111658 0.195708 156 142 152
0.228547 0.0342365 -0.021109 157 132 125
-0.149151 0.0654076 -0.164465 108 136 107
-0.22874 -0.58683 0.256826 98 53 160
-0.123767 0.256665 -0.394136 112 160 77
-0.148716 -0.0305555 0.151796 109 124 147
0.388944 -0.535649 0.0547215 177 59 134
-0.164479 0.160537 0.0689789 107 148 136
-0.213367 0.128304 -0.059183 100 144 120
0.215832 0.456727 -0.181449 155 186 104
0.239557 -0.72118 0.328798 158 36 169
0.232251 0.491896 -0.323822 157 190 86
0.0214882 0.527962 0.328345 130 195 169
-0.304578 -0.0523311 -0.109091 89 121 114
0.27459 -0.278167 -0.295138 163 92 90
0.272184 -0.778482 -0.313368 162 28 88
-0.361151 -0.277344 -0.0563108 81 92 120
0.106129 0.476161 -0.097303 141 188 115
-0.0843334 0.271638 -0.0844786 117 162 117
0.0998891 0.474692 -0.144082 140 188 109
-0.15118 0.452491 -0.166803 108 185 106
0.350893 -0.650647 -0.218941 172 45 100
0.248216 0.161557 0.0414991 159 148 133
-0.0918263 0.812582 -0.0892178 116 231 116
-0.3212 0.195196 0.0624192 87 152 135
0.224496 0.331788 -0.0114536 156 170 126
-0.333853 -0.314138 0.000765066 85 87 128
0.158935 -0.855966 -0.367655 148 18 81
0.244741 -0.209009 0.27948 159 101 163
0.212988 0.412399 -0.171731 155 180 106
-0.0649524 -0.670145 -0.437173 119 42 72
0.201009 -0.297116 -0.288127 153 90 91
-0.079219 0.114438 0.20042 117 142 153
0.197793 0.298688 -0.112759 153 166 113
-0.218631 -0.233568 -0.276595 100 98 92
-0.023087 -0.268137 0.358264 125 93 173
-0.284609 0.398099 0.214696 91 178 155
0.209581 -0.987054 -0.19063 154 2 103
-0.382291 -0.756814 -0.0730688 79 31 118
0.0406604 0.530648 -0.15132 133 195 108
0.00651699 0.330626 0.22638 128 170 156
-0.0682013 0.285132 0.365133 119 164 174
0.0314231 0.67549 0.161617 132 214 148
0.114542 -0.674457 -0.396915 142 42 77
0.0130331 0.394282 0.10052 129 178 140
0.122296 -0.761303 -0.40988 143 30 75
0.0675793 0.427706 0.133691 136 182 145
0.105731 0.630952 -0.177804 141 208 105
0.115947 0.400182 -0.233556 142 179 98
0.348897 -0.211996 0.0389816 172 100 132
-0.195287 -0.514047 0.291166 103 62 165
0.0298202 0.82127 0.297134 131 232 165
0.222718 -0.724832 -0.362505 156 35 81
0.37763 -0.652608 0.0545276 176 44 134
0.042255 0.591678 -0.150445 133 203 108
0.298493 0.574399 0.199811 166 201 153
0.238927 0.477647 -0.0949394 158 188 115
0.0730556 0.104769 -0.239341 137 141 97
0.0434571 0.0844911 0.287008 133 138 164
-0.210451 -0.240225 0.247187 101 97 159
0.1829 0.803943 -0.0820788 151 230 117
0.397988 0.379895 0.251895 178 176 160
-0.0169285 -0.952787 0.259636 125 6 161
-0.0811615 -0.0828366 0.258702 117 117 160
-0.319972 0.199847 0.238217 87 153 158
0.196379 0.0332548 0.181899 153 132 151
0.178366 -0.248063 0.299344 150 96 166
0.175547 0.0957171 0.0102098 150 140 129
0.347369 0.40643 -0.298301 172 179 89
0.210936 0.0978707 0.0510573 154 140 134
0.0812845 0.0781578 0.201266 138 137 153
0.208941 -0.52821 0.306659 154 60 167
-0.267684 -0.523759 0.268829 93 61 162
-0.361359 -0.763093 0.140123 81 30 145
0.0569119 -0.242588 -0.361304 135 97 81
-0.00315115 0.561146 0.410586 127 199 180
0.238736 -0.0490638 0.056624 158 121 135
-0.209927 0.28129 -0.0493832 101 163 121
-0.0827613 -0.726153 -0.414255 117 35 75
0.188563 -0.472573 -0.348614 152 67 83
-0.0644316 0.0575539 -0.204635 119 135 101
0.119146 -0.316235 -0.34989 143 87 83
-0.0640284 -0.14114 0.311575 119 110 167
0.303395 0.238616 0.283927 166 158 164
-0.0895188 -0.955165 -0.179774 116 6 105
-0.252071 -0.71679 -0.36088 95 36 81
-0.10799 0.595065 0.112512 114 203 142
0.389598 -0.51831 0.105191 177 61 141
0.163928 0.106722 0.200062 148 141 153
0.352219 -0.406765 0.181925 172 76 151
0.0119882 -0.360105 0.357616 129 82 173
-0.0306633 -0.934513 -0.369351 124 8 80
-0.316911 -0.581434 -0.237215 87 53 97
-0.0992724 -0.895487 -0.376261 115 13 80
0.137154 -0.0206251 0.194033 145 125 152
-0.16949 -0.3856 -0.339462 106 78 84
-0.230622 -0.956367 -0.222778 98 6 99
-0.136977 0.547549 0.168806 110 197 149
0.14556 0.359956 -0.0483224 146 173 121
0.134951 -0.243673 -0.33516 145 96 85
-0.216764 0.466905 0.128064 100 187 144
-0.0301435 -0.522372 -0.449284 124 61 70
0.255311 0.150401 -0.0941788 160 147 115
-0.078537 0.255912 -0.526025 117 160 60
-0.33769 -0.928272 -0.0194192 84 9 125
-0.110445 0.51205 0.102429 113 193 141
0.175995 0.0584312 0.0901796 150 135 139
-0.222794 0.0645771 0.0789937 99 136 138
-0.0752336 0.287947 -0.336273 118 164 85
0.0933829 0.588089 -0.161494 139 202 107
-0.0598549 -0.222902 0.33459 120 99 170
0.397904 -0.342011 0.0932867 178 84 139
-0.140305 -0.395413 -0.405285 110 77 76
-0.0769772 0.218312 -0.30773 118 155 88
-0.123041 0.571317 -0.460823 112 200 69
0.12081 0.174637 -0.263064 143 150 94
-0.144119 -0.917448 0.264231 109 11 161
-0.0995517 -0.615869 0.334866 115 49 170
0.38361 -0.417613 -0.116773 176 74 113
0.00300764 -0.076815 -0.291291 128 118 90
0.0848158 -0.144455 0.286033 138 109 164
-0.12794 -0.997536 0.113846 111 0 142
0.208776 0.549567 0.0849792 154 198 138
-0.0566961 0.563807 -0.052306 120 199 121
-0.212816 -0.0199488 -0.0293427 100 125 124
-0.109834 0.373653 0.04971 113 175 134
-0.130326 0.583513 0.00163035 111 202 128
-0.46406 0.218985 0.0181178 68 155 130
0.267286 0.525719 0.240345 162 195 158
-0.0272482 0.383245 0.0558474 124 176 135
-0.177403 0.326814 0.0338591 105 169 132
-0.0548241 0.618328 0.0233036 121 206 130
-0.355546 -0.700139 -0.0825084 82 38 117
-0.0572621 0.521143 0.0939976 120 194 139
0.350652 -0.199592 -0.126227 172 102 111
-0.294861 -0.819567 -0.266654 90 23 94
-0.0415238 0.414515 0.0163054 122 180 130
0.261991 0.280496 0.0442931 161 163 133
0.0464712 -0.0432382 -0.228655 133 122 98
0.0487885 0.0216904 -0.254447 134 130 95
-0.288587 -0.142392 0.042661 91 109 133
-0.333855 -0.719919 -0.246724 85 36 96
0.144543 0.0988318 0.098634 146 140 140
-0.279338 -0.695717 0.236681 92 39 158
0.159983 0.351972 -0.213601 148 172 100
-0.146871 0.604803 0.188388 109 205 152
0.312381 -0.0124256 -0.0623639 167 126 120
-0.0448905 0.138975 -0.197197 122 145 102
-0.244801 0.434107 -0.305166 96 183 89
-0.0277376 0.370967 0.240072 124 175 158
-0.159986 0.323626 -0.0199261 107 169 125
0.229116 -0.759116 0.309895 157 31 167
0.173476 0.102562 -0.0337679 150 141 123
-0.354246 -0.404662 -0.101795 82 76 115
-0.219943 -0.546637 -0.383118 99 58 79
0.298425 -0.598058 -0.275445 166 51 92
0.199295 0.851004 -0.0598412 153 236 120
0.145976 0.534075 0.148225 146 196 146
0.290583 -0.377337 0.277823 165 79 163
-0.0522636 0.333534 -0.158534 121 170 107
0.0295473 0.909002 0.000734919 131 243 128
0.341612 0.643575 0.0764518 171 210 137
0.315428 -0.838469 0.191277 168 21 152
0.0669105 0.512857 -0.0703118 136 193 119
0.349616 -0.842334 -0.198736 172 20 102
-0.278622 0.185306 0.121086 92 151 143
-0.0421004 0.440632 -0.105377 122 184 114
-0.0679467 0.519727 -0.174492 119 194 105
-0.129692 0.55875 -0.389033 111 199 78
-0.300442 0.160331 0.0156407 89 148 129
-0.118715 0.0673866 0.223643 112 136 156
0.292078 -0.707979 0.280628 165 37 163
0.172179 -0.820879 0.316077 149 23 168
0.0581476 -0.0237758 0.218379 135 124 155
0.360789 0.578965 -0.218022 174 201 100
0.167925 0.435799 -0.0066637 149 183 127
-0.0715961 0.372442 0.125717 118 175 144
0.352424 -0.25895 -0.154736 172 94 108
0.258434 0.347053 0.104874 160 172 141
0.0468023 0.438092 0.346175 133 183 172
0.220809 0.107679 -0.0395661 156 141 122
0.0506489 -0.0559865 0.26185 134 120 161
-0.365212 -0.366353 0.0407108 81 81 133
-0.316944 -0.795141 0.161667 87 26 148
-0.281528 0.0778014 0.0948754 92 137 140
-0.349078 -0.663746 0.139879 83 43 145
-0.0332775 0.372966 0.194799 123 175 152
0.123249 0.53209 -0.00871332 143 195 126
0.295934 0.311232 0.222618 165 167 156
-0.200011 0.374087 0.106274 102 175 141
0.11372 0.339774 0.156937 142 171 148
-0.0787824 -0.490086 -0.44018 117 65 71
-0.137013 -0.016307 -0.165093 110 125 106
0.242377 0.210432 0.113298 158 154 142
0.373642 -0.471724 0.106798 175 67 141
-0.0135827 0.107147 -0.219376 126 141 100
-0.0883329 -0.900626 0.301574 116 13 166
0.150656 0.660189 -0.00970754 147 212 126
-0.21339 0.325407 0.115689 100 169 142
-0.0544837 -0.380388 -0.418251 121 79 74
0.380861 0.790995 0.214962 176 228 155
0.311689 0.363645 0.047266 167 174 134
-0.287894 -0.892785 -0.243429 91 14 96
0.111255 0.367675 -0.195586 142 174 103
0.24509 -0.409183 -0.273022 159 75 93
0.0016615 -0.191798 -0.338208 128 103 84
0.245447 -0.958305 0.136603 159 5 145
-0.229749 0.400736 0.231809 98 179 157
0.384979 -0.599738 0.103434 177 51 141
0.335688 0.00386236 0.0794227 170 128 138
0.0274757 0.4059 0.191598 131 179 152
0.149403 -0.512291 -0.382636 147 62 79
-0.078269 0.628952 -0.443864 118 208 71
0.104128 -0.626179 0.34731 141 48 172
0.150583 0.52272 0.0266156 147 194 131
0.127355 0.449724 0.386544 144 185 177
0.0612281 0.0796526 0.246147 135 138 159
0.152943 0.0630185 0.218278 147 136 155
-0.0072593 0.0758864 0.24755 127 137 159
0.0853846 0.139106 -0.283719 138 145 91
0.223579 -0.460444 0.324641 156 69 169
0.153781 -0.727925 -0.412648 147 35 75
-0.378184 -0.469305 -0.0808233 79 68 117
0.312664 -0.925098 0.0671632 167 10 136
0.00108576 0.414054 -0.111488 128 180 113
-0.189179 -0.706815 0.319902 103 37 168
0.312278 0.286082 -0.151132 167 164 108
-0.162477 0.299648 0.156953 107 166 148
-0.134509 0.159248 0.158518 110 148 148
-0.134177 -0.679007 0.336513 110 41 170
-0.26231 0.205787 0.192836 94 154 152
0.00519248 0.321015 0.352945 128 168 173
-0.282202 0.0479469 0.142903 92 134 146
-0.0366967 0.180373 -0.263652 123 150 94
-0.0997278 0.411641 -0.21403 115 180 100
0.0387548 0.222587 -0.2321 132 156 98
-0.0774907 -0.708134 0.335535 118 37 170
-0.0930252 0.297082 -0.404652 116 165 76
0.215772 0.29146 -0.0730551 155 165 118
-0.348483 -0.85584 -0.03952 83 18 122
-0.0512808 0.340708 -0.0988603 121 171 115
-0.312996 -0.211222 0.0742999 88 101 137
0.228972 0.289707 0.192448 157 164 152
-0.274813 -0.959144 -0.143342 92 5 109
0.394114 -0.606706 -0.140786 178 50 110
0.0337661 0.754794 0.236064 132 224 158
0.290717 0.114236 0.045499 165 142 133
0.0921393 0.398954 -0.136798 139 178 110
0.166547 -0.69826 0.327565 149 38 169
0.161417 -0.330529 -0.34096 148 85 84
-0.130251 -0.551036 -0.387429 111 57 78
0.276688 -0.976924 0.0376129 163 3 132
-0.0386947 0.518329 -0.309733 123 194 88
-0.216575 -0.993091 -0.0237162 100 1 124
-0.31659 -0.176968 -0.0646257 87 105 119
-0.0200927 0.461784 0.252853 125 186 160
0.355646 -0.861401 -0.154117 173 18 108
0.262925 -0.0660263 -0.0596399 161 119 120
-0.176196 -0.47788 0.314955 105 67 168
-0.264787 0.403337 0.14527 94 179 146
0.315981 -0.619071 0.241621 168 49 158
0.00193295 0.58986 0.0728942 128 203 137
-0.293986 -0.74036 -0.292925 90 33 90
0.222149 -0.584033 -0.372458 156 53 80
-0.0601072 -0.336484 0.339004 120 85 171
0.25906 -0.885192 0.236171 161 15 158
0.1223 -0.841042 -0.392807 143 20 77
-0.0446908 0.50042 -0.140305 122 191 110
-0.364902 -0.578146 0.121828 81 54 143
0.281107 0.562283 -0.212746 163 199 100
0.364053 -0.177648 0.0705442 174 105 136
-0.341128 -0.218421 0.0409506 84 100 133
0.192418 0.634063 0.0942498 152 208 140
-0.319523 -0.537052 0.153804 87 59 147
0.208413 0.104008 0.253415 154 141 160
-0.126705 0.157416 -0.195151 111 148 103
0.0786366 -0.0537511 -0.290108 138 121 91
0.27818 -0.381776 -0.257217 163 79 95
-0.0777344 0.489223 -0.103275 118 190 114
0.15521 -0.99556 -0.209271 147 1 101
-0.132342 0.257148 -0.0671393 111 160 119
-0.0818035 -0.934565 -0.363809 117 8 81
-0.317852 -0.164862 0.0867043 87 106 139
0.14232 0.433194 0.292243 146 183 165
-0.158546 0.628904 0.238512 107 208 158
0.195949 0.58799 0.104514 152 202 141
-0.102646 0.277902 0.174902 114 163 150
0.0347753 -0.423881 0.393652 132 73 178
0.0408729 0.703529 -0.209394 133 217 101
0.283588 0.58414 0.0884951 164 202 139
-0.11435 -0.0159871 0.1718 113 125 149
-0.23736 0.476263 -0.0123096 97 188 126
0.104074 -0.362904 -0.380474 141 81 79
0.37806 -0.883724 0.0219992 176 15 130
-0.142736 0.216717 0.201139 109 155 153
0.0387585 0.0041639 -0.190056 132 128 103
-0.000431532 0.600563 -0.335259 127 204 85
0.205847 0.380092 -0.14546 154 176 109
0.0494625 -0.206259 -0.341134 134 101 84
0.19587 0.428244 0.153233 152 182 147
-0.103201 -0.819363 -0.411971 114 23 75
-0.163889 -0.0739955 0.171558 107 118 149
0.34829 -0.196442 -0.045979 172 102 122
0.160299 0.566645 0.0889846 148 200 139
0.183638 0.359833 0.156135 151 173 147
-0.410159 0.236212 0.0180385 75 158 130
0.188513 -0.223138 -0.281959 152 99 92
0.0767732 0.442129 0.380708 137 184 176
0.106473 0.112281 0.314323 141 142 168
0.401844 -0.529959 -0.12355 179 60 112
-0.244278 0.367301 0.173066 96 174 150
-0.290919 -0.555224 -0.272015 90 57 93
-0.0430258 0.0686469 0.187696 122 136 151
-0.148173 -0.0886995 0.214988 109 116 155
0.0248081 0.540739 0.119929 131 196 143
0.11028 -0.957597 -0.336189 142 5 85
0.0435963 0.36218 0.254982 133 174 160
0.383534 -0.836934 -0.023262 176 21 125
0.0715878 0.569698 0.0945294 137 200 140
0.0397148 -0.0223165 -0.29726 133 125 90
-0.0542012 0.437348 0.162744 121 183 148
0.184781 -0.0976216 -0.257843 151 115 95
-0.207605 0.408891 -0.273242 101 180 93
0.169327 0.728323 -0.0237714 149 220 124
0.0927297 0.805903 -0.33324 139 230 85
0.178161 0.42742 -0.226717 150 182 99
0.332507 -0.7974 -0.251867 170 26 95
0.378133 -0.40938 0.108754 176 75 141
-0.0960137 -0.269125 0.321869 115 93 169
0.296442 -0.110137 0.140636 165 113 145
-0.465841 0.580098 0.0401774 68 201 133
0.161372 -0.989878 0.144385 148 1 146
0.235332 -0.933674 0.235193 158 8 157
-0.261714 0.131867 0.150703 94 144 147
-0.0229439 0.24422 -0.287956 125 159 91
0.407133 -0.739442 -0.119441 179 33 112
0.353088 0.352985 -0.266152 173 173 94
0.0989328 0.530835 -0.129771 140 195 111
-0.0242963 0.785059 -0.000260069 124 228 127
0.417155 0.668698 0.0732085 181 213 137
-0.215065 0.381942 -0.195646 100 176 103
-0.0217297 0.298445 0.418271 125 166 181
0.180094 0.452028 0.0918904 150 185 139
-0.173033 0.652262 0.0317144 105 211 132
0.150942 0.111321 0.242796 147 142 158
0.365645 -0.234743 0.0069838 174 98 128
0.0305012 0.566641 -0.227036 131 200 99
0.202966 0.453937 -0.0961011 153 185 115
-0.340449 -0.282 0.0305596 84 92 131
-0.358908 -0.577327 -0.170331 82 54 106
-0.355307 0.436084 0.177976 82 183 150
0.112975 0.0872584 0.12783 142 139 144
-0.129624 -0.643502 -0.404374 111 45 76
0.0550809 -0.128554 -0.335681 135 111 85
-0.0570572 0.497534 0.318351 120 191 168
0.226478 -0.0286018 0.235173 156 124 157
-0.249756 0.0737641 -0.0199721 96 137 125
0.0311649 0.291214 0.280234 131 165 163
-0.226346 -0.164938 0.211467 99 106 154
-0.191014 0.261419 0.036081 103 161 132
0.237532 -0.987618 -0.221586 158 2 99
0.310332 -0.87876 0.135722 167 15 145
0.190857 0.0708955 -0.135748 152 137 110
-0.160709 -0.190185 -0.298188 107 103 89
-0.0545011 0.384562 -0.18079 121 177 104
-0.134774 0.025609 -0.227732 110 131 98
-0.157851 -0.481744 -0.377829 107 66 79
0.37783 -0.243492 -0.0655372 176 96 119
0.304938 -0.388802 0.235831 166 78 158
0.167581 0.0759904 -0.214673 149 137 100
0.321242 -0.525208 0.242774 168 61 158
-0.0110603 -0.683952 0.366727 126 40 174
-0.209022 0.634224 0.234789 101 208 157
0.376892 -0.313707 -0.0302325 176 88 124
0.139392 0.177385 -0.0977146 145 150 115
0.346718 -0.594117 -0.243719 172 52 96
-0.291229 -0.448703 -0.245788 90 70 96
0.151592 0.467594 -0.328983 147 187 86
-0.347374 -0.295578 -0.122744 83 90 112
-0.00637173 -0.896901 -0.379937 127 13 79
0.342587 -0.611705 0.176523 171 50 150
0.375698 -0.5402 -0.164068 175 59 107
-0.0633023 0.252661 -0.202409 119 160 102
0.160218 0.228262 0.140117 148 157 145
0.27779 -0.314594 0.246385 163 87 159
-0.286149 -0.958267 -0.0711724 91 5 118
-0.256084 -0.1219 -0.200521 95 112 102
-0.218915 -0.105354 0.177085 100 114 150
0.242749 -0.06323 0.122774 158 119 143
0.375668 -0.815859 0.052977 175 23 134
0.226269 0.489056 -0.414508 156 190 75
-0.176046 0.244938 0.149073 105 159 147
-0.085874 0.0630259 0.181494 117 136 151
-0.0876075 0.585807 0.219139 116 202 155
0.259709 -0.412558 0.281116 161 75 163
0.146523 -0.380029 -0.366389 146 79 81
-0.270322 -0.00946626 -0.070908 93 126 118
-0.200553 0.308275 0.17367 102 167 150
0.0651696 -0.119462 -0.283397 136 112 91
-0.236144 0.410588 -0.241953 97 180 97
-0.0774363 0.761483 0.0181752 118 225 130
-0.118407 -0.82612 0.301177 112 22 166
-0.0215066 0.61213 -0.0923776 125 206 116
0.340579 0.102353 -0.0219364 171 141 125
-0.0623902 -0.990202 0.102857 120 1 141
-0.0436426 0.591968 -0.253508 122 203 95
0.119973 0.443043 0.438252 143 184 183
0.342057 -0.489494 0.224793 171 65 156
0.0895078 0.0471861 0.339392 139 134 171
-0.153587 0.0316446 -0.103156 108 132 114
-0.06519 0.65665 0.00969157 119 211 129
0.15037 -0.178894 0.294946 147 105 165
-0.103794 0.53424 -0.361466 114 196 81
-0.335798 -0.632049 -0.233688 85 47 98
0.151937 0.098109 -0.0799365 147 140 117
0.168277 -0.579613 0.334326 149 54 170
-0.185078 -0.0158303 -0.0620365 104 125 120
0.000814059 0.142712 -0.234715 128 146 98
-0.0894888 -0.450151 0.382661 116 70 176
0.0927589 0.382825 0.304156 139 176 166
-0.191601 0.142524 -0.176902 103 146 105
0.252995 -0.986726 -0.0539717 160 2 121
0.19894 0.300921 0.015188 153 166 129
0.264921 -0.849951 -0.31754 161 19 87
0.383281 -0.462901 -0.143841 176 68 109
-0.0717272 0.436048 0.221828 118 183 156
0.180023 -0.972687 0.181851 150 3 151
0.0491702 0.65878 -0.184972 134 211 104
-0.239948 -0.0882313 0.0974369 97 116 140
0.18127 0.179884 -0.0759941 151 150 118
0.111423 0.595404 -0.0146398 142 203 126
-0.0310286 0.171182 0.248334 124 149 159
-0.149427 -0.746943 0.337238 108 32 170
-0.249161 -0.625798 0.252788 96 48 160
-0.365745 -0.605102 -0.0976041 81 50 115
-0.056897 -0.122883 -0.28784 120 112 91
-0.288919 -0.429501 -0.31805 91 73 87
-0.00552886 0.680665 0.183801 127 214 151
-0.364316 -0.545913 0.0334847 81 58 132
0.115122 0.000361218 -0.216021 142 128 100
-0.144013 -0.434739 0.312915 109 72 167
-0.198639 0.0660674 -0.116339 102 136 113
0.257944 -0.0797928 -0.101456 160 117 115
0.291218 0.533613 -0.143642 165 196 109
-0.0503649 0.607742 -0.40859 121 205 75
0.197672 0.140177 -0.120041 153 145 112
0.371515 -0.774191 0.0699191 175 29 136
-0.212944 -0.144648 -0.243337 100 109 96
-0.181507 0.140693 -0.0818299 104 145 117
0.0961967 0.194773 -0.182326 140 152 104
0.323072 -0.352811 0.209717 169 83 154
-0.0865384 0.145535 -0.244212 116 146 96
-0.200755 0.243184 -0.09703 102 159 115
0.167072 -0.94623 -0.312016 149 7 88
-0.199926 0.694579 0.0780318 102 216 137
-0.303972 -0.480984 0.197448 89 66 153
0.21152 -0.0150619 0.051613 154 126 134
0.384035 -0.283619 0.0550333 176 91 135
-0.20571 -0.110112 -0.209929 101 113 101
0.232571 0.208397 0.0337246 157 154 132
0.230239 0.69936 0.0876364 157 217 139
0.254184 0.372014 -0.0398153 160 175 122
-0.218949 0.203686 -0.072278 100 153 118
0.332525 -0.366454 0.165813 170 81 149
0.111113 -0.955844 0.262688 142 6 161
0.343266 -0.202357 0.137641 171 102 145
-0.275117 0.653982 0.242116 92 211 158
0.270166 -0.319899 -0.294841 162 87 90
0.279575 0.520843 0.164406 163 194 148
-0.0171238 0.502882 -0.232105 125 192 98
0.389037 -0.814225 -0.0712114 177 24 118
0.00265498 -0.287541 0.386962 128 91 177
0.0589274 -0.900206 0.294979 135 13 165
-0.246352 -0.353801 -0.310663 96 82 88
0.124036 0.711445 -0.0608274 143 218 120
-0.229663 -0.988864 -0.0656417 98 1 119
0.420681 -0.607323 -0.0582965 181 50 120
0.1445 0.412807 -0.161895 146 180 107
0.208557 0.16054 0.261627 154 148 161
-0.201747 0.495539 -0.0321254 102 191 123
0.323547 -0.248543 0.171174 169 96 149
-0.0688962 0.464396 -0.267661 119 187 93
0.271557 0.0603455 0.0460984 162 135 133
-0.218229 -0.913648 -0.323761 100 11 86
0.295669 0.193661 -0.10581 165 152 114
-0.242705 -0.323221 0.283101 97 86 164
-0.24524 -0.31282 -0.262624 96 88 94
0.362934 -0.447732 -0.190478 174 70 103
-0.00671337 0.799569 0.25595 127 229 160
0.153738 -0.187639 -0.27128 147 104 93
0.189 0.346416 -0.0244919 152 172 124
-0.355554 0.213377 0.0957191 82 155 140
0.226866 0.274604 0.125349 156 163 143
-0.154688 -0.996723 0.0834333 108 0 138
0.0973585 0.362059 -0.120188 140 174 112
0.322414 0.0673789 -0.0569046 169 136 120
0.181667 0.511987 0.0776842 151 193 137
0.341689 0.599686 -0.175339 171 204 105
-0.0396987 0.693019 -0.088602 122 216 116
-0.304891 -0.192077 0.0102381 89 103 129
-0.0765642 -0.36803 -0.376538 118 81 79
0.239782 0.1137 0.112666 158 142 142
0.0166124 -0.955511 -0.18704 130 6 104
-0.221699 0.166612 0.172447 99 149 149
-0.284051 0.38602 -0.207091 91 177 101
-0.257495 -0.794847 0.232044 95 26 157
0.364308 -0.579803 -0.166382 174 54 106
0.419782 -0.493226 -0.124335 181 65 112
-0.36284 -0.540326 0.0797165 81 59 138
-0.213177 0.115734 -0.125591 100 142 111
0.213928 -0.518201 -0.328159 155 61 86
-0.0725936 0.635605 -0.359031 118 209 82
0.416947 -0.780657 -0.0693615 181 28 119
0.196686 0.358361 0.0986812 153 173 140
-0.234244 -0.0573281 -0.102631 98 120 114
0.141654 -0.674863 0.367512 146 41 174
0.272952 -0.934722 0.173521 162 8 150
-0.254186 0.403033 -0.328983 95 179 86
-0.305344 -0.70487 0.181823 89 38 151
-0.0931417 -0.619948 -0.41245 116 48 75
-0.228723 -0.531048 -0.329417 98 60 85
-0.266711 -0.615694 -0.323427 93 49 86
-0.196732 -0.0467343 -0.119053 102 122 112
0.160046 0.290807 0.156071 148 165 147
0.110144 -0.743449 0.350077 142 33 172
0.249901 0.31073 -0.0355278 159 167 123
0.0190262 0.0481417 0.316407 130 134 168
0.380663 -0.788849 -0.187508 176 27 104
0.153444 -0.98795 -0.118974 147 2 112
0.190064 0.529834 0.0289628 152 195 131
-0.115507 -0.260007 -0.320969 113 94 87
0.198666 0.498077 -0.353421 153 191 82
0.28123 -0.714418 -0.315339 163 36 87
0.0407071 0.820721 0.0258355 133 232 131
0.196938 -0.739469 -0.38956 153 33 78
-0.328385 -0.431244 -0.221943 86 73 99
0.269918 0.110626 -0.0985939 162 142 115
0.162067 0.786841 -0.0511373 148 228 121
0.347756 0.427895 0.0612698 172 182 135
-0.179283 0.620078 0.170387 105 207 149
0.226603 0.222679 0.173298 156 156 150
-0.184899 0.717815 0.141454 104 219 146
0.209225 0.00301588 0.0131424 154 128 129
0.0670408 -0.169765 0.314644 136 106 168
-0.264148 0.117618 -0.162937 94 142 107
0.364473 -0.790148 0.183337 174 27 151
0.244903 0.245984 -0.141287 159 159 109
-0.338645 0.535335 0.0110771 84 196 129
0.0203037 0.556637 0.369747 130 198 175
-0.1797 0.188365 0.180598 105 152 151
0.239182 -0.060623 -0.164602 158 120 107
0.084235 -0.250776 -0.323723 138 96 86
-0.0919017 0.0242177 -0.168191 116 131 106
-0.214357 -0.843232 -0.349323 100 20 83
0.225 -0.846218 -0.335262 156 20 85
-0.0411472 0.296901 -0.137589 122 165 110
-0.0301516 0.450875 -0.158193 124 185 107
-0.120845 0.487647 -0.228612 112 190 98
-0.0411402 0.547612 0.347952 122 197 172
0.165031 0.0985472 0.290583 149 140 165
-0.281203 -0.12251 0.134464 92 112 145
-0.130987 -0.20607 0.287273 111 101 164
0.334441 0.661874 0.0216163 170 212 130
0.352478 0.253024 -0.15923 172 160 107
-0.266454 -0.853523 -0.307061 94 19 88
0.0530059 0.548361 0.0464794 134 197 133
0.0236866 0.381541 0.294089 131 176 165
-0.266642 0.131013 0.0691915 94 144 136
0.229618 0.32036 0.0912245 157 168 139
-0.0284432 0.630869 -0.00537498 124 208 127
-0.0407995 -0.430317 -0.407009 122 73 76
0.199704 0.142681 0.0227997 153 146 130
-0.352214 0.204889 -0.00427262 83 154 127
0.299744 -0.0655504 0.109096 166 119 141
0.27048 -0.135192 0.194121 162 110 152
0.155271 -0.552179 -0.3788 147 57 79
-0.288944 -0.0157403 0.17248 91 125 149
0.284376 -0.687551 0.247274 164 40 159
0.108681 0.419571 0.367874 141 181 174
-0.164814 -0.296157 0.282242 106 90 163
-0.175449 -0.181138 0.245771 105 104 159
-0.131823 0.162093 -0.130615 111 148 111
-0.111137 -0.079296 -0.229459 113 117 98
0.131492 0.48707 0.0503978 144 190 134
0.221802 -0.994744 -0.083513 156 1 117
0.291227 -0.09347 -0.0436631 165 116 122
-0.0486897 0.417917 0.0704754 121 181 136
-0.367951 -0.529373 -0.102984 81 60 114
0.370626 -0.384355 -0.136067 175 78 110
0.0877194 -0.57272 -0.402135 139 54 76
0.228709 0.11781 -0.0837746 157 143 117
0.0432171 0.409637 -0.0576596 133 180 120
0.00832145 -0.838568 -0.407675 129 21 76
-0.410184 0.576547 0.0634873 75 201 136
-0.190782 0.361731 0.2115 103 174 154
-0.1417 0.371585 -0.0113522 109 175 126
0.0459352 -0.935606 -0.372491 133 8 80
-0.133367 0.540208 0.0365144 110 196 132
0.251056 0.285298 -0.141671 160 164 109
-0.213814 0.119167 -0.205289 100 143 101
-0.146711 0.372031 0.0886492 109 175 139
-0.417945 0.242903 -0.0389822 74 158 123
-0.396009 0.215518 0.0749316 77 155 137
-0.244529 -0.446031 0.282721 96 71 164
-0.0752901 0.561809 -0.215917 118 199 100
-0.120498 -0.39509 0.339959 112 77 171
0.348812 0.198756 -0.0663709 172 153 119
0.114351 -0.420543 0.344538 142 74 171
0.0119583 -0.43009 -0.421851 129 73 74
0.150381 0.43524 -0.253801 147 183 95
-0.0322567 0.562974 0.141623 123 199 146
0.36247 -0.388995 -0.246128 174 78 96
0.0254778 0.457229 0.213176 131 186 155
0.0154202 0.0740831 -0.209824 129 137 101
-0.0128278 -0.32875 0.369272 126 86 175
-0.104185 -0.220067 -0.315467 114 99 87
-0.130444 0.565784 0.0857223 111 200 138
0.312589 0.209731 -0.13983 167 154 110
0.121838 -0.059518 0.223061 143 120 156
-0.0281277 0.271212 -0.204192 124 162 101
-0.337416 -0.229588 -0.0268095 84 98 124
0.0334243 0.323501 0.257576 132 169 160
0.192611 0.213965 -0.110659 152 155 113
0.100392 0.442876 0.104863 140 184 141
-0.0154003 -0.114732 -0.292128 126 113 90
0.109816 -0.256224 0.332192 142 95 170
0.21839 -0.90743 -0.320737 155 12 87
0.110169 0.107281 -0.225958 142 141 99
-0.279632 0.43666 0.171884 92 183 149
-0.128513 -0.771241 -0.409616 111 29 75
-0.0764825 0.267934 0.207638 118 162 154
-0.187827 -0.623673 -0.378535 104 48 79
0.335327 0.330913 -0.186325 170 170 104
-0.0992072 0.484724 0.152917 115 189 147
0.397877 -0.652693 -0.052547 178 44 121
-0.146165 0.250238 -0.0274442 109 159 124
0.100166 0.495013 -0.05555 140 191 120
0.235397 -0.0408643 -0.266737 158 122 93
0.0153832 -0.380557 -0.435652 129 79 72
0.129101 0.162846 0.154564 144 148 147
0.0402716 -0.0086413 0.361236 133 126 174
0.210321 0.462039 -0.241387 154 186 97
-0.111861 0.306137 -0.0772682 113 167 118
-0.0763115 0.211824 0.224552 118 155 156
0.284491 -0.315836 -0.230851 164 87 98
-0.146354 -0.94198 -0.325826 109 7 86
0.0523473 0.498881 -0.197902 134 191 102
-0.241858 -0.0720552 0.16401 97 118 148
0.257473 0.541358 0.137967 160 197 145
-0.268782 -0.227063 0.193281 93 99 152
0.381248 0.437576 0.0184588 176 183 130
0.050008 0.724327 0.196649 134 220 153
0.0364614 0.779858 -0.019995 132 227 125
0.322082 -0.0861368 0.0131145 169 117 129
0.279502 0.752137 0.126783 163 223 144
0.360148 0.224164 -0.0964948 173 156 115
0.201628 -0.103989 -0.192181 153 114 103
-0.10017 0.54289 0.195667 115 197 152
0.005778 0.267263 0.472482 128 162 188
-0.241415 0.931067 -0.0455378 97 246 122
0.111124 0.104096 0.194886 142 141 152
-0.255536 -0.0858897 0.000287684 95 117 128
0.360817 -0.55766 -0.235713 174 56 97
-0.193947 -0.510233 -0.39692 103 62 77
0.00387753 0.512311 0.142669 128 193 146
-0.0405368 -0.469794 -0.42395 122 68 73
0.401323 -0.50825 0.142297 179 63 146
-0.181531 -0.981197 0.157002 104 2 148
-0.131843 -0.844293 -0.397869 111 20 77
-0.46356 0.270208 -0.0576586 68 162 120
0.00966407 -0.95057 0.0499551 129 6 134
-0.00864424 -0.74224 -0.411002 126 33 75
0.118444 -0.179813 -0.32982 143 105 85
-0.343122 -0.436289 0.0491405 84 72 134
0.210057 -0.976074 -0.273906 154 3 93
0.194341 0.577344 -0.0259295 152 201 124
-0.0124987 -0.885103 0.306343 126 15 167
0.0380044 0.451371 -0.0312633 132 185 124
0.0706914 0.115971 0.257136 137 142 160
0.331815 -0.139367 0.0562224 170 110 135
-0.0888731 0.746532 -0.0552937 116 223 120
-0.117862 -0.319719 0.352698 112 87 172
0.4419 -0.703367 -0.0428582 184 38 122
0.10416 0.308358 0.240904 141 167 158
-0.267851 0.513461 0.0897249 93 193 139
0.0968553 -0.951504 -0.0826849 140 6 117
0.19491 -0.456358 0.352317 152 69 172
-0.133908 -0.0640843 0.270765 110 119 162
-0.142228 0.0621717 0.187742 109 135 151
0.172907 0.201267 -0.396501 150 153 77
0.0877249 0.437442 -0.151946 139 183 108
0.228531 -0.402107 0.30253 157 76 166
0.0522069 0.713213 0.0319217 134 218 132
-0.330821 -0.290307 -0.031811 85 90 123
0.0790116 0.427632 0.0129702 138 182 129
-0.337417 -0.705847 0.11579 84 38 142
0.0326241 0.208101 0.250015 132 154 159
-0.216451 0.759283 0.094533 100 224 140
0.310534 -0.42232 0.216714 167 74 155
0.313181 0.301155 0.269184 167 166 162
0.22493 0.153406 0.0868744 156 147 139
-0.0695291 0.383866 -0.0509472 119 176 121
0.0498816 0.473457 -0.108214 134 188 114
-0.0724546 -0.0215176 -0.197462 118 125 102
0.0185738 0.405519 0.231009 130 179 157
-0.150173 0.310524 0.23028 108 167 157
-0.119021 -0.133963 0.268171 112 110 162
-0.0889208 0.616017 -0.260427 116 206 94
0.285515 -0.823433 -0.256854 164 23 95
0.0865716 0.426788 -0.243503 139 182 96
0.303187 0.388624 0.0758189 166 177 137
0.0294397 0.385652 -0.181444 131 177 104
0.0809361 0.33103 0.137985 138 170 145
0.136599 0.703781 -0.0050185 145 217 127
0.11687 0.432974 0.0417883 142 183 133
-0.111039 -0.012828 0.257193 113 126 160
-0.315054 -0.652106 0.154938 87 44 147
0.29906 -0.576192 0.236258 166 54 158
0.157434 -0.596256 -0.38389 148 51 79
-0.0765928 -0.996839 -0.240559 118 0 97
-0.100161 -0.504613 -0.411243 115 63 75
-0.135488 0.323795 0.0483263 110 169 134
-0.0594606 -0.285316 0.338693 120 91 171
0.297231 0.776809 0.20694 165 227 154
0.10958 0.680802 -0.208104 141 214 101
-0.169642 0.186112 0.102733 106 151 141
0.157879 0.383135 0.210736 148 176 154
0.249993 0.0909446 0.0560591 159 139 135
-0.0250272 0.225751 0.244172 124 156 159
0.094089 0.251626 -0.20602 139 160 101
-0.35726 0.555696 0.0618556 82 198 135
-0.303876 -0.579671 0.219467 89 54 155
-0.0130237 0.684958 -0.0289941 126 215 124
0.0508209 0.361532 -0.239078 134 174 97
-0.35292 0.252487 -0.0147616 83 160 126
0.202997 -0.151991 -0.246786 153 108 96
-0.130399 -0.339094 -0.36966 111 84 80
-0.0985291 0.0381964 0.244388 115 132 159
-0.0665068 0.599798 -0.332885 119 204 85
0.320548 -0.428347 -0.249723 168 73 96
-0.148052 0.109582 -0.117108 109 141 113
-0.0476747 0.499776 0.0190249 121 191 130
-0.199497 -0.477764 -0.344624 102 67 84
0.174972 -0.61868 0.333046 150 49 170
0.348616 0.308852 0.292959 172 167 165
-0.322687 0.541539 0.0749482 86 197 137
0.156362 0.0653235 0.143528 147 136 146
-0.118689 0.267408 -0.456219 112 162 69
0.332052 -0.163623 0.0949373 170 107 140
0.193662 0.262735 -0.12616 152 161 111
0.0839855 -0.949782 0.0774698 138 6 137
0.0143674 0.895527 0.0339018 129 242 132
-0.0848078 0.244743 -0.33837 117 159 84
0.0175355 -0.725482 -0.450035 130 35 70
0.263555 -0.815685 0.236368 161 24 158
0.223191 0.482825 0.217633 156 189 155
0.210464 0.414933 -0.127335 154 180 111
-0.36101 -0.740738 -0.106298 81 33 114
-0.0162401 -0.974749 -0.347712 125 3 83
-0.267668 -0.0563036 -0.121731 93 120 112
0.148177 0.360677 -0.108647 146 173 114
0.286054 -0.208483 -0.23174 164 101 98
0.007467 0.318977 -0.152407 128 168 108
0.31977 0.0840319 0.00726508 168 138 128
0.114983 0.48788 -0.0168796 142 190 125
0.246202 0.591143 0.0339536 159 203 132
0.0013457 0.460394 -0.178072 128 186 105
0.192694 0.104138 -0.206915 152 141 101
0.245297 0.548261 0.0730662 159 197 137
0.283036 0.906376 -0.0777312 164 243 118
0.358064 -0.347724 -0.12952 173 83 111
0.172312 0.00769485 -0.107182 149 128 114
0.0857397 -0.68078 -0.422836 138 41 74
-0.194868 -0.416474 -0.348477 103 74 83
-0.00150825 0.592642 0.173086 127 203 150
-0.060427 0.57917 0.0094953 120 201 129
-0.371174 -0.445977 0.100996 80 71 140
-0.135016 -0.0192143 -0.124468 110 125 112
0.0477995 0.134693 -0.219878 134 145 99
-0.158106 0.181147 -0.251163 107 151 95
0.434878 -0.407305 0.012964 183 76 129
0.479548 0.672657 0.0319354 189 213 132
-0.356834 -0.631084 -0.124619 82 47 112
0.184885 -0.793768 -0.375027 151 26 80
0.0751316 0.708334 -0.244412 137 218 96
0.262467 0.245541 0.244179 161 159 159
0.196372 -0.673491 -0.422199 153 42 74
-0.216067 -0.904964 0.216073 100 12 155
-0.255091 -0.186163 -0.208034 95 104 101
-0.139458 0.87195 -0.0819796 110 239 117
0.0976982 0.369196 0.135698 140 175 145
-0.20357 0.892758 -0.0622026 102 241 120
-0.146466 0.12556 -0.211495 109 144 101
0.224244 0.166278 0.14804 156 149 146
0.178792 -0.00911008 0.222669 150 126 156
-0.0620574 0.648776 -0.0585529 120 210 120
0.290468 -0.92905 0.0980747 165 9 140
-0.139079 -0.899833 -0.361806 110 13 81
-0.18027 -0.00326983 0.0366389 105 127 132
0.106026 0.775278 -0.294963 141 226 90
-0.038528 0.200375 -0.227947 123 153 98
0.0245871 0.453294 0.0919537 131 185 139
-0.263215 -0.965882 0.0113587 94 4 129
-0.102323 0.770443 -0.0171412 114 226 125
0.0767753 -0.466186 -0.4222 137 68 74
0.297527 -0.665293 -0.325033 165 43 86
-0.121956 0.324034 0.0968208 112 169 140
0.199834 0.878423 -0.0953309 153 239 115
0.209504 -0.135202 0.212327 154 110 155
-0.107042 0.312023 0.141666 114 167 146
-0.331108 -0.710395 -0.209865 85 37 101
-0.375187 -0.644299 0.0787632 80 45 138
0.199215 0.183799 0.0845273 153 151 138
-0.0564416 0.706757 -0.0269689 120 218 124
0.11676 -0.110718 0.269004 142 113 162
0.355304 -0.308468 0.155885 173 88 147
0.0738714 -0.507802 0.416175 137 63 181
0.150871 0.204138 -0.286081 147 154 91
0.0691361 -0.658142 0.353077 136 44 173
0.119675 0.340337 0.254621 143 171 160
-0.101512 0.407519 0.166506 115 179 149
-0.0555041 -0.319644 -0.382137 120 87 79
-0.336982 -0.891745 -0.0448482 85 14 122
0.242677 -0.00105453 -0.00836154 158 127 126
0.364137 -0.725287 -0.168808 174 35 106
0.392746 -0.392786 0.141417 178 77 146
0.266479 -0.173608 -0.208085 161 105 101
0.106668 0.454509 -0.2937 141 185 90
-0.336024 -0.351622 0.201051 85 83 153
-0.167121 0.0204475 -0.0624339 106 130 120
0.226942 0.84232 -0.033967 156 235 123
-0.411897 -0.691351 -0.0291439 75 39 124
0.295577 0.543088 0.221224 165 197 156
0.222495 0.496564 -0.179371 156 191 105
-0.0705929 0.260639 -0.1182 118 161 112
-0.194522 -0.356331 -0.338941 103 82 84
-0.370983 -0.795301 0.0043053 80 26 128
0.194518 0.63537 0.056316 152 209 135
0.0333121 -0.521405 -0.397895 132 61 77
0.365228 -0.87974 -0.0863546 174 15 116
-0.303493 0.167883 0.0981694 89 149 140
-0.1451 0.628087 0.105667 109 208 141
-0.0161926 -0.0455646 0.218245 125 122 155
0.171058 0.164335 -0.203009 149 148 102
-0.115065 0.214596 0.271582 113 155 162
0.0776611 -0.736514 -0.413072 137 34 75
-0.250691 -0.882239 0.210924 96 15 154
0.101695 -0.133754 -0.315125 140 110 87
0.0743305 -0.996244 -0.219088 137 0 100
-0.119197 -0.300616 -0.382227 112 89 79
-0.0493321 -0.556601 -0.431634 121 57 72
-0.281418 -0.20501 0.140026 92 101 145
-0.214778 0.314977 -0.10231 100 168 114
-0.0120799 -0.322203 -0.374895 126 86 80
-0.131541 -0.503113 0.341494 111 63 171
0.344186 -0.731692 -0.215424 171 34 100
0.318767 0.929609 -0.0732739 168 246 118
-0.143639 -0.854177 0.275895 109 19 163
-0.0680614 0.262053 -0.483519 119 161 66
0.370239 -0.439867 0.178251 175 71 150
0.0832445 -0.533346 -0.404302 138 59 76
0.0454278 0.0564865 -0.239926 133 135 97
0.343848 -0.664292 0.223959 171 43 156
0.11177 -0.281182 -0.331115 142 92 85
-0.111029 -0.963784 0.206104 113 5 154
-0.00264987 0.576814 0.445023 127 201 184
0.262207 0.0752851 -0.0320391 161 137 123
0.0232143 0.857851 0.305807 130 237 166
0.196578 0.343787 -0.16077 153 171 107
0.182331 -0.356962 0.323328 151 82 169
-0.187855 0.305615 -0.131464 104 166 111
0.018705 0.57932 -0.285187 130 201 91
0.0921334 -0.370687 0.349564 139 80 172
0.0627697 0.424997 0.413977 136 182 180
0.100448 0.364784 0.181988 140 174 151
0.284904 -0.51367 0.284084 164 62 164
-0.126936 -0.539524 0.324951 111 59 169
-0.0404576 -0.952352 -0.11302 122 6 113
-0.156961 -0.711209 -0.393469 107 37 77
0.178698 0.470718 -0.185177 150 188 104
0.312533 0.115474 -0.0527731 167 142 121
0.293008 0.611529 0.00766723 165 205 128
-0.0716806 0.417416 -0.101969 118 181 114
0.129836 -0.435292 -0.359295 144 72 82
0.00213535 0.0130057 0.360047 128 129 173
-0.362782 -0.858488 0.0222776 81 18 130
-0.149192 0.411633 -0.152338 108 180 108
-0.358224 -0.398731 -0.0250245 82 77 124
-0.0715282 0.493561 0.18003 118 190 150
0.0683038 0.517931 -0.00429378 136 194 127
0.0614506 -0.577965 -0.432456 135 54 72
-0.070427 -0.45152 0.350174 119 70 172
-0.0207089 0.459552 0.0404307 125 186 133
0.417832 -0.618557 -0.169427 181 49 106
-0.158089 -0.574665 -0.403717 107 54 76
0.0370743 -0.484847 0.359261 132 66 173
-0.239373 0.172285 -0.017714 97 149 125
0.0607381 0.653971 0.11618 135 211 142
-0.0242249 0.541348 0.0366333 124 197 132
-0.0191709 0.247421 -0.250645 125 159 96
0.393165 -0.571988 0.143293 178 55 146
-0.0221249 -0.234646 0.330305 125 98 170
-0.182094 -0.652244 0.299477 104 44 166
-0.144997 0.177324 0.190515 109 150 152
-0.00929462 0.557428 -0.0377118 126 199 123
0.0894226 0.418648 0.446017 139 181 184
-0.249239 0.797136 0.134024 96 229 145
0.0399617 -0.997502 -0.25082 133 0 96
-0.0406241 -0.991674 -0.216646 122 1 100
0.0249846 0.137035 0.225487 131 145 156
0.213949 0.456696 0.169822 155 186 149
0.235463 -0.344006 0.287941 158 84 164
0.278485 -0.961787 -0.160059 163 5 107
-0.299147 -0.132373 0.0794512 89 111 138
0.262337 -0.245876 0.229748 161 96 157
0.333923 -0.558497 0.185648 170 56 151
0.384115 -0.407853 0.0510834 176 75 134
-0.305613 -0.253441 0.187547 89 95 151
-0.149383 -0.957153 -0.10512 108 5 114
-0.270469 -0.410587 -0.264857 93 75 94
0.242614 0.194185 0.24883 158 152 159
0.258434 0.501984 -0.117324 160 192 113
0.19783 0.113883 -0.1474 153 142 109
-0.28367 -0.631034 0.226116 91 47 156
0.341168 0.397458 0.115584 171 178 142
0.262861 -0.601243 -0.29521 161 51 90
0.346855 -0.112327 -0.111978 172 113 113
0.372806 -0.292278 -0.0993485 175 90 115
0.106469 0.750348 -0.229988 141 223 98
-0.274463 -0.355143 -0.261912 93 82 94
-0.0297747 0.735086 0.232516 124 221 157
0.15383 -0.310341 0.362185 147 88 174
-0.330491 -0.772116 -0.273229 85 29 93
0.208882 0.657942 0.120283 154 211 143
-0.144784 0.364795 0.125313 109 174 143
0.248475 0.349832 0.0334179 159 172 132
0.106515 -0.5031 0.36209 141 63 174
-0.266091 -0.917369 0.114438 94 11 142
0.232904 -0.193985 -0.256255 157 103 95
-0.00526351 0.55712 -0.221578 127 199 99
0.17536 -0.41025 0.346021 150 75 172
0.30508 -0.115223 0.0663014 166 113 136
0.052853 0.357417 0.153592 134 173 147
-0.147688 0.230437 -0.290964 109 157 90
-0.0380775 -0.168747 0.342338 123 106 171
-0.285572 -0.758917 0.184517 91 31 151
0.00509293 0.481478 -0.0461933 128 189 122
-0.0431794 -0.0967992 0.25849 122 115 160
0.165619 -0.01446 0.16227 149 126 148
0.391682 -0.580393 0.0534211 177 53 134
0.0593401 0.758924 -0.260041 135 224 94
0.0305686 0.0997366 0.213371 131 140 155
-0.0700073 0.349899 0.199179 119 172 153
0.22999 0.235702 -0.0549547 157 158 120
-0.335595 -0.477528 0.129526 85 67 144
0.414956 -0.359763 -0.0728034 180 82 118
0.152575 -0.304467 -0.366618 147 89 81
0.0566895 -0.777253 0.322856 135 28 169
-0.0921118 -0.970955 -0.345302 116 4 83
-0.0691919 -0.208101 -0.347555 119 101 83
-0.041067 0.240176 0.274932 122 158 163
0.0348406 -0.84665 0.320007 132 20 168
-0.166622 -0.385309 0.280954 106 78 163
0.219024 -0.698652 0.307062 155 38 167
0.212994 0.173938 -0.163231 155 150 107
-0.208511 -0.979914 0.102632 101 3 141
0.330743 -0.458433 0.266056 170 69 161
0.145754 -0.898624 0.315155 146 13 168
0.149058 0.198718 -0.332078 147 153 85
0.0556787 0.392632 0.318123 135 178 168
0.0115542 0.448915 -0.0989239 129 185 115
-0.273268 -0.720576 -0.317137 93 36 87
0.259532 -0.979946 -0.131896 161 3 111
-0.222013 -0.97163 -0.186977 99 4 104
0.00441902 0.405412 -0.15501 128 179 108
0.333753 -0.918778 -0.176832 170 10 105
-0.225792 0.399621 0.134236 99 178 145
-0.135405 0.263965 0.208403 110 161 154
-0.251027 0.456802 0.0572511 95 186 135
0.264959 -0.172966 0.242279 161 105 158
-0.000774263 0.505207 0.286119 127 192 164
-0.158833 0.356097 -0.183899 107 173 104
