ply
format ascii 1.0
comment Created by Open3D
element vertex 1195
property double x
property double y
property double z
property uchar red
property uchar green
property uchar blue
end_header
-0.199721 -0.196912 -0.281447 102 102 92
-0.0847423 0.00464333 0.158198 117 128 148
0.287853 -0.239604 0.190764 164 97 152
-0.258167 0.40358 -0.387288 95 179 78
0.419038 -0.42686 -0.0142027 181 73 126
-0.378836 -0.443143 0.0655943 79 71 136
0.288773 -0.870829 -0.232598 164 16 98
-0.0694562 -0.481882 -0.444279 119 66 71
0.264348 0.0159498 0.00350777 161 130 128
0.154791 -0.68739 -0.419854 147 40 74
0.191738 0.0534928 -0.134899 152 134 110
-0.00835216 0.631544 -0.395429 126 208 77
-0.378836 -0.597833 0.0924048 79 51 139
0.345764 -0.207038 0.140282 172 101 145
0.239924 0.14305 0.0326493 158 146 132
0.358258 -0.589691 0.239613 173 52 158
0.134083 0.00464333 -0.148153 145 128 109
0.0770922 -0.312878 0.334852 137 88 170
0.419038 -0.418718 0.0129844 181 74 129
0.337622 -0.0812949 0.101207 171 117 140
-0.134589 -0.264029 -0.323496 110 94 86
-0.0357015 0.517562 0.190764 123 193 152
0.191074 0.615261 0.0537394 152 206 134
0.0292541 -0.239604 -0.379146 131 97 79
0.337622 -0.250871 -0.159324 171 96 107
0.337622 -0.604899 0.239613 171 50 158
-0.159013 -0.0429143 -0.134899 107 122 110
0.345764 -0.7497 0.133773 172 32 145
-0.175297 0.224466 -0.0201566 105 156 125
-0.264854 -0.16394 -0.143041 94 107 109
0.0689506 0.0520136 -0.200032 136 134 102
-0.0682356 -0.785089 0.345454 119 27 172
0.423782 -0.744381 -0.020917 182 33 125
-0.232288 0.445009 0.109348 98 184 141
0.158508 0.411722 0.268208 148 180 162
-0.232288 0.924641 -0.0426693 98 245 122
0.0258926 0.14305 -0.257023 131 146 95
-0.230955 0.14305 -0.0860496 98 146 117
-0.0694562 -0.337303 0.331219 119 84 170
-0.0863501 0.60712 0.109348 116 205 141
-0.354411 -0.646682 -0.173593 82 45 105
-0.216004 -0.451285 -0.315866 100 70 87
0.357082 0.102342 -0.0453417 173 141 122
0.291811 -0.907213 0.11749 165 12 142
0.36466 -0.646682 0.182622 174 45 151
-0.256712 -0.451285 0.225954 95 70 156
0.0933753 0.110484 0.314875 139 142 168
-0.14273 0.142003 0.125631 109 146 144
-0.336532 -0.679249 -0.216315 85 41 100
0.362047 0.0757964 0.0279325 174 137 131
0.0928244 0.0697759 0.255896 139 136 160
0.101517 -0.109339 -0.252769 140 114 95
-0.329986 -0.288453 -0.13536 85 91 110
0.313697 -0.923496 0.0604987 167 10 135
0.227855 0.0697759 0.0849234 157 136 138
-0.509101 0.587227 0.0686403 63 202 136
-0.137952 0.0534928 -0.118616 110 134 112
-0.170115 0.00464333 0.0279325 106 128 131
0.0119595 -0.728219 -0.444279 129 35 71
0.0808988 0.00464333 0.182622 138 128 151
-0.29742 -0.231462 0.115413 90 98 142
-0.0043236 -0.247745 -0.345399 127 96 83
0.305056 0.0942006 -0.0719866 166 140 118
-0.232288 -0.215179 -0.234679 98 100 98
0.0363842 -0.0604893 0.359689 132 120 173
-0.199721 -0.516417 -0.381869 102 62 79
-0.150872 -0.565267 0.346709 108 55 172
-0.0694562 -0.451285 -0.380043 119 70 79
0.27249 -0.084914 0.148116 162 117 146
0.207357 -0.84208 -0.338758 154 20 84
-0.126447 -0.0039044 -0.208173 111 127 101
-0.313703 0.0209264 -0.216321 88 130 100
-0.0870115 0.257032 -0.517553 116 160 62
-0.219049 0.76181 0.0849234 100 225 138
0.174791 0.257032 0.142453 150 160 146
0.102452 0.436147 -0.0534832 141 183 121
0.349873 -0.646682 0.141914 172 45 146
-0.134589 0.362872 -0.102274 110 174 114
0.1178 0.0569456 0.133773 143 135 145
-0.053173 0.655969 0.0256532 121 211 131
0.231782 -0.5327 0.294664 157 60 165
-0.0437858 -0.84208 -0.395429 122 20 77
0.288773 0.76074 0.133773 164 224 145
0.345764 -0.245115 -0.175607 172 96 105
0.320258 -0.264029 0.22333 168 94 156
0.248065 -0.231462 0.231727 159 98 157
-0.240429 0.0779175 -0.0168035 97 137 125
0.150366 0.330306 0.176827 147 170 150
0.0608089 -0.574415 -0.436137 135 54 72
-0.272995 0.824121 0.174481 93 233 150
0.215499 0.0697759 0.0916897 155 136 139
-0.134589 0.151192 0.159409 110 147 148
-0.305562 -0.939939 -0.0290586 89 8 124
0.353906 -0.230801 0.11749 173 98 142
0.272392 0.428005 -0.020917 162 182 125
0.291974 -0.125622 0.207047 165 111 154
-0.0694562 0.76181 -0.0933135 119 225 116
0.312178 -0.158188 0.0849234 167 107 138
0.010823 -0.0360645 0.288463 129 123 164
-0.188909 -0.418718 0.321029 103 74 168
-0.0043236 0.965349 0.0252644 127 251 131
0.294906 -0.0930555 0.0686403 165 116 136
0.0852337 0.168364 -0.19189 138 149 103
0.0328986 0.265174 0.516427 132 161 193
0.052621 -0.752523 0.345454 134 32 172
-0.127296 -0.711815 0.361737 111 37 174
0.125942 -0.475709 0.350979 144 67 172
0.157601 0.444288 0.239613 148 184 158
-0.0963064 0.273315 -0.50127 115 162 64
0.379408 -0.32102 -0.102333 176 87 114
-0.216004 0.086059 0.161708 100 138 148
0.435321 0.615261 0.242322 183 206 158
0.101517 -0.524559 0.403434 140 61 179
0.0689506 -0.703673 -0.403819 136 38 76
0.0852337 0.086059 0.274433 138 138 162
-0.216004 0.675108 0.247755 100 214 159
0.191074 -0.206761 -0.314014 152 101 87
-0.240429 0.668466 0.182622 97 213 151
-0.0124651 -0.356591 0.361737 126 82 174
0.0376966 0.265174 0.540852 132 161 196
0.362047 0.0453512 0.0335753 174 133 132
0.0852337 0.0676 0.329171 138 136 169
0.166649 -0.016564 0.182622 149 125 151
0.250557 -0.58155 -0.314014 159 53 87
0.321339 -0.471685 0.198905 168 67 153
0.280631 0.574428 0.174481 163 201 150
0.395513 -0.646682 0.093065 178 45 139
-0.150872 0.591923 0.0849234 108 203 138
-0.240429 -0.435002 -0.304727 97 72 89
0.386472 -0.395326 0.133773 177 77 145
-0.102022 0.421046 0.182622 114 181 151
0.22364 0.900762 -0.0941911 156 242 115
0.337622 -0.548984 0.182655 171 58 151
-0.150119 0.175616 0.190764 108 150 152
0.0363842 0.281457 0.272146 132 163 162
0.434131 -0.443143 0.0442156 183 71 133
0.264348 -0.662966 -0.334777 161 43 85
0.351664 -0.597833 -0.19189 172 51 103
-0.14273 0.314023 -0.16645 109 168 106
-0.264854 -0.225718 -0.208173 94 99 101
-0.119272 -0.264029 -0.362863 112 94 81
0.0608089 -0.119881 -0.281447 135 112 92
-0.321845 -0.759382 0.166339 86 31 149
0.174791 0.460571 0.246488 150 186 159
-0.0938809 0.509421 0.268039 116 192 162
-0.0206067 -0.144251 0.312887 125 109 167
-0.0124651 -0.0197814 0.221572 126 125 156
0.394613 -0.597833 -0.160379 178 51 107
-0.0775977 0.318477 0.109348 118 168 141
-0.0368898 0.563828 -0.314014 123 199 87
0.305056 -0.475709 0.274524 166 67 163
-0.053173 -0.131845 0.296604 121 111 165
0.150366 -0.103556 0.280321 147 114 163
-0.159013 0.151192 -0.2178 107 147 100
-0.118306 -0.207038 0.286942 112 101 164
0.191074 -0.101197 -0.260676 152 115 94
0.231782 -0.858363 -0.336429 157 18 85
0.394613 0.383079 0.247755 178 176 159
-0.203097 -0.158188 0.190764 102 107 152
-0.386977 -0.522379 -0.020917 78 61 125
-0.203959 -0.345444 -0.338438 101 83 84
-0.0320746 -0.451285 -0.395429 123 70 77
0.070512 -0.182613 0.329171 136 104 169
0.410897 0.819472 0.207047 180 232 154
0.171689 0.419863 -0.0290586 149 181 124
-0.0368898 -0.133763 -0.284073 123 110 91
0.0363842 -0.964204 -0.339466 132 5 84
0.00115454 0.476854 -0.200032 128 188 102
0.374873 -0.58155 -0.143041 175 53 109
0.00381801 -0.540842 -0.429236 128 59 73
0.334488 0.102342 -0.0127753 170 141 126
-0.175749 -0.0360645 0.093065 105 123 139
-0.216004 0.0697759 -0.12067 100 136 112
-0.126447 -0.459426 0.318756 111 69 168
0.0693731 -0.500134 0.394303 136 64 178
0.0456544 -0.223321 -0.395429 133 99 77
-0.240429 0.786234 0.168367 97 228 149
0.0201011 -0.882788 0.291766 130 15 165
0.0933753 -0.386152 0.352488 139 78 172
0.0201011 -0.223321 -0.340546 130 99 84
-0.427685 0.280972 -0.0453417 73 163 122
0.246384 0.615261 -0.0127753 159 206 126
-0.256712 -0.833939 -0.309073 95 21 88
-0.33078 -0.361727 0.109348 85 81 141
-0.378836 0.444288 0.229434 79 184 157
-0.0368898 -0.586855 0.361737 123 53 174
0.0933753 0.484996 -0.152198 139 189 108
0.117221 -0.956062 0.0686403 142 6 136
-0.237828 -0.0686308 -0.0127753 97 119 126
0.264348 -0.27145 0.22333 161 93 156
0.214225 0.0942006 0.27218 155 140 162
-0.0422297 0.0616343 0.198905 122 135 153
-0.0938809 -0.336491 0.337312 116 85 171
-0.370694 -0.7782 0.0523572 80 28 134
0.199216 0.241743 -0.403571 153 158 76
0.191074 0.30594 -0.0127753 152 167 126
0.207357 -0.418835 0.337312 154 74 171
0.435321 0.476854 0.00790897 183 188 129
0.182933 0.00464333 -0.0888614 151 128 116
-0.175297 0.28213 0.0197909 105 163 130
-0.172466 -0.524559 -0.403571 106 61 76
0.113464 -0.776948 0.329171 142 28 169
0.0201011 0.0372096 -0.283211 130 132 91
0.264348 0.55884 -0.224456 161 199 99
0.0573896 0.468713 0.207047 135 187 154
-0.110164 -0.662966 0.328059 113 43 169
0.182933 0.110484 -0.118359 151 142 112
0.286133 0.566412 0.166339 164 200 149
0.0282427 -0.3671 0.418728 131 81 181
-0.159013 0.14305 -0.13945 107 146 110
-0.29742 -0.353408 -0.208173 90 82 101
-0.232288 -0.0604893 0.141486 98 120 146
-0.14273 -0.711815 -0.396145 109 37 77
-0.14273 0.582695 0.00346699 109 202 128
-0.0694562 0.583895 -0.387288 119 202 78
-0.0124651 0.482084 0.174481 126 189 150
0.371148 0.232607 -0.110474 175 157 113
-0.321845 -0.154102 0.0767819 86 108 137
-0.207387 0.493138 0.125631 101 190 144
0.0160146 0.40358 -0.159324 130 179 107
0.0282427 -0.719957 0.346831 131 36 172
-0.0857393 -0.760664 -0.401008 117 31 76
0.0689506 0.647828 0.11661 136 210 142
-0.14273 0.444926 -0.151182 109 184 108
0.159734 0.0616343 -0.0697664 148 135 119
0.198539 -0.0360645 0.190764 153 123 152
0.191074 -0.102768 0.247755 152 114 159
-0.281137 -0.0930555 0.0206584 92 116 130
-0.248571 -0.874646 -0.313555 96 16 88
0.32546 -0.622258 0.247755 169 48 159
-0.313703 -0.154116 -0.0860496 88 108 117
0.394613 0.665663 0.0767819 178 212 137
-0.272995 -0.963937 0.0442156 93 5 133
0.364967 0.395439 -0.330297 174 178 85
-0.362553 -0.516417 -0.0693454 81 62 119
0.27813 -0.68739 -0.322155 163 40 86
0.386472 0.354731 0.270534 177 173 162
0.256207 0.0779175 -0.131335 160 137 111
0.134083 0.476854 0.0181902 145 188 130
0.394613 -0.609249 -0.0941911 178 50 115
0.239924 -0.207038 0.303789 158 101 166
-0.321186 -0.565267 0.207047 87 55 154
0.280631 -0.60745 0.247755 163 50 159
0.109658 0.395439 -0.0771341 141 178 118
0.305056 -0.182778 0.133773 166 104 145
-0.281137 -0.155695 -0.0860496 92 108 117
0.147266 0.550129 0.036074 146 198 132
-0.159013 -0.162248 -0.257023 107 107 95
0.0526675 -0.768806 0.326224 134 29 169
0.22364 0.0840456 0.00350777 156 138 128
-0.0287483 0.413884 0.125631 124 180 144
-0.29742 -0.125622 0.137232 90 111 145
0.267415 -0.451285 -0.265164 162 70 94
0.396436 0.346589 0.255896 178 172 160
0.182933 -0.223321 -0.306788 151 99 88
0.0526675 0.40358 0.0924053 134 179 139
0.0445258 0.453281 0.190764 133 185 152
-0.364995 -0.850222 -0.126757 81 19 111
0.419038 -0.44603 -0.134899 181 71 110
0.296915 -0.852691 -0.240739 165 19 97
0.0770922 -0.239604 -0.328485 137 97 86
-0.0206067 -0.793231 -0.413703 125 26 75
-0.256712 0.11054 0.0767819 95 142 137
0.215499 -0.00349828 0.00189425 155 127 128
0.166649 0.544574 -0.0290586 149 197 124
0.248065 0.086059 0.0544933 159 138 134
-0.0367792 0.582695 0.426869 123 202 182
0.326134 -0.027923 -0.0697664 169 124 119
0.345764 -0.182578 0.11749 172 104 142
-0.0124651 -0.523499 -0.444279 126 61 71
-0.167155 -0.182613 -0.262642 106 104 94
0.313198 0.354731 0.235503 167 173 158
0.0526675 -0.851769 0.321029 134 19 168
0.0784352 0.183758 -0.19189 138 151 103
0.508595 0.691876 0.0442156 192 216 133
0.247165 -0.16633 -0.175607 159 106 105
0.337622 0.59305 0.198905 171 203 153
0.263473 -0.573408 0.304746 161 54 166
0.370189 0.598978 -0.187683 175 204 104
0.166649 0.216324 -0.255729 149 155 95
0.174791 -0.663745 -0.387288 150 43 78
0.38028 -0.378011 0.174481 176 79 150
-0.311045 -0.679249 0.150056 88 41 147
0.0813945 0.354731 -0.126757 138 173 111
-0.14273 0.0626206 0.190764 109 135 152
-0.118306 -0.589691 -0.390966 112 52 78
-0.118306 0.577356 -0.476845 112 201 67
0.385907 -0.410577 0.0523572 177 75 134
-0.0498153 0.615261 -0.468703 121 206 68
0.231782 0.0372096 0.191845 157 132 152
0.215499 -0.417952 0.296604 155 74 165
0.202309 -0.858363 -0.354721 153 18 82
0.313198 0.585396 -0.232598 167 202 98
-0.102022 -0.923496 -0.353549 114 10 82
-0.0368898 -0.760664 -0.390139 123 31 78
-0.305562 -0.0523477 -0.0803035 89 121 117
0.0689506 0.086059 0.255184 136 138 160
0.231782 -0.527295 -0.314014 157 60 87
-0.305562 -0.0360645 -0.0690598 89 123 119
-0.126447 -0.0116398 -0.225191 111 126 99
0.101517 0.453019 0.00350777 140 185 128
-0.207863 -0.547591 0.321029 101 58 168
-0.329701 0.208183 0.101207 85 154 140
0.156798 -0.0930555 0.280321 147 116 163
0.37833 -0.725738 -0.208173 176 35 101
0.00381801 0.566412 -0.132252 128 200 111
0.0445258 -0.84208 -0.396498 133 20 77
-0.338128 0.180795 0.264038 84 151 161
-0.0775977 -0.378011 -0.374864 118 79 80
0.33768 -0.475709 -0.216315 171 67 100
0.235288 0.224466 0.11749 157 156 142
0.248065 0.601649 0.11749 159 204 142
0.264348 0.423273 -0.0290586 161 181 124
0.329481 0.769951 0.144761 170 226 146
-0.492818 0.221314 -0.00463385 65 156 127
-0.321845 -0.566292 -0.314014 86 55 87
-0.141297 -0.0930555 -0.273306 109 116 93
-0.0434641 -0.0930555 -0.257023 122 116 95
-0.0124651 -0.548984 -0.429326 126 58 73
0.323817 -0.866505 0.141914 169 17 146
0.370189 -0.623241 0.198905 175 48 153
0.348868 -0.27217 -0.0941911 172 93 115
-0.0287483 -0.378011 0.342118 124 79 171
0.0689506 0.448906 -0.134899 136 185 110
-0.134589 0.387297 -0.0629404 110 177 119
0.0445258 0.257264 0.231472 133 160 157
0.378733 -0.744381 0.0279325 176 33 131
-0.0450314 0.322165 -0.380175 122 169 79
0.362047 -0.378011 -0.21216 174 79 100
-0.362514 -0.728098 -0.102333 81 35 114
0.125942 0.371014 -0.0686543 144 175 119
0.109658 0.533846 0.0249542 141 196 131
-0.150872 -0.689961 0.353595 108 40 173
0.269623 -0.68739 0.280321 162 40 163
-0.134589 -0.5327 0.31924 110 60 168
-0.411402 -0.510423 -0.0290586 75 62 124
0.337622 -0.484785 -0.273306 171 66 93
0.0201011 -0.956575 -0.200032 130 6 102
-0.281137 0.680394 0.275527 92 214 163
0.0119595 -0.671107 -0.404881 129 42 76
-0.370694 -0.410577 -0.0311079 80 75 124
-0.0206067 0.378297 0.231472 125 176 157
0.350756 -0.630399 0.174481 172 47 150
0.128314 -0.435002 -0.411712 144 72 75
0.296915 -0.455718 0.231472 165 69 157
-0.167763 0.371014 0.239613 106 175 158
-0.289279 -0.376367 0.231472 91 80 157
0.380539 -0.752523 0.166339 176 32 149
0.370189 0.338448 0.278988 175 171 163
-0.19158 -0.0453743 0.0767819 103 122 137
-0.240429 0.682776 0.255896 97 215 160
0.0445258 0.480616 0.207047 133 189 154
-0.126447 -0.190754 0.262292 111 103 161
-0.370694 -0.630399 -0.171402 80 47 106
-0.0124651 -0.613782 0.386162 126 49 177
0.142551 -0.247745 0.304746 146 96 166
-0.264854 0.664111 0.187319 94 212 151
0.231782 0.509421 -0.442469 157 192 71
0.296915 0.354766 -0.167465 165 173 106
0.264348 -0.174471 -0.247473 161 105 96
0.337622 -0.0360645 0.114673 171 123 142
-0.0043236 0.989774 0.0036057 127 254 128
-0.150872 0.86765 -0.0116423 108 238 126
0.1178 -0.435002 -0.361809 143 72 81
0.248065 -0.361727 0.293964 159 81 165
0.26853 -0.0767724 0.0523572 162 118 134
-0.370694 -0.317461 0.0279325 80 87 131
-0.0110223 0.330306 0.215189 126 170 155
0.339433 0.460571 -0.00463385 171 186 127
-0.159013 0.0534928 -0.110078 107 134 113
0.370189 -0.276696 -0.159324 175 92 107
0.158508 0.0444367 0.093065 148 133 139
0.102868 -0.435002 -0.403571 141 72 76
-0.183438 0.709447 0.0523572 104 218 134
-0.338026 -0.768806 -0.167465 84 29 106
-0.216535 -0.32102 -0.322155 100 87 86
-0.0121482 -0.190754 -0.34658 126 103 83
-0.150872 0.151192 -0.208664 108 147 101
0.288773 -0.695532 0.243545 164 39 159
-0.24815 -0.0523477 0.036074 96 121 132
0.0852337 -0.101197 0.26321 138 115 161
-0.313703 0.818801 0.155704 88 232 147
-0.118306 -0.0930555 0.229104 112 116 157
-0.183438 -0.150047 0.223879 104 108 156
0.215499 0.509421 -0.431481 155 192 72
0.416565 -0.508276 0.141914 181 63 146
-0.272995 0.4219 0.247755 93 181 159
-0.0206067 0.810659 0.283788 125 231 164
0.231782 0.086059 -0.118742 157 138 112
0.0770922 0.570203 -0.0697664 137 200 119
-0.313703 -0.125622 0.0905425 88 111 139
0.294551 -0.850222 0.190764 165 19 152
-0.167155 0.252013 -0.330297 106 160 85
-0.0287483 0.595887 0.426869 124 203 182
-0.0206067 -0.42686 0.368628 125 73 175
-0.212148 -0.296595 0.288463 100 90 164
-0.102022 -0.0360645 -0.225981 114 123 99
0.2926 -0.907213 0.101207 165 12 140
0.0445258 -0.68739 -0.418246 133 40 74
0.199216 -0.231462 0.289444 153 98 164
0.419038 0.639686 -0.2207 181 209 99
-0.0694562 0.273315 0.431195 119 162 182
-0.0043236 -0.109339 -0.295362 127 114 90
-0.313703 -0.475709 0.169126 88 67 149
-0.126785 -0.638541 -0.403571 111 46 76
-0.331518 -0.833939 0.0849234 85 21 138
0.134083 -0.963504 0.22333 145 5 156
-0.0775977 0.00464333 -0.164859 118 128 106
-0.199721 0.14305 0.130773 102 146 144
-0.248571 -0.312878 -0.257583 96 88 95
-0.329986 0.826942 0.168197 85 233 149
-0.102022 0.476854 0.234951 114 188 157
0.109658 -0.439068 -0.379146 141 72 79
0.0689506 0.7296 0.158198 136 221 148
-0.167155 -0.662966 -0.365406 106 43 81
0.0608089 0.460571 -0.127133 135 186 111
-0.207863 -0.508276 -0.337778 101 63 84
0.0201011 0.0469294 -0.273306 130 133 93
-0.0124651 -0.459426 -0.396071 126 69 77
0.137865 -0.459426 -0.403571 145 69 76
0.215326 0.696677 0.190764 155 216 152
0.0770922 0.0602497 -0.224456 137 135 99
0.1178 0.433535 -0.0453417 143 183 122
0.0933753 0.395925 0.125631 139 178 144
0.273297 -0.467568 -0.273306 162 68 93
-0.207863 -0.413779 0.304746 101 75 166
0.0201011 0.664111 -0.0491236 130 212 121
-0.305083 -0.231462 0.101207 89 98 140
-0.175297 0.0779175 -0.0925787 105 137 116
0.0827161 0.208183 0.215189 138 154 155
0.25717 -0.304736 0.255896 160 89 160
0.158508 -0.646682 -0.378385 148 45 79
-0.232288 -0.500134 0.259816 98 64 161
-0.118306 0.329796 0.0116493 112 170 129
0.199216 0.29774 -0.0706752 153 165 118
-0.0124651 -0.0412663 -0.273306 126 122 93
-0.0368898 0.232607 -0.53348 123 157 59
0.337622 -0.37225 -0.257023 171 80 95
-0.175297 -0.768806 -0.368419 105 29 81
0.142225 0.0910642 0.231472 146 139 157
0.239924 -0.508276 0.283055 158 63 164
0.305056 0.444288 -0.0145404 166 184 126
-0.00369992 -0.931637 0.264038 127 9 161
0.239924 0.0779175 -0.218659 158 137 100
-0.16811 -0.231462 0.296604 106 98 165
0.150366 0.493138 0.0326631 147 190 132
0.248065 -0.402435 -0.321741 159 76 86
-0.102022 0.501279 -0.019659 114 191 125
-0.317382 -0.443143 0.11749 87 71 142
-0.0368898 -0.174471 -0.360969 123 105 81
-0.0851321 0.590837 0.207047 117 203 154
-0.348441 -0.768806 -0.134899 83 29 110
-0.296832 -0.703673 -0.273306 90 38 93
0.125942 0.484996 -0.318576 144 189 87
-0.0522444 0.314023 -0.427996 121 168 73
-0.305562 -0.565997 -0.314014 89 55 87
-0.0330875 -0.931637 -0.371005 123 9 80
0.0363842 -0.304736 -0.394228 132 89 77
-0.118306 -0.435002 -0.401286 112 72 76
0.0363842 0.0534928 -0.199923 132 134 102
0.317557 -0.467568 -0.232598 168 68 98
-0.11159 0.281457 0.369878 113 163 175
-0.207863 -0.535459 0.337312 101 59 171
0.394613 -0.531833 0.0279325 178 60 131
0.0315465 -0.264029 0.369878 132 94 175
0.0313088 -0.255887 0.329171 131 95 169
0.337622 -0.247745 0.221196 171 96 156
-0.149854 0.541987 -0.281447 108 197 92
-0.0246581 0.631544 -0.427996 124 208 73
0.148907 0.00464333 -0.134899 146 128 110
-0.150872 -0.0801691 0.174481 108 117 150
-0.256712 -0.915354 -0.212165 95 11 100
-0.272995 -0.201824 0.198905 93 102 153
-0.0757286 -0.296595 -0.387288 118 90 78
-0.00787556 0.97349 0.00350777 126 252 128
0.125942 0.208183 -0.195042 144 154 103
-0.183025 0.200041 -0.0372001 104 153 123
0.0363842 -0.483851 0.357655 132 66 173
-0.144458 -0.288453 -0.362863 109 91 81
0.346969 -0.215179 -0.0697664 172 100 119
0.0852337 0.35372 0.182622 138 173 151
0.00381801 -0.0426357 -0.257023 128 122 95
0.142225 0.4966 -0.322155 146 191 86
-0.0368898 -0.451285 0.346305 123 70 172
0.0461203 0.387297 0.109348 133 177 141
-0.354411 -0.679249 -0.204225 82 41 101
-0.224146 -0.113573 -0.216315 99 113 100
0.033533 0.55827 0.312887 132 199 167
0.174791 0.174904 -0.183748 150 150 104
-0.240429 -0.757662 0.239613 97 31 158
0.0926298 0.45243 -0.0534832 139 185 121
0.0748474 0.0942006 0.27218 137 140 162
-0.159013 -0.396065 -0.371005 107 77 80
-0.240429 -0.638541 -0.329278 97 46 86
-0.272995 -0.122877 0.11749 93 112 142
-0.297686 -0.679249 0.190764 90 41 152
-0.149902 -0.964204 -0.110474 108 5 113
-0.30968 -0.719957 0.150056 88 36 147
0.321339 0.086059 0.105503 168 138 141
-0.264854 -0.169857 -0.159324 94 106 107
0.402755 -0.459426 0.0647383 179 69 136
0.37344 -0.907213 0.0197909 175 12 130
-0.19158 -0.860991 -0.338438 103 18 84
0.353906 -0.16633 0.117003 173 106 142
-0.102022 0.00141488 0.231472 114 128 157
-0.290633 -0.695532 -0.281447 90 39 92
-0.281137 0.397657 -0.175607 92 178 105
-0.110164 0.126767 -0.133585 113 144 110
0.193044 -0.378011 0.304746 152 79 166
0.276504 -0.58155 0.255896 163 53 160
-0.0857393 -0.703673 0.338593 117 38 171
0.330642 -0.540842 0.190764 170 59 152
-0.357297 -0.73624 0.11749 82 34 142
-0.139748 0.574553 -0.34658 110 201 83
0.285309 -0.125622 0.150056 164 111 147
-0.0206067 -0.500134 -0.456337 125 64 69
-0.354411 -0.280312 -0.0560073 82 92 120
0.0654087 0.778093 -0.281447 136 227 92
-0.240429 -0.113604 -0.19189 97 113 103
0.352811 -0.776948 0.093065 172 28 139
0.101517 0.113401 -0.200032 140 142 102
0.279459 -0.027923 0.0197909 163 124 130
0.0363842 -0.231462 0.341424 132 98 171
0.0852337 0.0942006 0.143656 138 140 146
0.353906 -0.50985 -0.248881 173 62 96
-0.297209 0.118625 0.125631 90 143 144
-0.14273 0.411722 -0.132887 109 180 111
0.150366 -0.768806 -0.404561 147 29 76
-0.053173 0.330306 0.125463 121 170 143
-0.357238 -0.304736 0.0442156 82 89 133
-0.0775977 -0.133763 -0.295985 118 110 90
0.174791 -0.00874331 -0.118616 150 126 112
0.0814979 -0.451285 -0.411712 138 70 75
-0.310345 -0.695532 -0.257023 88 39 95
0.256207 0.544691 -0.232598 160 197 98
0.0445258 0.428005 0.076515 133 182 137
0.222938 0.509421 0.101207 156 192 140
-0.224146 0.659707 0.166339 99 212 149
-0.0206067 0.29774 -0.272189 125 165 93
0.125942 -0.345444 0.357573 144 83 173
0.333355 -0.00349828 -0.0616248 170 127 120
-0.183438 -0.500134 -0.352028 104 64 83
0.156171 0.265174 0.141914 147 161 146
-0.361905 0.281457 -0.0453417 81 163 122
0.0201011 0.623762 0.492002 130 207 190
0.0275721 0.71296 -0.224456 131 218 99
-0.134589 0.0452051 -0.110474 110 133 113
0.142225 0.3363 0.141914 146 170 146
-0.264854 -0.141905 -0.0977591 94 109 115
0.264348 -0.126278 0.22333 161 111 156
0.312726 -0.133763 0.0767819 167 110 137
0.0119595 0.440259 -0.126757 129 184 111
0.353906 -0.913798 0.00350777 173 11 128
0.0119595 0.599486 0.492002 129 204 190
-0.0359715 0.631544 -0.45242 123 208 70
0.161535 0.322165 0.174481 148 169 150
-0.240429 -0.296595 -0.329422 97 90 85
-0.29742 -0.475709 0.196016 90 67 152
0.231782 0.718301 0.190764 157 219 152
-0.134589 0.591686 -0.460562 110 203 69
-0.313703 -0.157637 0.0604987 88 107 135
-0.115851 0.371014 -0.19189 113 175 103
-0.306546 0.118625 0.158198 88 143 148
0.182632 0.29774 0.093065 151 165 139
-0.256712 0.932783 -0.0810494 95 246 117
-0.150872 -0.964204 -0.0113818 108 5 126
-0.159013 -0.899071 0.25109 107 13 160
0.142225 -0.264029 0.299146 146 94 166
-0.395119 -0.68739 -0.0344753 77 40 123
0.101517 0.0831459 0.264038 140 138 161
0.22364 -0.32102 0.278822 156 87 163
0.297736 -0.150047 0.109348 165 108 141
0.191074 -0.0446233 -0.281447 152 122 92
0.013919 0.330306 -0.143041 129 170 109
0.22364 -0.760664 -0.343636 156 31 84
-0.248571 0.160717 -0.110474 96 148 113
0.370042 -0.0197814 0.0686403 175 125 136
0.370593 -0.793231 0.0116493 175 26 129
-0.183389 -0.410577 -0.354721 104 75 82
-0.216202 0.134908 -0.0697664 100 145 119
0.134837 0.191899 -0.354721 145 152 82
0.22748 0.338448 0.150056 157 171 147
0.191074 -0.671107 0.305573 152 42 166
-0.240429 0.32769 -0.0779079 97 169 118
-0.232288 -0.281675 0.264038 98 92 161
-0.281137 0.46705 0.141914 92 187 146
-0.216004 -0.657219 -0.387288 100 44 78
0.313198 -0.28042 -0.208173 167 92 101
-0.0898868 -0.630399 0.361737 116 47 174
-0.427685 0.582695 0.0224045 73 202 130
0.197813 -0.785089 -0.354721 153 27 82
0.256207 0.118625 0.0423528 160 143 133
0.162144 0.346589 0.190764 148 172 152
0.53302 0.460571 0.0286786 195 186 131
0.161079 0.29774 0.158198 148 165 148
0.0778603 0.0127848 -0.183748 137 129 104
0.419038 0.615261 0.24335 181 206 159
-0.371371 -0.646682 -0.0290586 80 45 124
0.0282427 -0.475363 -0.403571 131 67 76
0.280631 -0.126806 -0.110474 163 111 113
0.0933753 -0.328456 0.353595 139 86 173
0.0201011 0.312094 0.312887 130 167 167
0.420501 -0.5327 0.109348 181 60 141
0.158508 0.321555 0.158198 148 168 148
0.101517 0.484996 0.0193145 140 189 130
0.0119595 0.647828 -0.167777 129 210 106
-0.00990581 0.0534928 0.345454 126 134 172
-0.244837 -0.459426 0.264038 96 69 161
0.103832 0.533846 0.158198 141 196 148
-0.19158 0.131829 -0.0860496 103 144 117
-0.273476 -0.223321 0.150056 93 99 147
0.331651 -0.491993 -0.281447 170 65 92
-0.14273 -0.207038 0.261708 109 101 161
0.264348 -0.27217 -0.298214 161 93 89
0.353906 -0.0686308 0.0729171 173 119 137
-0.263696 -0.174471 0.239613 94 105 158
-0.0368898 0.639686 -0.090527 123 209 116
0.159695 0.232607 0.141914 148 157 146
0.207357 -0.529957 -0.387288 154 60 78
-0.205421 0.395439 0.247755 101 178 159
-0.150872 0.6509 0.239613 108 210 158
0.372224 -0.304736 0.0116493 175 89 129
-0.175297 -0.548984 -0.410681 105 58 75
-0.126908 0.582695 0.00350777 111 202 128
0.0586912 0.240749 0.239613 135 158 158
-0.0206067 -0.0577768 0.231472 125 120 157
-0.264854 -0.331924 -0.257023 94 85 95
-0.118306 0.297176 0.0849234 112 165 138
0.150366 0.509421 0.128418 147 192 144
0.215499 0.460571 -0.224255 155 186 99
0.264348 0.421671 -0.0127753 161 181 126
0.0445258 -0.37846 0.386162 133 79 177
0.123209 0.566412 0.158198 143 200 148
0.0608089 0.764266 0.174481 135 225 150
-0.110164 0.314023 0.138654 113 168 145
-0.110164 0.268102 0.141914 113 162 146
-0.175297 0.900322 -0.0860496 105 242 117
0.150366 -0.964204 -0.292943 147 5 90
0.1178 0.541987 0.172306 143 197 149
0.182933 0.428005 -0.0272628 151 182 124
-0.305562 -0.378011 0.232722 89 79 157
0.264348 -0.97791 -0.134899 161 3 110
0.248065 -0.231462 0.247297 159 98 159
-0.0206067 0.00464333 -0.190228 125 128 103
0.1178 0.769951 -0.243921 143 226 96
0.00835039 0.444288 -0.183748 129 184 104
0.166084 0.493138 -0.362863 149 190 81
0.0689506 -0.785089 0.322768 136 27 169
0.296915 0.916629 -0.0616248 165 244 120
0.125942 0.615261 -0.125645 144 206 111
0.0608089 0.798416 0.198905 135 229 153
0.0933753 -0.605975 0.344856 139 50 171
0.329481 -0.496958 0.190764 170 64 152
0.0526675 0.330306 -0.166861 134 170 106
-0.0368898 -0.148379 -0.338438 123 109 84
-0.14273 0.0697759 0.150568 109 136 147
-0.0817589 -0.630399 0.37802 117 47 176
-0.386977 -0.483591 -0.183748 78 66 104
-0.216004 -0.0844655 -0.167465 100 117 106
-0.150872 -0.0930555 -0.221273 108 116 99
0.418387 0.362872 0.255896 181 174 160
-0.333711 -0.369869 -0.134899 85 80 110
-0.0613146 0.215967 0.198905 120 155 153
0.158508 -0.439253 0.361737 148 71 174
0.379694 -0.768806 0.150056 176 29 147
-0.126447 -0.968144 -0.29773 111 4 90
-0.364375 -0.638541 0.0197909 81 46 130
0.182933 0.232607 -0.154183 151 157 108
-0.208625 -0.671107 -0.387288 101 42 78
0.0608089 0.858256 0.264038 135 237 161
-0.0437931 -0.752523 0.369878 122 32 175
0.0689506 -0.0674027 0.255896 136 119 160
-0.246809 0.110484 0.0442156 96 142 133
-0.0124651 -0.825797 -0.408023 126 22 75
-0.342791 -0.874646 -0.0453417 84 16 122
0.305056 0.635728 0.109348 166 209 141
-0.360108 -0.801372 0.00350777 82 25 128
-0.0043236 -0.500134 0.36081 127 64 174
0.174791 0.40358 -0.171435 150 179 106
-0.371998 -0.654824 -0.0534832 80 44 121
-0.443969 0.450879 0.198905 71 185 153
0.15267 0.818801 -0.0941911 147 232 115
0.335276 0.0616343 -0.0697664 170 135 119
0.134083 0.501279 0.140654 145 191 145
0.506531 0.680394 0.036074 192 214 132
-0.0851066 -0.589691 0.329171 117 52 169
0.109658 -0.785089 -0.39577 141 27 77
0.27249 -0.297756 -0.232598 162 90 98
-0.248571 0.110484 0.0594973 96 142 135
0.0526675 -0.076509 -0.281447 134 118 92
-0.207863 -0.141905 -0.231688 101 109 98
0.0201011 -0.770494 0.353595 130 29 173
-0.0287483 0.551688 -0.281447 124 198 92
-0.0362718 0.338448 0.207047 123 171 154
-0.00772648 0.590837 0.0523572 127 203 134
-0.289279 -0.622258 -0.326745 91 48 86
-0.0882554 0.525704 0.304746 116 195 166
0.0526675 0.412318 0.0686403 134 180 136
-0.118306 0.835084 -0.00066504 112 234 127
-0.0694562 -0.589691 0.401939 119 52 179
0.0933753 0.460571 -0.0674204 139 186 119
0.346018 0.29774 0.296604 172 165 165
-0.154891 0.0209264 0.255896 108 130 160
0.205577 0.0372096 0.093065 154 132 139
-0.00775288 0.590837 0.0686403 127 203 136
0.0201011 -0.638541 0.360933 130 46 174
-0.134589 -0.703673 -0.401475 110 38 76
0.35333 -0.662966 0.166339 173 43 149
-0.281137 -0.27217 -0.251488 92 93 95
0.00381801 -0.532049 -0.419854 128 60 74
-0.0694562 0.737385 0.0210709 119 222 130
0.150366 0.24889 -0.173637 147 159 105
0.410897 -0.728001 -0.0290586 180 35 124
-0.0938809 -0.174471 -0.292861 116 105 90
0.030007 0.598978 0.426869 131 204 182
0.153606 0.371014 0.207047 147 175 154
0.305056 0.945956 -0.0941911 166 248 115
0.201714 0.0779175 0.288463 153 137 164
-0.29742 -0.0904059 -0.0534832 90 116 121
-0.329477 0.110484 -0.167465 85 142 106
0.174791 -0.435002 0.368824 150 72 175
0.345764 -0.768806 0.215165 172 29 155
-0.150872 0.305881 0.105158 108 166 141
0.313198 -0.122202 -0.102333 167 112 114
0.0282427 0.55827 0.29261 131 199 165
0.0689506 0.447423 0.451294 136 185 185
-0.370694 -0.508276 -0.161211 80 63 107
0.0905248 0.371014 0.190764 139 175 152
-0.134589 -0.109339 0.271218 110 114 162
-0.150872 0.40358 -0.0555155 108 179 120
-0.0450314 -0.768806 -0.393408 122 29 77
0.0689506 -0.064323 -0.232598 136 119 98
0.0201011 -0.866505 0.312111 130 17 167
-0.0287483 -0.459426 -0.403541 124 69 76
-0.167155 0.0779175 -0.108138 106 137 114
0.0282427 0.892457 0.361737 131 241 174
0.0770922 0.395439 0.0497238 137 178 134
0.280631 -0.451285 0.239217 163 70 158
0.134083 -0.980883 0.207047 145 2 154
-0.354411 -0.720043 0.150056 82 36 147
0.402755 -0.274705 0.0686403 179 92 136
-0.0124651 -0.907213 -0.369473 126 12 80
-0.159013 0.177144 0.182622 107 150 151
-0.329986 -0.589691 0.134017 85 52 145
-0.199721 -0.302374 0.27218 102 89 162
-0.00474587 0.086059 0.264038 127 138 161
-0.19158 -0.0699238 0.166339 103 119 149
0.280631 -0.293103 -0.224456 163 90 99
-0.338128 -0.866505 -0.16899 84 17 106
0.321339 -0.386576 -0.248881 168 78 96
-0.167155 -0.132683 -0.224456 106 111 99
0.0282427 -0.36594 0.402445 131 81 179
0.37833 -0.329161 -0.0342025 176 86 123
0.191074 0.672256 0.182622 152 213 151
0.0608089 -0.378011 -0.366427 135 79 81
0.402755 -0.288453 0.0416706 179 91 133
-0.0857393 -0.524559 0.366571 117 61 174
-0.338128 -0.212039 -0.0127753 84 100 126
-0.180798 0.672252 0.036074 104 213 132
0.239924 -0.548984 -0.309612 158 58 88
0.00381801 -0.825797 -0.412356 128 22 75
0.296915 0.924641 -0.101444 165 245 115
0.0896002 0.0697759 0.296604 139 136 165
-0.156574 0.729243 0.141914 108 220 146
0.0933753 -0.44288 -0.387288 139 71 78
0.389776 -0.516417 -0.0290586 177 62 124
-0.256712 -0.891207 0.166339 95 14 149
-0.0775977 -0.894496 -0.371005 118 13 80
0.365433 -0.386152 0.11749 174 78 142
-0.240429 0.436147 -0.355825 97 183 82
0.199216 0.574553 -0.0282253 153 201 124
0.0852337 -0.106155 -0.338438 138 114 84
-0.0613146 0.25155 0.190764 120 160 152
0.0852337 0.0453512 -0.271771 138 133 93
0.0282427 -0.844977 0.321029 131 20 168
0.42718 0.390093 0.247755 182 177 159
-0.232288 -0.42686 0.285125 98 73 164
0.256207 -0.0559205 0.22333 160 120 156
-0.294733 0.802517 0.166339 90 230 149
-0.0938809 -0.323535 0.321029 116 86 168
0.187309 -0.451285 -0.354721 151 70 82
0.158508 0.208183 -0.227214 148 154 99
-0.0573362 0.281457 0.451294 120 163 185
-0.053173 0.696677 0.0200619 121 216 130
0.174791 -0.850222 0.293488 150 19 165
-0.151458 0.501279 -0.216315 108 191 100
0.20704 0.0453512 0.11749 154 133 142
0.396215 -0.671107 -0.0941911 178 42 115
-0.403261 -0.514374 -0.020917 76 62 125
0.280631 0.0697759 -0.137627 163 136 110
0.1178 -0.42686 0.33452 143 73 170
0.386472 -0.223321 -0.00723002 177 99 127
0.0516454 0.598978 -0.265164 134 204 94
-0.281137 0.40358 -0.407247 92 179 76
-0.0775977 0.639524 -0.379146 118 209 79
-0.189084 -0.027923 -0.0453417 103 124 122
0.305056 -0.304736 0.237541 166 89 158
0.182933 0.810073 0.0116493 151 231 129
0.195857 -0.565267 0.345454 152 55 172
-0.0450314 -0.469182 0.369878 122 68 175
0.313198 0.265174 0.308113 167 161 167
-0.272995 -0.288453 0.203334 93 91 153
-0.34627 -0.59635 0.141914 83 51 146
-0.345705 0.835084 0.182622 83 234 151
0.00381801 -0.336429 -0.419854 128 85 74
0.142225 0.509421 0.0252027 146 192 131
-0.0276656 -0.597833 0.386162 124 51 177
0.296915 -0.110007 -0.0290586 165 113 124
0.166649 -0.16633 -0.272454 149 106 93
-0.175297 -0.174471 -0.257974 105 105 95
0.203159 0.444288 -0.200032 153 184 102
-0.354411 -0.662966 -0.193528 82 43 103
0.00381801 0.647828 -0.0377092 128 210 123
-0.21098 -0.296595 -0.281447 101 90 92
0.14311 0.371014 0.215189 146 175 155
-0.0231627 0.639686 -0.0860496 125 209 117
0.118762 0.379156 -0.183748 143 176 104
0.207357 0.875792 -0.102778 154 239 114
-0.19158 -0.763071 0.280321 103 30 163
-0.216004 0.501279 -0.0303724 100 191 124
-0.0608131 0.533846 0.093065 120 196 139
-0.053173 -0.596254 0.37802 121 51 176
-0.30685 -0.68739 -0.265164 88 40 94
0.125942 0.598978 -0.125273 144 204 112
0.199216 -0.427264 -0.338438 153 73 84
0.328374 -0.695532 -0.257023 169 39 95
0.305056 -0.0930555 0.0419064 166 116 133
-0.0368898 -0.296595 -0.358112 123 90 82
-0.0857393 -0.0818882 -0.248881 117 117 96
-0.0357177 0.566412 0.150056 123 200 147
-0.327534 0.159333 0.207047 86 148 154
0.305056 0.086059 0.0966538 166 138 140
-0.289279 0.22942 0.22333 91 157 156
-0.134589 -0.440946 0.312887 110 71 167
0.0445258 0.240749 -0.21434 133 158 100
0.321339 0.778093 0.141367 168 227 146
0.321339 -0.630399 -0.306402 168 47 88
-0.110164 -0.215179 0.296104 113 100 165
-0.278349 -0.158188 -0.0616248 92 107 120
-0.155652 -0.378011 0.321029 108 79 168
0.280631 0.0942006 -0.0860104 163 140 117
0.172255 0.411722 0.0279325 149 180 131
0.150366 0.060442 -0.0860496 147 135 117
0.313198 -0.756598 -0.240739 167 31 97
-0.154602 -0.0930555 0.239613 108 116 158
0.0445258 -0.101197 -0.286909 133 115 91
-0.329986 -0.345444 -0.145738 85 83 109
0.313198 -0.141477 -0.151182 167 109 108
-0.173871 0.183758 -0.00463385 105 151 127
-0.14273 0.851367 -0.0100142 109 236 126
-0.341452 -0.597833 -0.126757 84 51 111
-0.0358888 -0.288453 0.361737 123 91 174
-0.329986 -0.312878 -0.152921 85 88 108
0.345764 -0.253562 0.166339 172 95 149
0.392215 -0.679249 -0.118616 178 41 112
0.191074 -0.0523477 0.213903 152 121 155
0.22364 -0.209007 0.264038 156 101 161
-0.175297 -0.84208 -0.370457 105 20 80
-0.175297 -0.801372 0.276403 105 25 163
0.337622 -0.361606 -0.216315 171 81 100
0.0997797 0.550129 0.0197909 140 198 130
-0.262606 -0.109339 -0.0779079 94 114 118
-0.403261 0.216324 0.0713276 76 155 137
0.337622 0.419863 0.13491 171 181 145
0.0394621 0.305881 0.207047 133 166 154
0.285765 -0.833939 0.207047 164 21 154
-0.0368898 -0.402435 0.343662 123 76 171
0.37833 -0.679642 0.109348 176 41 141
0.0445258 0.124478 0.255896 133 143 160
-0.113465 0.623403 0.22333 113 207 156
-0.270514 0.257032 -0.0453417 93 160 122
0.362047 -0.304736 0.111734 174 89 142
0.170312 -0.947921 -0.29773 149 7 90
-0.199721 -0.933596 -0.305872 102 8 89
0.337622 0.0861766 0.0116493 171 138 129
0.108185 0.200041 -0.19189 141 153 103
0.030714 0.110484 0.255896 131 142 160
0.296915 -0.0557832 0.125631 165 120 144
-0.313703 -0.913047 -0.0616248 88 11 120
-0.338128 -0.287294 0.11749 84 91 142
-0.29742 0.40358 -0.260619 90 179 94
-0.343726 -0.32102 -0.020917 84 87 125
0.22364 0.0534928 0.0852619 156 134 138
-0.29742 -0.47975 0.22333 90 66 156
0.0608089 0.450758 0.0767819 135 185 137
0.182933 0.0616343 -0.286491 151 135 91
0.174791 0.24889 -0.0775209 150 159 118
-0.102022 -0.153613 0.27218 114 108 162
-0.305562 0.690866 0.27218 89 216 162
0.307216 -0.42686 0.22333 167 73 156
0.288773 0.648514 0.0116493 164 210 129
0.294587 -0.719957 0.247755 165 36 159
0.419038 -0.58155 -0.0775887 181 53 118
0.373932 -0.418718 -0.19189 175 74 103
0.0282427 0.577803 0.337312 131 201 171
0.0618953 -0.0686308 -0.29773 135 119 90
-0.305562 -0.215179 -0.206797 89 100 101
-0.174642 0.191899 -0.208173 105 152 101
-0.272995 0.183758 0.121292 93 151 143
0.307263 -0.638541 -0.281447 167 46 92
-0.381729 -0.817655 -0.0941911 79 23 115
0.0785217 -0.158188 0.337312 138 107 171
0.359133 -0.84208 -0.143041 173 20 109
0.155356 0.265174 0.125631 147 161 144
0.336251 -0.858363 -0.183748 170 18 104
0.368359 -0.329161 -0.020917 174 86 125
-0.338128 -0.728098 -0.293271 84 35 90
0.191776 0.476854 0.0604987 152 188 135
0.259694 0.200041 0.312887 161 153 167
0.0363842 0.262561 0.239613 132 161 158
-0.126447 -0.493328 -0.379146 111 65 79
0.299468 -0.141905 0.190764 166 109 152
0.248065 0.0707212 -0.020917 159 137 125
0.395249 -0.386152 0.174481 178 78 150
-0.199721 -0.306578 0.288463 102 88 164
0.00381801 -0.254333 -0.371005 128 95 80
0.158508 0.201398 -0.362863 148 153 81
-0.0368898 -0.474007 -0.460562 123 67 69
0.147833 0.387297 0.22333 146 177 156
-0.224146 0.768801 0.093065 99 226 139
-0.240429 0.155552 -0.0941911 97 147 115
-0.199721 -0.182519 -0.29773 102 104 90
-0.338128 -0.719526 -0.265164 84 36 94
0.148616 -0.703673 -0.427996 146 38 73
-0.34627 -0.296595 -0.123126 83 90 112
0.0608089 -0.329161 -0.375388 135 86 80
-0.328922 -0.662966 -0.216315 86 43 100
-0.0342732 0.338448 0.22333 123 171 156
0.356077 -0.361727 -0.151182 173 81 108
0.345623 -0.671107 0.141914 172 42 146
0.207357 -0.0442061 -0.291576 154 122 90
0.210989 -0.923496 -0.289589 154 10 91
0.187216 -0.198896 -0.322155 151 102 86
-0.0368898 -0.329161 -0.377906 123 86 79
0.159361 -0.296595 0.312887 148 90 167
0.0123488 -0.605975 -0.403571 129 50 76
0.0689506 0.354731 0.109058 136 173 141
-0.362553 -0.712449 -0.0860496 81 37 117
-0.159013 -0.945081 -0.29773 107 7 90
0.122116 -0.141905 -0.273306 143 109 93
-0.341817 -0.361727 0.190764 84 81 152
0.386472 -0.304736 0.085515 177 89 138
0.280631 -0.508276 0.285337 163 63 164
0.337622 -0.528292 0.174481 171 60 150
-0.492818 0.240749 -0.0814895 65 158 117
0.335646 -0.174471 -0.0290586 170 105 124
0.248065 -0.550684 0.312887 159 57 167
-0.34627 -0.353586 -0.217295 83 82 100
0.00466997 -0.760664 0.386162 128 31 177
-0.0043236 -0.703673 -0.410446 127 38 75
0.353906 -0.152584 -0.0860496 173 108 117
-0.183438 -0.963261 -0.240739 104 5 97
-0.175297 -0.394294 0.283394 105 77 164
0.353443 -0.125622 -0.118616 173 111 112
0.295351 -0.776948 -0.248881 165 28 96
0.237913 -0.540842 -0.371005 158 59 80
0.0714949 0.541987 -0.0697664 137 197 119
0.0608089 -0.158188 0.285469 135 107 164
0.186813 -0.239604 -0.322155 151 97 86
0.184643 0.818801 0.00350777 151 232 128
0.182933 -0.296595 0.302236 151 90 166
-0.289983 -0.182613 0.0116493 91 104 129
-0.135703 -0.0767724 -0.273306 110 118 93
0.215499 -0.557125 0.354077 155 56 173
0.3435 -0.491993 -0.200032 171 65 102
0.0933753 0.40358 0.0933885 139 179 139
-0.207863 -0.27217 0.239631 101 93 158
0.182933 0.0584012 0.0279325 151 135 131
-0.0121593 0.395439 0.0604987 126 178 135
-0.350012 -0.483851 -0.110474 83 66 113
-0.0938809 -0.608647 0.337312 116 50 171
-0.305562 -0.833939 -0.24992 89 21 96
0.22364 0.493138 0.260068 156 190 161
0.088069 -0.00349828 -0.281447 139 127 92
0.158508 -0.540842 -0.372305 148 59 80
0.37833 -0.394294 0.187785 176 77 151
-0.270506 -0.337303 0.231472 93 84 157
-0.248571 -0.314004 -0.289589 96 87 91
0.280631 -0.548984 -0.302322 163 58 89
0.239924 -0.9855 -0.126757 158 2 111
-0.29742 -0.548984 -0.252915 90 58 95
0.0201011 -0.3613 0.361737 130 81 174
0.199216 0.371014 -0.125874 153 175 111
-0.0613146 -0.329161 -0.384195 120 86 79
0.329481 -0.27217 0.227543 170 93 157
0.0770922 0.404826 0.093065 137 179 139
0.166649 -0.084914 -0.200446 149 117 102
-0.513501 0.224466 -0.0372001 62 156 123
0.402755 -0.436487 -0.0290586 179 72 124
0.156549 -0.866505 0.312887 147 17 167
-0.342315 -0.386152 0.190764 84 78 152
-0.294825 -0.638541 0.174481 90 46 150
-0.118306 0.663692 0.133773 112 212 145
-0.157878 -0.00349828 0.0686403 107 127 136
0.00192153 0.338448 -0.200032 128 171 102
-0.341167 -0.361727 0.207047 84 81 154
0.101517 -0.817655 -0.387867 140 23 78
0.1178 0.730672 -0.208173 143 221 101
0.142225 -0.500134 0.334985 146 64 170
0.23456 -0.728098 -0.34658 157 35 83
-0.378676 -0.638541 0.0604987 79 46 135
-0.451691 0.574553 0.036074 70 201 132
-0.381087 -0.719957 0.0604987 79 36 135
0.231782 -0.378011 0.300705 157 79 166
0.105339 0.501279 0.0279325 141 191 131
0.0268255 0.330306 -0.183748 131 170 104
0.0527854 -0.296595 0.361737 134 90 174
0.27249 -0.781595 0.27218 162 28 162
0.158508 -0.736607 0.329171 148 34 169
0.101517 -0.589691 -0.427615 140 52 73
0.0536044 -0.0442061 0.345454 134 122 172
-0.262038 0.0942006 0.11749 94 140 142
0.377773 -0.32102 -0.0127753 176 87 126
-0.110164 -0.190754 -0.293522 113 103 90
0.0852337 -0.817655 -0.393317 138 23 77
-0.0287483 0.374865 -0.0779079 124 175 118
-0.348438 -0.378011 -0.0616248 83 79 120
0.239924 0.525704 -0.227515 158 195 98
0.215499 -0.0706768 -0.159324 155 118 107
-0.299506 -0.662966 0.215189 89 43 155
-0.207406 -0.0604893 0.0767819 101 120 137
-0.136622 -0.0360645 -0.257023 110 123 95
0.00381801 0.0556648 -0.216315 128 135 100
0.166649 -0.0185789 0.215189 149 125 155
-0.30457 -0.0360645 -0.102333 89 123 114
0.353906 -0.392792 -0.151182 173 77 108
-0.199721 0.444288 -0.289462 102 184 91
0.0175165 -0.158188 0.312887 130 107 167
0.142452 -0.0116398 -0.151182 146 126 108
0.0445258 -0.345444 -0.37952 133 83 79
-0.0282529 0.76181 0.239613 124 225 158
0.0689506 0.21327 -0.200032 136 155 102
0.220926 0.354731 -0.0534832 156 173 121
0.207357 0.319596 -0.0616248 154 168 120
-0.329986 -0.207038 0.0506587 85 101 134
-0.435827 0.27678 -0.0534832 72 163 121
-0.126635 0.314023 -0.143041 111 168 109
-0.175297 -0.939626 -0.29773 105 8 90
-0.053173 0.362872 -0.0440261 121 174 122
-0.318509 -0.394294 0.11749 87 77 142
0.306853 -0.931637 0.036074 167 9 132
0.134083 0.76181 -0.0972911 145 225 115
-0.248049 -0.866505 0.22333 96 17 156
0.187455 -0.0116398 0.215189 151 126 155
-0.0124651 0.484996 -0.0810853 126 189 117
-0.281606 -0.752523 0.166339 92 32 149
0.239924 0.546194 0.133773 158 197 145
-0.329002 -0.622258 -0.183748 86 48 104
0.158508 0.0882977 -0.183748 148 139 104
0.150366 -0.614116 0.331228 147 49 170
0.0119595 -0.5327 -0.411342 129 60 75
-0.0124651 -0.198896 -0.358303 126 102 82
0.23168 -0.964204 0.141914 157 5 146
0.125559 0.0942006 0.312887 144 140 167
-0.370694 -0.449988 0.0604987 80 70 135
0.0526675 -0.956577 -0.19189 134 6 103
0.264348 -0.565267 0.270965 161 55 162
0.296915 0.566412 -0.234835 165 200 98
-0.0159128 0.541987 -0.289589 125 197 91
-0.346663 -0.84208 -0.0290586 83 20 124
-0.0498942 0.623403 -0.484987 121 207 66
0.329481 0.0372096 -0.057177 170 132 120
-0.248571 0.0942006 0.132206 96 140 144
0.400077 -0.5327 0.00350777 179 60 128
-0.0775977 -0.443143 -0.382574 118 71 79
-0.0624682 0.419863 0.11749 120 181 142
0.225388 -0.435002 0.296604 156 72 165
-0.329986 -0.00349828 -0.2006 85 127 102
-0.345507 -0.394294 0.166339 83 77 149
0.39548 -0.654824 -0.0534832 178 44 121
0.032506 0.40358 -0.0860496 132 179 117
0.386472 -0.593936 0.0523572 177 52 134
0.345432 -0.850222 -0.159324 172 19 107
0.0881432 -0.109339 -0.265164 139 114 94
-0.0857393 -0.109339 0.258256 117 114 160
-0.110164 -0.573408 0.333835 113 54 170
0.153851 0.501279 -0.34658 147 191 83
-0.264854 -0.565267 -0.298009 94 55 90
-0.207863 -0.28224 0.255896 101 92 160
-0.144104 -0.158188 -0.273306 109 107 93
-0.281137 0.192392 0.11749 92 152 142
-0.14273 -0.0767724 0.166479 109 118 149
-0.0938809 0.284753 0.394303 116 164 178
-0.301283 -0.190754 0.0279325 89 103 131
0.354174 -0.443143 -0.143041 173 71 109
0.402755 -0.597833 -0.198619 179 51 102
-0.272995 0.810659 0.179715 93 231 150
0.27249 -0.300834 -0.273306 162 89 93
-0.183438 -0.173207 -0.314014 104 105 87
0.0201011 0.10401 0.22333 130 141 156
0.302635 -0.719957 0.231472 166 36 157
-0.0368898 0.638229 -0.427996 123 209 73
0.0363842 0.338448 -0.168514 132 171 106
0.215499 -0.984209 0.109348 155 2 141
0.410897 -0.427286 -0.00463385 180 73 127
-0.00539995 0.0616343 0.321029 127 135 168
0.207357 -0.982176 0.125631 154 2 144
-0.0775977 -0.817655 0.312018 118 23 167
0.0119595 0.484773 -0.200032 129 189 102
0.0933753 0.175517 -0.183748 139 150 104
-0.240429 0.932783 -0.0451016 97 246 122
-0.151177 0.460571 -0.175607 108 186 105
0.182933 -0.0869355 -0.224456 151 116 99
-0.0450314 0.276949 0.182622 122 163 151
0.36928 -0.825797 -0.110474 175 22 113
0.199216 -0.960648 0.207047 153 5 154
0.125942 -0.150047 0.292778 144 108 165
0.199216 -0.0519388 0.125631 153 121 144
-0.199721 -0.205201 -0.265164 102 101 94
-0.154853 0.281457 0.0116493 108 163 129
-0.320732 -0.84208 0.11749 87 20 142
0.292353 -0.109339 0.150056 165 114 147
0.256207 0.354731 0.153128 160 173 147
-0.362553 -0.5327 -0.219883 81 60 99
-0.150872 0.0372096 -0.109154 108 132 114
0.154307 0.289598 0.141914 147 164 146
-0.0206067 -0.573408 -0.432644 125 54 72
-0.194236 -0.0360645 -0.0779079 103 123 118
0.189564 0.501279 -0.395429 152 191 77
-0.302002 -0.190754 -0.0453417 89 103 122
0.0680008 0.86765 0.304746 136 238 166
-0.361863 -0.760664 0.093065 81 31 139
0.182933 -0.653749 -0.362863 151 44 81
-0.27015 -0.337303 0.215189 93 84 155
-0.395119 -0.523636 -0.0453417 77 61 122
-0.0586916 0.509421 0.101207 120 192 140
-0.113302 0.590837 -0.476845 113 203 67
-0.313703 0.562547 -0.00463385 88 199 127
0.296915 0.583288 0.190764 165 202 152
0.150366 0.00464333 -0.1953 147 128 103
0.0770922 0.436147 0.139599 137 183 145
-0.256712 0.432683 -0.354721 95 183 82
-0.298586 0.118625 0.141914 89 143 146
0.37833 -0.500134 -0.177328 176 64 105
-0.0043236 0.440845 -0.110474 127 184 113
-0.517243 0.202819 -0.0697664 62 153 119
-0.213128 0.118625 0.109348 100 143 141
0.231782 0.615633 -0.00463385 157 206 127
-0.104641 -0.467568 0.386162 114 68 177
0.370189 -0.394294 -0.202933 175 77 102
-0.248571 0.0209264 -0.120415 96 130 112
0.00160333 0.273315 -0.265164 128 162 94
-0.0124651 0.305881 -0.176586 126 166 105
-0.207863 0.151192 0.133106 101 147 144
0.0689506 -0.42686 -0.368375 136 73 81
-0.240429 -0.288453 0.296154 97 91 165
-0.0043236 -0.027923 0.21127 127 124 154
0.324715 -0.158188 -0.0372001 169 107 123
-0.183438 -0.00554785 0.0442156 104 127 133
-0.34627 -0.378011 -0.119381 83 79 112
0.174791 0.158099 0.27218 150 148 162
0.288773 0.428005 -0.0230566 164 182 125
0.191074 -0.361727 -0.306916 152 81 88
0.0751493 0.354731 0.158198 137 173 148
0.394613 -0.539216 0.093065 178 59 139
-0.223605 -0.548984 -0.379146 99 58 79
-0.337537 0.086059 -0.183748 84 138 104
-0.281137 0.525704 0.121664 92 195 143
0.142225 0.422508 0.27218 146 181 162
-0.183438 0.147395 -0.224456 104 146 99
0.142225 -0.614116 -0.381494 146 49 79
0.073469 0.191899 -0.200032 137 152 102
-0.0775977 0.118625 -0.145754 118 143 109
0.22364 0.476854 -0.260905 156 188 94
-0.0775977 -0.361727 0.35858 118 81 173
-0.0857393 -0.247745 0.325267 117 96 169
0.134083 0.442804 0.329171 145 184 169
0.37833 0.612711 0.22333 176 206 156
-0.332203 -0.418718 0.133773 85 74 145
0.150366 -0.29363 0.329171 147 90 169
0.256207 0.607739 0.109348 160 205 141
0.283237 -0.0686308 -0.0372001 164 119 123
-0.33169 0.175616 0.22333 85 150 156
0.356935 -0.548984 -0.175607 173 58 105
0.0933753 0.402868 0.0686403 139 179 136
0.369229 0.00464333 0.0442156 175 128 133
-0.199721 -0.337303 -0.327135 102 84 86
0.37833 -0.34105 -0.102333 176 84 114
0.393226 -0.402435 0.00350777 178 76 128
-0.313639 -0.198896 -0.126757 88 102 111
0.0933753 0.122969 0.304746 139 143 166
0.369214 -0.605975 0.22333 175 50 156
0.343768 -0.361727 -0.19189 171 81 103
0.0282427 -0.410577 -0.413818 131 75 75
-0.411402 -0.695532 0.0378325 75 39 132
0.337622 -0.252936 -0.183748 171 95 104
0.106969 -0.402435 0.353595 141 76 173
0.0217247 -0.158188 -0.322155 130 107 86
-0.0694562 -0.597833 0.376934 119 51 176
-0.145671 -0.671107 0.329171 109 42 169
-0.00746697 0.354731 0.215189 127 173 155
-0.347267 -0.231462 -0.020917 83 98 125
0.199216 0.281457 -0.141426 153 163 109
-0.00527715 0.541987 -0.134899 127 197 110
0.196027 -0.817655 0.280321 152 23 163
