ply
format ascii 1.0
comment Created by Open3D
element vertex 1217
property double x
property double y
property double z
property uchar red
property uchar green
property uchar blue
end_header
-0.687631 -0.0202898 -0.853603 40 125 19
0.267733 -0.0121527 -0.66276 162 126 43
-0.166859 0.744593 -0.321074 106 222 87
0.265479 0.215685 -0.565115 161 155 55
0.515195 -0.443416 0.093986 193 71 139
0.191171 0.784703 -0.10944 152 228 114
0.126074 0.890902 0.0533008 144 241 134
-0.362508 -0.0853862 -0.719719 81 117 36
0.142349 -0.199305 -0.801051 146 102 25
0.362049 -0.51665 -0.846186 174 62 20
-0.443519 -0.23999 -0.707173 71 97 37
0.158623 -0.565472 0.659452 148 55 212
-0.533027 -0.199305 -0.734044 60 102 34
0.0772522 0.304544 -0.361689 137 166 81
0.293551 0.00412137 -0.727856 165 128 35
0.378323 -0.809584 0.532888 176 24 195
-0.24823 0.150588 -0.839447 96 147 20
0.117937 -0.532924 0.581194 143 60 202
-0.23415 0.6144 0.460153 98 206 186
-0.13427 0.297055 -0.760404 110 165 31
-0.598123 -0.939776 -0.518817 51 8 61
-0.345874 0.534649 -0.760404 83 196 31
0.329501 -0.555431 -0.817364 170 57 23
-0.755412 -0.0772491 -0.735993 31 118 34
-0.74459 0.19941 -0.598428 33 153 51
-0.19127 0.47607 0.584213 103 188 202
-0.0366665 0.257828 0.460153 123 160 186
-0.410971 -0.264401 -0.821607 75 94 23
0.321364 0.288281 -0.646485 168 164 45
0.746267 0.248233 -0.776678 223 159 28
-0.557438 -0.65498 -0.768133 56 44 30
-0.151699 0.858512 0.224179 108 237 156
0.150486 0.801552 -0.155036 147 230 108
0.223719 0.17541 0.46829 156 150 187
0.492242 -0.630569 -0.0433432 190 47 122
-0.345874 0.634592 -0.703445 83 208 38
-0.150585 0.589989 -0.622573 108 203 48
-0.3296 0.549304 -0.490483 85 198 65
0.24813 0.240096 -0.830054 159 158 22
-0.60413 0.598126 -0.613937 50 204 49
-0.751134 0.47607 -0.46747 32 188 68
0.473925 -0.541061 0.183494 188 59 151
0.60616 0.0936289 -0.891889 205 139 14
-0.0448036 0.231959 -0.638899 122 157 46
0.435282 0.521818 -0.74413 183 194 33
0.484105 0.264507 -0.889534 189 161 14
0.744801 0.459796 -0.565115 222 186 55
-0.284937 0.549304 0.175356 91 198 150
0.474408 0.484207 0.085849 188 189 138
0.223719 -0.650189 0.88328 156 45 240
0.288815 -0.601065 -0.784815 164 51 27
0.435282 -0.248127 -0.922565 183 96 10
-0.663219 -0.386457 -0.696338 43 78 39
-0.71589 0.516755 -0.3861 36 193 78
0.540238 -0.73635 -0.703445 196 34 38
0.750167 0.25637 -0.654622 223 160 44
-0.622534 -0.679391 -0.698572 48 41 38
-0.3296 0.142451 -0.835511 85 146 21
-0.118037 0.0854918 -0.78003 112 138 28
0.654983 -0.166757 -0.827317 211 106 22
-0.527168 -0.882817 -0.52443 60 15 61
0.296704 0.215685 -0.597663 165 155 51
0.126074 0.329603 0.62519 144 170 207
-0.320006 0.207548 -0.866186 87 154 17
-0.101763 0.451659 -0.673236 115 185 42
0.274464 0.427248 -0.760404 162 182 31
0.0284299 -0.754139 0.736813 131 31 221
0.451556 -0.45969 -0.864282 185 69 17
-0.306949 0.0773548 -0.638348 88 137 46
0.638709 0.45962 -0.52443 209 186 61
0.557338 0.329603 -0.857619 199 170 18
0.511582 -0.402731 0.16722 193 76 149
0.516653 0.735536 -0.410511 193 221 75
-0.602094 0.606263 -0.581389 51 205 53
0.328016 -0.744487 -0.565115 169 33 55
-0.0325647 -0.0121527 -0.735993 123 126 34
-0.177431 0.549304 -0.190811 105 198 103
-0.227761 0.248233 -0.491881 98 159 65
0.472362 0.329603 0.150945 188 170 147
0.563911 -0.321361 -0.849912 199 87 19
-0.361642 -0.150483 -0.687171 81 108 40
0.492245 -0.142346 0.297412 190 109 165
0.451556 0.686639 -0.500019 185 215 64
0.337638 -0.386457 -0.894292 171 78 13
0.207445 -0.622431 0.643384 154 48 210
-0.516752 -0.45969 -0.797849 62 69 26
0.410871 0.678948 -0.46747 180 214 68
0.475967 0.280781 -0.876931 188 163 16
0.541064 -0.760761 0.441963 196 31 184
-0.269072 0.150588 -0.556978 93 147 56
0.646846 0.0285325 -0.888795 210 131 14
-0.370286 0.584311 -0.459333 80 202 69
-0.183133 0.492344 -0.741225 104 190 33
0.0772522 0.958267 0.24859 137 250 159
0.312216 0.183136 -0.0687549 167 151 119
0.31825 -0.573609 -0.6058 168 54 50
0.645669 -0.272538 -0.809226 210 93 24
-0.712042 0.142451 -0.786571 37 146 27
0.362049 -0.835943 0.517113 174 21 193
0.486231 -0.492239 0.175356 189 65 150
0.345775 -0.443416 -0.674275 172 71 42
-0.158722 0.929232 0.134671 107 246 145
-0.516752 -0.0179829 -0.768541 62 125 30
0.0447039 0.214677 0.52525 133 155 194
-0.0301944 0.345877 -0.491881 124 172 65
0.0935262 -0.15862 0.306865 139 107 167
0.278577 0.19941 -0.597663 163 153 51
0.183034 0.362151 -0.187448 151 174 104
-0.272641 0.53303 -0.752547 93 195 32
0.337638 0.842238 0.119188 171 235 143
-0.549301 -0.215579 -0.848709 57 100 19
0.0853892 0.3947 -0.226107 138 178 99
-0.715047 0.150588 -0.792952 36 147 26
0.117937 -0.638706 0.650828 143 46 210
-0.221207 0.435385 -0.491881 99 183 65
-0.573712 0.0203954 -0.722573 54 130 35
-0.646945 -0.313224 -0.844057 45 88 20
0.249993 -0.280675 -0.174537 159 92 105
-0.453322 -0.223716 0.0288897 70 99 131
-0.69107 0.53303 -0.597663 39 195 51
0.264404 -0.248127 0.540297 161 96 196
0.345775 -0.370183 -0.698015 172 80 39
-0.598123 0.618474 -0.548841 51 206 58
0.558368 -0.207442 -0.88246 199 101 15
-0.240093 -0.150483 0.447666 97 108 185
-0.208146 0.516755 0.500838 101 193 191
0.378323 -0.272538 -0.726025 176 93 35
0.364734 -0.825858 -0.475607 174 22 67
0.321364 0.882066 0.159082 168 240 148
-0.19127 -0.264401 -0.691599 103 94 39
0.516656 -0.296949 0.321823 193 90 169
0.353912 -0.581746 -0.63631 173 53 46
-0.451656 -0.475965 -0.671525 70 67 42
-0.262937 0.150588 -0.516293 94 147 62
0.451539 0.386563 0.338097 185 177 171
0.30509 0.0692177 -0.911215 166 136 11
0.353912 0.695093 -0.329141 173 216 86
0.314531 0.467933 -0.369826 168 187 80
-0.362681 -0.370183 -0.654622 81 80 44
0.480824 -0.508513 0.183494 189 63 151
0.327295 0.126177 0.0533008 169 144 134
-0.221188 0.231959 -0.46747 99 157 68
-0.712042 -0.10166 -0.799269 37 115 26
0.581749 0.557441 -0.722335 202 199 35
0.679394 -0.313224 -0.674942 214 88 41
-0.030267 -0.280675 0.338097 124 92 171
0.00401872 -0.0691121 -0.733184 128 119 34
-0.484204 -0.51665 -0.788066 66 62 27
-0.105728 -0.248127 0.533387 114 96 196
0.323723 -0.65498 -0.597663 169 44 51
-0.207545 0.581852 -0.66973 101 202 42
0.288815 0.398815 -0.483744 164 178 66
0.459693 -0.134208 -0.805225 186 110 25
0.142349 0.695771 -0.153942 146 216 108
-0.70414 0.264507 -0.703445 38 161 38
-0.354011 0.603661 -0.426785 82 204 73
-0.134311 0.101766 -0.766847 110 140 30
-0.427245 0.248233 -0.752711 73 159 32
-0.378423 0.769004 -0.51096 79 226 62
-0.288915 -0.475965 -0.70205 91 67 38
0.427145 0.69518 -0.280318 182 216 92
0.0853892 0.280781 0.650134 138 163 210
0.74449 0.0122583 -0.785686 222 129 27
0.443419 0.37688 0.378783 184 176 176
0.760615 -0.0121527 -0.760404 224 126 31
-0.174996 0.0131812 0.077712 105 129 137
-0.733546 -0.142346 -0.776678 34 109 28
0.451556 -0.451553 -0.695556 185 70 39
0.134211 0.492297 -0.52443 145 190 61
0.183034 0.0364985 -0.88246 151 132 15
-0.541164 0.0448066 -0.851941 59 133 19
0.345775 0.297055 -0.85162 172 165 19
-0.173236 -0.809584 0.891417 105 24 241
0.0935262 0.864957 -0.0362067 139 238 123
0.00401872 0.904662 0.077712 128 243 137
-0.342897 -0.0772491 -0.687171 84 118 40
0.742888 0.297055 -0.735993 222 165 34
-0.630671 -0.296949 -0.710418 47 90 37
0.0447039 -0.646843 0.650337 133 45 210
-0.215682 0.305192 -0.797121 100 166 26
-0.207545 0.478604 -0.410511 101 189 75
0.498133 -0.500376 0.102123 191 64 141
0.264957 -0.337635 -0.296592 161 84 90
0.60616 0.11804 -0.885712 205 143 15
-0.402834 -0.329498 -0.698379 76 85 38
0.0853892 0.329803 -0.654622 138 170 44
0.00401872 0.930673 0.321823 128 246 169
-0.336856 0.00412137 -0.532567 85 128 60
0.679394 0.3051 -0.630211 214 166 47
0.445228 0.427248 0.0207526 184 182 130
0.76722 0.297055 -0.66276 225 165 43
-0.524487 -0.907228 -0.508156 61 12 63
-0.524889 -0.850269 -0.549286 61 19 57
-0.354011 0.00412137 0.268866 82 128 162
0.581749 0.240096 -0.689711 202 158 40
0.394574 0.712045 0.492701 178 218 190
-0.0610777 0.92227 0.159082 120 245 148
0.256267 0.598126 -0.560854 160 204 56
-0.533027 0.611856 -0.264044 60 206 94
-0.191172 0.484207 -0.133851 103 189 110
0.679394 0.109903 -0.835247 214 142 21
0.264404 -0.777035 0.863157 161 28 238
0.419008 0.025804 -0.776678 181 131 28
0.489739 -0.296949 0.378783 190 90 176
-0.559334 -0.817721 -0.166399 56 23 106
0.0691151 0.263466 0.647305 136 161 210
0.134211 0.744593 -0.15162 145 222 108
0.378323 0.0826139 0.0614378 176 138 135
-0.443519 -0.59802 -0.762311 71 51 30
0.353912 0.378426 -0.820738 173 176 23
-0.658092 0.589989 -0.475607 44 203 67
-0.370286 -0.0365638 -0.747883 80 123 32
0.098572 0.3947 -0.597663 140 178 51
-0.762123 0.101766 -0.735993 30 140 34
-0.297052 -0.109797 -0.826387 90 114 22
0.452739 0.6144 0.0207526 185 206 130
-0.336436 0.33774 0.207905 85 171 154
-0.370286 0.329603 -0.843463 80 170 20
0.207445 0.863628 -0.0606179 154 238 120
-0.280755 -0.313224 -0.768541 92 88 30
-0.126174 0.565578 -0.258785 111 200 95
-0.419108 -0.191168 -0.836113 74 103 21
0.256267 -0.638706 0.628953 160 46 208
0.402734 0.386563 -0.841469 179 177 20
-0.390419 -0.256264 0.256727 78 95 160
0.475967 -0.313224 -0.88727 188 88 14
-0.38656 -0.687528 -0.6633 78 40 43
-0.285999 0.598126 -0.3861 91 204 78
-0.256367 0.695771 -0.0933085 95 216 116
-0.508615 0.733192 -0.540704 63 221 59
0.541064 -0.777035 0.442097 196 28 184
-0.215682 -0.695665 0.672867 100 39 213
0.475967 0.0190416 0.11026 188 130 142
0.321364 -0.0691121 -0.902847 168 119 12
0.410379 0.0285325 0.240453 180 131 158
-0.0936259 -0.15862 -0.734866 116 107 34
0.746453 0.264507 -0.646485 223 161 45
0.475967 -0.410868 -0.863431 188 75 17
-0.671356 -0.321361 -0.712223 42 87 37
0.134211 0.191273 -0.788812 145 152 27
0.459693 -0.223716 -0.776532 186 99 28
-0.345874 0.0366695 -0.757575 83 132 31
-0.207545 0.0448066 -0.829473 101 133 22
-0.339526 -0.0447009 -0.548841 84 122 58
-0.38656 0.777841 -0.491881 78 227 65
0.337638 -0.248127 -0.898611 171 96 13
0.42464 0.549304 -0.00365856 182 198 127
0.394597 0.248233 -0.711795 178 159 37
-0.707097 0.126177 -0.801089 37 144 25
0.394597 -0.817721 0.534459 178 23 196
-0.573712 0.0366695 -0.718853 54 132 36
0.16676 0.860234 -0.0443438 149 237 122
0.654983 0.645221 -0.377963 211 210 79
0.459693 -0.36313 0.38692 186 81 177
-0.671356 -0.362046 -0.703814 42 81 38
0.467831 0.435385 -0.83854 187 183 21
0.150486 -0.630569 0.916022 147 47 244
-0.646945 -0.65498 -0.61117 45 44 50
0.598023 -0.321361 -0.702015 204 87 38
0.443419 0.569936 -0.345415 184 200 83
-0.48638 -0.833995 -0.418648 65 21 74
0.337638 -0.394594 0.434892 171 77 183
0.150486 0.109903 0.515151 147 142 193
0.280678 -0.663117 0.623019 163 43 207
-0.305756 0.6144 -0.288455 89 206 91
-0.763821 0.0203954 -0.768541 30 130 30
-0.215682 0.248233 -0.808623 100 159 24
0.43897 -0.296949 0.460153 183 90 186
-0.614397 0.126177 -0.861443 49 144 18
-0.0203924 -0.10166 -0.7383 125 115 33
-0.476067 0.583124 -0.434922 67 202 72
0.290079 -0.492239 -0.6058 164 65 50
0.475967 -0.394594 -0.866964 188 77 17
0.0609746 0.215685 -0.687171 135 155 40
-0.442253 0.419111 -0.833638 71 181 21
0.362049 -0.410868 -0.870843 174 75 16
0.459693 0.410974 -0.842188 186 180 20
-0.646945 -0.394594 -0.794002 45 77 26
-0.614397 0.596825 -0.581389 49 204 53
-0.484204 -0.817721 -0.645817 66 23 45
-0.736635 0.443522 -0.516293 34 184 62
0.296952 0.467933 -0.749134 165 187 32
-0.262717 0.785278 -0.198948 94 228 102
0.288815 0.134314 -0.890682 164 145 14
-0.128941 0.565578 -0.0931661 111 200 116
-0.524889 -0.370183 -0.823003 61 80 23
-0.297052 0.33774 -0.819637 90 171 23
-0.673011 0.598126 -0.426785 42 204 73
0.703805 -0.170664 -0.825501 217 106 22
0.288815 -0.215579 -0.709462 164 100 37
0.323364 0.858512 0.085849 169 237 138
0.280678 0.646034 -0.329141 163 210 86
0.1098 0.321637 0.631031 141 169 208
-0.606109 -0.882817 -0.231496 50 15 98
-0.0947783 0.516755 -0.589526 115 193 52
-0.559024 0.720182 -0.434922 56 219 72
0.337638 0.101766 0.0860069 171 140 138
0.679394 0.546417 -0.695308 214 197 39
-0.134311 0.19941 -0.775941 110 153 29
-0.0366665 -0.663117 0.65204 123 43 211
-0.573712 0.47607 -0.742847 54 188 33
-0.0533958 0.370289 -0.581389 121 175 53
0.0791017 -0.410868 0.508976 138 75 192
0.353912 -0.402731 0.423828 173 76 182
0.435282 0.0692177 -0.906463 183 136 12
-0.548686 0.541167 -0.711582 58 196 37
0.66312 0.402837 -0.55523 212 179 57
0.704605 0.354014 -0.760404 217 173 31
0.565475 -0.500376 -0.788202 200 64 27
0.0772522 0.288918 -0.653439 137 164 44
0.435282 -0.052838 -0.813581 183 121 24
-0.0610777 0.841727 -0.0362067 120 235 123
0.711942 0.386563 -0.733663 218 177 34
0.459693 -0.313224 -0.891153 186 88 14
0.126074 -0.524787 0.58144 144 61 202
0.0772522 0.960046 0.224179 137 250 156
-0.671356 0.483936 -0.402374 42 189 76
0.362288 -0.679391 0.582209 174 41 202
0.419008 0.682579 -0.459333 181 215 69
0.38646 0.532059 -0.329141 177 195 86
-0.500478 -0.817721 -0.64705 64 23 45
0.370186 0.698681 -0.329141 175 217 86
0.402734 0.158725 -0.929565 179 148 9
0.231856 -0.470831 -0.776678 157 67 28
-0.459793 0.586592 -0.434922 69 202 72
0.337638 -0.744487 0.596774 171 33 204
0.30509 0.158725 0.318128 166 148 168
0.458776 -0.272538 0.085849 186 93 138
0.0468934 0.280781 0.622894 133 163 207
0.264404 -0.329498 -0.863869 161 85 17
0.0935262 -0.671254 0.876628 139 42 239
0.496633 -0.915365 0.403194 191 11 179
-0.199408 -0.0121527 -0.819781 102 126 23
0.288815 0.229404 -0.581389 164 157 53
0.215582 0.606263 -0.172137 155 205 106
0.125827 -0.00401572 -0.833638 144 127 21
0.37715 0.19941 0.077712 176 153 137
-0.346456 0.248233 -0.679034 83 159 41
-0.371612 -0.410868 -0.654622 80 75 44
-0.210144 -0.199305 -0.752267 101 102 32
0.1098 0.305192 0.628957 141 166 208
0.362049 0.212249 0.0207526 174 155 130
-0.0203924 0.329603 -0.494053 125 170 65
0.654983 0.3947 -0.557906 211 178 56
-0.250021 0.467933 0.216042 96 187 155
0.222222 0.272644 -0.345415 156 162 83
0.345775 -0.410868 -0.877055 172 75 16
-0.476067 0.449027 -0.784815 67 185 27
-0.321463 -0.313224 0.343708 87 88 171
-0.215682 0.0530666 -0.825501 100 134 22
0.679394 -0.166757 -0.825127 214 106 22
-0.152475 0.11804 0.00447853 108 143 128
0.475967 -0.451553 -0.854529 188 70 19
-0.652529 0.3947 -0.752267 44 178 32
0.394597 -0.0772491 -0.794412 178 118 26
-0.183133 0.508618 0.595662 104 192 203
-0.0366665 0.0146189 0.11026 123 129 142
0.427145 0.00412137 -0.915987 182 128 11
0.703805 0.134791 -0.679034 217 145 41
0.52479 0.524893 -0.741723 194 194 33
0.467643 0.443522 0.0370267 187 184 132
0.722576 0.508618 -0.613937 220 192 49
-0.741885 0.0610806 -0.784815 33 135 27
-0.354011 0.288918 -0.852722 82 164 19
-0.508615 -0.492239 -0.791697 63 65 27
0.272541 0.632956 -0.475607 162 208 67
-0.641709 -0.386457 -0.801089 46 78 25
-0.342929 -0.0202898 -0.540704 84 125 59
-0.370271 -0.345772 -0.190811 80 83 103
-0.236926 0.703908 0.443879 97 217 184
-0.134311 0.0448066 -0.782286 110 133 28
0.467831 0.622223 -0.638348 187 207 46
-0.0448036 -0.233257 -0.711582 122 98 37
-0.0529406 0.91878 0.150945 121 245 147
0.0118326 0.134314 0.32996 129 145 170
-0.288915 0.790395 -0.369826 91 228 80
-0.524889 0.639742 -0.638348 61 209 46
-0.638808 -0.321361 -0.847621 46 87 19
0.475967 -0.353909 -0.878704 188 82 15
-0.633727 0.646948 -0.402374 47 210 76
-0.326949 0.402837 0.191631 86 179 152
0.215582 0.622537 -0.17695 155 207 105
-0.646945 0.451087 -0.695308 45 185 39
0.273202 0.174999 -0.646485 162 150 45
-0.280778 0.0156481 0.289275 92 129 164
-0.337737 0.484207 -0.79963 84 189 26
-0.38656 0.80317 -0.288455 78 230 91
0.145986 -0.215579 -0.801089 146 100 25
-0.565575 0.370289 -0.645301 55 175 45
-0.484204 0.576697 -0.410511 66 201 75
-0.126174 0.11804 -0.758137 111 143 31
0.24813 0.492344 -0.258771 159 190 95
0.707936 0.565578 -0.3861 218 200 78
0.126074 -0.126071 0.317651 144 111 168
-0.671356 -0.345772 -0.707241 42 83 37
-0.350295 -0.288812 -0.646485 83 91 45
0.0202928 0.207548 -0.671441 130 154 42
0.695668 0.248233 -0.83468 216 159 21
0.269949 0.0854918 -0.516293 162 138 62
-0.338401 0.606263 -0.418648 84 205 74
0.150486 0.643664 -0.207085 147 210 101
0.752627 0.158725 -0.713359 223 148 37
-0.663219 -0.419005 -0.688183 43 74 40
-0.1099 0.402837 -0.670548 113 179 42
0.515864 -0.305087 0.240453 193 89 158
-0.6774 0.508618 -0.581389 41 192 53
0.101663 0.0366695 0.340104 140 132 171
-0.158722 -0.0890731 -0.760404 107 116 31
-0.235677 0.75273 0.273001 97 223 162
-0.594353 -0.720076 0.0614378 52 36 135
0.24813 0.614586 -0.475607 159 206 67
-0.715955 0.3947 -0.654622 36 178 44
0.313226 0.466655 -0.3861 167 187 78
0.394597 -0.435279 0.401984 178 72 179
-0.207545 0.500481 0.504267 101 191 192
-0.16411 0.272644 -0.361689 107 162 81
-0.322824 0.655085 -0.272181 86 211 93
0.394597 0.142451 -0.774543 178 146 29
0.299995 0.882923 0.11026 166 240 142
-0.407631 -0.248127 0.207905 76 96 154
-0.164663 0.500481 -0.101303 107 191 115
-0.215682 0.109903 -0.827744 100 142 22
-0.369868 -0.248127 -0.0280697 80 96 124
-0.443519 -0.907228 -0.561834 71 12 56
0.353912 0.817826 0.132159 173 232 144
-0.663919 -0.296949 -0.801089 43 90 25
0.487952 0.703908 0.175356 190 217 150
-0.655082 -0.419005 -0.777943 44 74 28
0.231856 -0.117934 -0.858431 157 112 18
0.264404 0.516755 -0.688581 161 193 40
-0.231956 0.246389 -0.475607 98 159 67
-0.271119 -0.150483 0.419468 93 108 181
-0.607013 -0.565472 -0.760404 50 55 31
-0.201965 -0.15862 -0.760404 102 107 31
-0.541164 -0.475965 -0.688781 59 67 40
0.603532 -0.0853862 -0.703445 204 117 38
0.101663 -0.150483 0.309301 140 108 167
-0.630825 0.589989 -0.581389 47 203 53
0.0574383 -0.475965 0.582209 135 67 202
0.322418 -0.581746 -0.613937 169 53 49
-0.622091 0.655085 -0.377963 48 211 79
-0.736453 0.00788232 -0.703445 34 129 38
-0.128713 0.321466 -0.74413 111 168 33
0.532927 0.419111 -0.595585 195 181 52
0.718881 -0.0691121 -0.727856 219 119 35
0.443419 -0.341128 0.452016 184 84 185
-0.663219 -0.329498 -0.792886 43 85 26
0.402734 0.707526 -0.321003 179 218 87
0.427145 0.563359 -0.296592 182 199 90
-0.68737 0.53303 -0.565115 40 195 55
0.378323 -0.264401 -0.0564304 176 94 120
-0.500478 0.264507 -0.852675 64 161 19
-0.240093 -0.353909 0.377371 97 82 176
0.345775 -0.760761 0.594505 172 31 203
0.353912 0.451808 -0.451196 173 185 70
0.288815 0.576243 -0.613937 164 201 49
0.280678 -0.183031 -0.714025 163 104 36
-0.205207 -0.174894 -0.760404 101 105 31
0.337638 -0.558892 -0.418648 171 56 74
0.654983 0.207548 -0.855185 211 154 18
-0.646945 0.240096 -0.804994 45 158 25
0.724023 0.0610806 -0.801089 220 135 25
-0.38656 0.806445 -0.304729 78 230 89
0.459693 -0.207442 -0.902475 186 101 12
-0.215682 0.625281 -0.66276 100 207 43
-0.492341 0.25637 -0.848789 65 160 19
-0.378423 -0.0447009 -0.745937 79 122 32
0.264404 -0.745728 0.891417 161 32 241
-0.419108 -0.126071 -0.847303 74 111 19
0.174897 0.848525 -0.0606179 150 236 120
-0.0692147 -0.491154 0.435742 119 65 183
-0.616486 -0.508513 -0.776678 49 63 28
0.199308 -0.51665 0.57505 153 62 201
0.0935262 0.321466 0.62404 139 168 207
-0.19127 -0.237713 0.419468 103 97 181
-0.598123 0.696096 -0.475607 51 216 67
0.0238495 0.0854918 0.305549 131 138 166
-0.715526 0.166862 -0.776678 36 149 28
0.424375 0.0285325 0.313686 182 131 167
-0.687631 -0.589883 -0.718443 40 52 36
-0.402834 -0.223716 -0.712545 76 99 37
0.475967 0.565231 -0.3861 188 200 78
-0.508615 -0.394594 -0.706734 63 77 37
0.307489 -0.191168 -0.74413 167 103 33
-0.508615 -0.45969 -0.691132 63 69 39
-0.125087 0.240096 -0.768541 112 158 30
0.0772522 -0.0772491 0.440608 137 118 184
-0.476067 -0.638706 0.284186 67 46 164
-0.297052 -0.256264 -0.797258 90 95 26
0.427145 0.315376 -0.670897 182 168 42
0.329501 -0.256264 -0.734486 170 95 34
-0.0773518 0.362151 0.621468 118 174 207
0.748895 0.370289 -0.622074 223 175 48
0.475967 -0.37832 -0.871691 188 79 16
0.435282 -0.353909 -0.911753 183 82 11
-0.331935 -0.199305 -0.638348 85 102 46
0.231856 0.3947 -0.744485 157 178 33
0.665564 0.0692177 -0.849912 212 136 19
0.0853892 0.638811 -0.210832 138 209 101
0.052841 0.272644 0.653321 134 162 211
-0.565412 0.720182 -0.46747 55 219 68
0.614297 0.522117 -0.410511 206 194 75
-0.402834 -0.305087 -0.700813 76 89 38
0.454993 0.3947 0.32996 186 178 170
0.174897 0.288918 0.589034 150 164 203
0.321364 0.475675 -0.369826 168 188 80
-0.00113682 0.231959 -0.630211 127 157 47
-0.756629 0.0366695 -0.776678 31 132 28
0.158623 0.101766 -0.848466 148 140 19
0.521369 0.581852 0.142808 194 202 146
0.0827318 -0.427142 0.508976 138 73 192
0.641641 -0.288812 -0.809226 209 91 24
0.363972 0.760867 0.085849 174 225 138
-0.280778 0.541167 -0.748374 92 196 32
0.419008 -0.729252 -0.735993 181 35 34
0.321364 0.248233 -0.860753 168 159 18
0.353912 0.539601 -0.711582 173 196 37
0.0853892 0.0773548 -0.764309 138 137 30
-0.375279 -0.427142 -0.654622 80 73 44
-0.321463 0.646242 -0.264044 87 210 94
0.52068 0.557441 0.085849 194 199 138
-0.402834 0.0285325 -0.847261 76 131 19
-0.687631 0.33774 -0.701914 40 171 38
0.256926 -0.0284269 -0.597663 160 124 51
0.646846 0.651984 -0.337278 210 211 84
-0.671356 -0.288812 -0.718328 42 91 36
-0.610596 0.378426 -0.581389 50 176 53
-0.1099 0.272644 -0.745862 113 162 32
-0.38656 -0.0908136 -0.866186 78 116 17
-0.0617805 0.435385 -0.622074 120 183 48
0.638709 -0.670495 -0.508156 209 42 63
0.743505 -0.0935232 -0.792952 222 116 26
0.305597 -0.207442 -0.735993 166 101 34
-0.769798 0.00412137 -0.74413 29 128 33
-0.46793 0.760867 -0.484909 68 225 66
-0.362149 0.297055 -0.848807 81 165 19
-0.508615 -0.23999 -0.732945 63 97 34
-0.168813 0.150588 -0.0117955 106 147 126
0.451556 -0.857254 -0.272181 185 18 93
0.72425 0.524893 -0.434922 220 194 72
-0.630671 -0.419005 -0.685489 47 74 40
0.30509 -0.126071 -0.764481 166 111 30
0.32157 0.25637 0.46829 169 160 187
0.150486 -0.410868 0.612599 147 75 206
-0.0644741 0.354014 -0.638348 119 173 46
-0.451656 0.313329 -0.688443 70 167 40
-0.215759 0.329603 -0.500019 100 170 64
-0.73891 0.484207 -0.434922 33 189 72
0.199308 0.526158 -0.215222 153 195 100
-0.256367 0.354014 -0.813385 95 173 24
0.0121557 0.25637 -0.600576 129 160 51
0.573612 0.313329 -0.681031 201 167 41
0.419008 -0.370183 0.398793 181 80 178
-0.297052 -0.183031 -0.814068 90 104 24
-0.419108 0.565876 -0.475607 74 200 67
-0.450919 0.248233 -0.858049 70 159 18
0.0365668 -0.728213 0.768601 132 35 225
0.150486 0.354014 0.646493 147 173 210
0.272541 0.101766 -0.709137 162 140 37
-0.598123 0.506944 -0.695308 51 192 39
-0.142448 0.541675 -0.239633 109 197 97
-0.184646 0.467933 -0.133851 104 187 110
-0.0610777 -0.238904 -0.703445 120 97 38
0.0450412 0.272644 0.622894 133 162 207
-0.486598 -0.0447009 -0.264044 65 122 94
-0.573712 0.709991 -0.483744 54 218 66
0.394597 0.653928 -0.540704 178 211 59
-0.199408 0.370289 -0.78333 102 175 28
-0.266345 0.150588 -0.532567 94 147 60
0.409954 -0.00401572 0.313686 180 127 167
0.191171 0.895832 0.0288897 152 242 131
0.264404 -0.703802 0.907369 161 38 243
-0.443519 -0.614294 -0.754353 71 49 31
-0.565575 0.345877 -0.649887 55 172 45
0.455544 -0.272538 0.0695749 186 93 136
-0.377456 -0.353909 -0.198948 79 82 102
-0.256712 0.484207 0.207905 95 189 154
0.598023 0.0610806 -0.908063 204 135 12
0.321364 -0.850269 0.499885 168 19 191
-0.402834 0.0529437 -0.845217 76 134 20
0.310472 0.89106 0.183494 167 241 151
-0.410971 0.109903 -0.832072 75 142 21
0.353912 -0.524787 -0.652541 173 61 44
-0.549301 -0.231853 -0.845297 57 98 20
-0.622534 0.541167 -0.647385 48 196 45
-0.321463 0.805871 -0.296592 87 230 90
-0.378357 -0.443416 -0.654622 79 71 44
-0.766166 0.166862 -0.687171 30 149 40
-0.0971358 -0.183031 -0.695308 115 104 39
-0.451656 -0.435279 -0.828166 70 72 22
0.532927 0.700621 -0.459333 195 217 69
-0.46793 0.459796 -0.811085 68 186 24
0.451556 -0.51665 -0.679498 185 62 41
0.24813 -0.199305 -0.865453 159 102 17
-0.151247 0.777141 0.077712 108 227 137
-0.183133 0.443522 -0.750153 104 184 32
-0.354011 0.321466 -0.847483 82 168 19
0.646846 0.0692177 -0.707858 210 136 37
0.578999 -0.362046 0.362509 201 81 174
0.357011 0.492344 -0.125714 173 190 111
0.345477 0.598126 -0.0687549 172 204 119
-0.541164 0.247337 -0.727856 59 159 35
0.337638 -0.386457 0.4457 171 78 184
-0.0435481 0.370289 -0.556978 122 175 56
-0.362149 0.653559 -0.353552 81 211 82
-0.0610777 -0.176031 0.435742 120 105 183
0.435282 -0.492239 -0.684599 183 65 40
-0.160039 0.3947 0.517113 107 178 193
0.0202928 0.0692177 0.323381 130 136 169
-0.288915 0.786949 -0.207085 91 228 101
-0.158722 0.729035 -0.329141 107 220 86
-0.345874 0.19941 -0.860538 83 153 18
-0.205973 0.598126 0.574072 101 204 201
-0.541164 0.611501 -0.255907 59 205 95
0.272541 0.524893 -0.685462 162 194 40
0.565475 0.378426 -0.610693 200 176 50
-0.337179 -0.223716 -0.638348 85 99 46
0.687531 0.53744 -0.695308 215 196 39
-0.740546 -0.0772491 -0.768541 33 118 30
-0.443519 -0.45969 -0.275555 71 69 92
-0.174996 0.183136 -0.790248 105 151 27
0.439916 0.736456 0.199768 184 221 153
0.362049 0.874786 0.259883 174 239 161
0.313226 0.463113 -0.402374 167 187 76
-0.0259121 0.321466 -0.52443 124 168 61
-0.19127 0.570548 -0.654622 103 200 44
0.754106 0.109903 -0.760404 224 142 31
-0.321463 0.231959 -0.853072 87 157 19
0.459693 -0.109797 -0.808745 186 114 24
0.126074 -0.630569 0.647446 144 47 210
-0.174996 -0.23999 -0.687694 105 97 40
0.313226 -0.777035 -0.631667 167 28 47
-0.663219 0.0610806 -0.84208 43 135 20
0.256267 -0.280675 -0.865062 160 92 17
0.459507 -0.296949 0.411331 186 90 180
0.362049 -0.475965 -0.855317 174 67 18
0.481875 0.655085 0.191631 189 211 152
0.30509 -0.0935232 -0.776124 166 116 29
0.266398 -0.394594 -0.622074 161 77 48
0.491604 -0.337635 0.207905 190 84 154
0.468657 0.248233 0.207905 187 159 154
0.256267 -0.196163 0.565935 160 102 200
0.353912 -0.272538 -0.894932 173 93 13
-0.443949 -0.728213 -0.646485 71 35 45
0.435282 0.0610806 -0.903594 183 135 12
0.296952 -0.595764 -0.792952 165 52 26
0.505549 0.345877 0.134671 192 172 145
0.476669 -0.45969 0.281138 188 69 163
0.280678 0.0773548 -0.925255 163 137 10
0.443419 0.191273 -0.908953 184 152 12
-0.557438 0.337372 -0.809226 56 171 24
0.695668 0.0285325 -0.831759 216 131 21
-0.708775 0.280781 -0.719719 37 163 36
-0.451656 0.682298 -0.646485 70 214 45
0.496694 -0.443416 0.175356 191 71 150
0.52479 0.175385 -0.727856 194 150 35
0.565475 0.701053 -0.459333 200 217 69
-0.435382 0.0366695 -0.850439 72 132 19
0.296952 0.400146 -0.475607 165 179 67
-0.46793 0.630674 -0.687385 68 208 40
0.492242 -0.614294 -0.0399317 190 49 122
-0.0854889 -0.223716 0.536855 117 99 196
0.475967 0.231959 -0.893616 188 157 14
0.345775 -0.336476 0.435742 172 85 183
-0.0203924 -0.0853862 -0.733133 125 117 34
0.581749 0.19941 -0.692475 202 153 39
0.296952 0.581852 -0.609281 165 202 50
-0.264504 0.798375 -0.272181 94 229 93
0.311252 0.215685 -0.10944 167 155 114
-0.251489 0.646948 0.411331 95 210 180
-0.524889 -0.199305 -0.861259 61 102 18
0.329501 0.867333 0.216042 170 238 155
-0.126174 0.484232 -0.198948 111 189 102
-0.459793 0.64854 -0.223359 69 210 99
0.394597 0.150588 -0.929306 178 147 9
0.484595 -0.500376 0.175356 189 64 150
-0.565575 0.3947 -0.64092 55 178 46
-0.476067 -0.549198 -0.778449 67 57 28
-0.663219 -0.313224 -0.797011 43 88 26
0.511998 -0.166757 0.207905 193 106 154
0.378323 0.528904 -0.321003 176 195 87
-0.430616 -0.23999 0.102123 73 97 141
0.231856 -0.060975 -0.874325 157 120 16
-0.402834 0.791239 -0.46747 76 228 68
-0.0936259 0.3286 0.614757 116 169 206
-0.714192 0.240096 -0.719719 36 158 36
-0.362149 0.355985 -0.841775 81 173 20
0.353912 0.0935913 0.289275 173 139 164
-0.264504 0.410974 -0.59389 94 180 52
0.741028 -0.0202898 -0.727856 222 125 35
0.638709 -0.0772491 -0.875911 209 118 16
-0.679493 -0.0780217 -0.833638 41 118 21
0.26779 0.183136 -0.556978 162 151 56
0.598023 -0.329498 -0.698746 204 85 38
-0.671356 -0.337635 -0.709013 42 84 37
-0.24823 0.215685 -0.831153 96 155 22
0.16676 0.215685 -0.79302 149 155 26
0.589227 -0.0691121 -0.866186 203 119 17
0.766548 0.134314 -0.801089 225 145 25
-0.516752 0.689245 -0.548841 62 215 58
-0.0203924 0.0122583 -0.722636 125 129 35
0.484736 0.362151 0.191631 189 174 152
0.402734 -0.740307 -0.727856 179 33 35
0.475967 0.630674 -0.615964 188 208 49
-0.435382 0.0203954 -0.853449 72 130 19
-0.508615 -0.215579 -0.73704 63 100 34
0.313226 -0.65498 0.628848 167 44 208
0.402734 0.549304 -0.728868 179 198 35
0.345775 -0.564017 -0.426785 172 56 73
-0.199408 -0.0935232 -0.795997 102 116 26
0.353912 -0.248127 -0.0712981 173 96 118
0.492242 0.305192 -0.672388 190 166 42
0.48737 -0.541061 0.102123 190 59 141
0.0121557 -0.947706 -0.337278 129 7 84
-0.38656 -0.313224 -0.813656 78 88 24
-0.451656 0.166862 -0.866456 70 149 17
0.0447039 0.109903 0.395023 133 142 178
-0.297052 -0.134208 -0.822091 90 110 23
-0.0203924 0.935231 0.24859 125 247 159
0.516653 -0.0935232 -0.77997 193 116 28
0.345775 0.0780169 0.346235 172 137 172
0.467831 -0.296949 -0.895092 187 90 13
-0.416741 -0.248127 0.175356 74 96 150
0.24813 -0.443416 0.533267 159 71 195
0.285994 0.0203954 -0.719719 164 130 36
0.337638 0.0964497 0.289275 171 140 164
0.473683 -0.443416 0.321823 188 71 169
0.362049 -0.370183 -0.878838 174 80 15
0.484871 0.638811 0.199768 189 209 153
0.199308 0.419111 -0.71235 153 181 37
0.052841 -0.150483 -0.756384 134 108 31
0.221015 0.25637 -0.809226 156 160 24
0.549201 0.33774 -0.675046 198 171 41
-0.46793 -0.663117 0.295373 68 43 165
0.458112 0.3947 0.313686 186 178 167
0.539759 0.549304 0.0451638 196 198 133
0.573612 0.297055 -0.684774 201 165 40
0.427145 -0.191168 -0.782818 182 103 28
0.459693 -0.451553 -0.703433 186 70 38
-0.394697 -0.150483 -0.726677 77 108 35
-0.508615 0.579739 -0.434922 63 201 72
-0.264504 0.599343 -0.304729 94 204 89
-0.22444 0.240096 -0.500019 99 158 64
-0.297052 -0.10166 -0.827789 90 115 22
-0.183133 -0.410868 0.397714 104 75 178
-0.492341 0.451659 -0.78333 65 185 28
0.639076 0.663222 -0.418648 209 212 74
0.428534 -0.0202898 -0.792952 182 125 26
0.0772522 -0.0447009 0.427759 137 122 182
-0.516752 0.73967 -0.500019 62 222 64
0.321364 -0.37832 0.454493 168 79 185
-0.1099 0.386563 -0.670659 113 177 42
0.0472049 0.280781 0.639168 134 163 209
0.296952 0.25637 -0.857065 165 160 18
-0.628593 -0.451553 -0.784815 47 70 27
-0.697817 0.541167 -0.451196 39 196 70
0.0121557 0.186227 -0.679034 129 151 41
0.302171 0.109903 0.191631 166 142 152
0.695668 0.305976 -0.630211 216 167 47
0.741819 0.459796 -0.638348 222 186 46
0.00831395 0.142451 0.338097 129 146 171
0.337638 0.231959 -0.877481 171 157 16
-0.281475 0.516755 -0.46747 92 193 68
-0.345501 -0.0284269 -0.711582 83 124 37
-0.280778 0.345877 -0.617271 92 172 49
0.394597 0.231959 -0.714952 178 157 36
0.516653 0.321466 -0.862913 193 168 17
-0.646945 -0.0491371 -0.719719 45 121 36
0.581749 0.231959 -0.691348 202 157 39
-0.166099 0.443522 -0.10944 106 184 114
-0.451656 0.651949 -0.223359 70 211 99
0.475967 -0.296949 -0.890432 188 90 14
0.255841 0.25637 -0.597663 160 160 51
-0.668108 0.606263 -0.434922 42 205 72
-0.0448036 -0.215579 0.516731 122 100 193
0.748885 0.0936289 -0.776678 223 139 28
-0.549301 -0.646843 -0.771466 57 45 29
0.126074 0.473077 -0.565115 144 188 55
-0.345874 0.451923 -0.817364 83 185 23
0.30509 0.0610806 -0.909382 166 135 12
-0.00411837 0.927477 0.32996 127 246 170
0.296952 -0.23999 -0.903547 165 97 12
-0.173643 0.264507 -0.377963 105 161 79
0.052841 0.876004 0.0370267 134 239 132
0.0935262 0.272644 0.645294 139 162 210
0.337638 0.0553802 0.191631 171 135 152
0.463387 0.33774 -0.0443438 187 171 122
-0.516779 0.679497 -0.581389 62 214 53
-0.394697 0.682937 -0.630211 77 215 47
-0.38656 0.712045 -0.616927 78 218 49
-0.285964 0.524893 -0.475607 91 194 67
-0.549301 0.183136 -0.739854 57 151 33
0.703805 0.0773548 -0.82511 217 137 22
0.239993 -0.711939 0.9073 158 37 243
0.329501 -0.145383 -0.223359 170 109 99
-0.541164 -0.443416 -0.693173 59 71 39
-0.500478 0.439753 -0.613937 64 184 49
0.353912 0.451659 -0.134822 173 185 110
0.503988 -0.15862 0.256727 192 107 160
-0.484204 -0.817721 0.534221 66 23 196
-0.419108 -0.134208 -0.84574 74 110 20
0.303506 -0.174894 -0.74413 166 105 33
-0.424758 -0.23999 0.134671 73 97 145
-0.288915 -0.313224 -0.783234 91 88 28
0.581749 0.0529437 -0.909386 202 134 12
-0.199408 0.191273 -0.795446 102 152 26
-0.540094 -0.00401572 -0.858049 59 127 18
-0.337737 0.549304 -0.747478 84 198 32
0.522158 -0.427142 0.085849 194 73 138
0.137058 -0.0284269 -0.849912 145 124 19
-0.333423 0.386563 0.191631 85 177 152
0.288815 0.626408 -0.52443 164 207 61
0.394597 0.0936289 -0.780237 178 139 28
0.394597 0.0800419 0.0533008 178 138 134
0.487481 -0.679391 -0.0606179 190 41 120
0.614297 -0.256264 -0.839001 206 95 21
0.576187 0.126177 -0.898734 201 144 13
0.614778 0.419111 -0.817364 206 181 23
-0.508615 0.433072 -0.622074 63 183 48
-0.0720322 0.321466 -0.239633 118 168 97
-0.410971 -0.370183 -0.693673 75 80 39
0.30509 0.895505 0.273001 166 242 162
-0.367338 -0.109797 -0.711582 81 114 37
0.451556 -0.305165 0.452016 185 89 185
0.288815 -0.0365638 0.395915 164 123 178
0.215582 0.866965 0.00447853 155 238 128
0.313226 -0.162998 -0.182674 167 107 104
-0.150585 -0.850269 0.862381 108 19 237
0.207445 -0.183031 0.571469 154 104 200
0.345775 -0.394594 -0.688801 172 77 40
-0.565575 0.354014 -0.648546 55 173 45
-0.508615 -0.337635 -0.71543 63 84 36
0.443419 0.158725 -0.913224 184 148 11
0.706351 0.345877 -0.768541 218 172 30
-0.38656 0.804154 -0.361689 78 230 81
0.443419 -0.23999 -0.921961 184 97 10
0.427145 0.493404 -0.443059 182 190 71
-0.211361 0.53303 0.500838 101 195 191
-0.469511 -0.79331 -0.46747 68 26 68
0.24813 0.197124 0.508976 159 153 192
-0.311999 0.622537 -0.288455 88 207 91
-0.437546 0.419111 -0.809226 72 181 24
-0.623424 -0.467827 -0.784815 48 68 27
-0.460304 -0.768898 -0.491881 69 29 65
0.48511 -0.134208 0.313686 189 110 167
0.1098 -0.15862 0.309003 141 107 167
-0.329513 -0.060975 -0.573252 85 120 54
0.52764 -0.305087 0.313686 195 89 167
-0.101763 0.0610806 0.0416295 115 135 133
-0.0773518 -0.497797 0.443879 118 64 184
-0.655082 -0.345772 -0.697791 44 83 39
-0.0773518 -0.20351 0.492701 118 102 190
0.313226 -0.0284269 0.388262 167 124 177
-0.402834 -0.126071 -0.85154 76 111 19
-0.321463 0.248233 -0.849484 87 159 19
0.419008 -0.0853862 -0.808673 181 117 24
-0.434151 -0.638706 -0.573252 72 46 54
0.455122 0.386563 0.0288897 186 177 131
-0.337737 0.00769822 0.273001 84 128 162
0.451556 0.683398 -0.516293 185 215 62
0.0658326 0.19941 -0.703445 136 153 38
-0.75854 0.191273 -0.687171 31 152 40
0.434392 0.297055 0.0370267 183 165 132
-0.443519 0.518673 -0.548841 71 194 58
0.223719 -0.394594 0.590458 156 77 203
0.410117 0.646948 -0.581389 180 210 53
0.0271399 0.0692177 0.32996 131 136 170
0.199308 -0.443416 0.613741 153 71 206
-0.371734 -0.394594 -0.66276 80 77 43
-0.0216803 0.321466 -0.508156 125 168 63
0.475967 -0.370183 0.379077 188 80 176
0.742472 -0.0121527 -0.727856 222 126 35
0.370186 0.456437 -0.451196 175 186 70
0.39346 -0.0121527 0.346235 178 126 172
-0.716481 0.362151 -0.687171 36 174 40
0.74449 0.289396 -0.752267 222 164 32
0.419008 0.3947 -0.845167 181 178 20
0.489444 0.516755 0.240453 190 193 158
-0.573712 -0.0202898 -0.853584 54 125 19
0.241308 -0.109797 -0.646485 158 114 45
-0.593495 0.622537 -0.565115 52 207 55
0.262495 -0.362046 -0.622074 161 81 48
-0.134311 -0.213021 0.427605 110 100 182
-0.484204 -0.435279 -0.689443 66 72 40
-0.330188 0.321466 0.134671 85 168 145
0.466369 0.524893 0.00447853 187 194 128
0.219305 -0.638706 0.867006 155 46 238
0.435282 -0.23999 -0.924362 183 97 10
-0.720179 -0.362046 -0.774138 36 81 29
-0.0610777 -0.052838 -0.731893 120 121 34
-0.679741 0.549304 -0.540704 41 198 59
-0.0914715 0.524893 -0.581389 116 194 53
0.614297 -0.223716 -0.844156 206 99 20
0.321364 0.158725 0.298404 168 148 166
-0.313326 0.541167 -0.775721 88 196 29
-0.0936259 -0.50649 0.460153 116 63 186
-0.581849 0.565578 -0.647576 53 200 45
0.753144 0.240096 -0.66276 224 158 43
0.353912 0.681694 -0.264044 173 214 94
0.353912 0.266646 -0.670897 173 161 42
-0.0703678 0.362151 -0.182674 119 174 104
0.279402 0.3947 -0.459333 163 178 69
0.329501 -0.248127 -0.902682 170 96 12
-0.0203924 0.936887 0.240453 125 247 158
0.532927 0.32262 -0.866186 195 169 17
0.467831 -0.524787 -0.832038 187 61 21
0.345775 -0.248127 0.573114 172 96 201
0.223719 -0.646523 0.867006 156 45 238
-0.573712 0.238078 -0.695308 54 158 39
0.38646 0.0801146 0.0614378 177 138 135
-0.297052 -0.280675 -0.788951 90 92 27
0.101663 0.128693 0.411331 140 144 180
-0.354011 0.0448066 -0.75807 82 133 31
-0.746889 0.0610806 -0.670897 32 135 42
0.261284 -0.329498 -0.638348 161 85 46
-0.0716645 0.329603 -0.215222 118 170 100
0.272541 -0.0447009 0.39741 162 122 178
-0.0936259 0.288918 -0.738763 116 164 33
0.467831 0.419111 -0.840457 187 181 20
0.0805688 -0.0691121 -0.825501 138 119 22
0.117937 -0.0121527 0.368103 143 126 174
-0.402834 0.0610806 -0.843132 76 135 20
-0.443519 -0.272538 -0.69649 71 93 39
0.490068 -0.524787 0.102123 190 61 141
-0.24823 0.788877 -0.410511 96 228 75
-0.027706 0.313329 -0.548841 124 167 58
-0.181217 0.345877 0.289275 104 172 164
0.326629 -0.622431 -0.6058 169 48 50
-0.339941 -0.23999 -0.638348 84 97 46
-0.646945 0.370289 -0.761698 45 175 30
-0.402834 -0.386457 -0.80471 76 78 25
0.671257 0.302012 -0.638348 213 166 46
0.435282 -0.174894 -0.924974 183 105 10
0.362049 -0.166757 -0.902326 174 106 12
0.555219 -0.191168 -0.88246 198 103 15
0.362049 0.461398 -0.459333 174 186 69
0.49777 0.272644 0.16722 191 162 149
-0.581849 0.701501 -0.516293 53 217 62
-0.605204 0.606263 -0.573252 50 205 54
-0.362149 0.313329 -0.845993 81 167 20
0.500379 0.321466 -0.865834 191 168 17
0.256267 0.598126 -0.158636 160 204 107
0.313226 0.325297 -0.597663 167 169 51
0.639947 -0.427142 -0.768541 209 73 30
-0.199408 -0.0772491 -0.799063 102 118 26
-0.0203924 0.298512 -0.3861 125 166 78
-0.435382 0.142451 -0.753282 72 146 31
-0.508615 -0.0772491 -0.883539 63 118 15
-0.548216 0.53303 -0.703445 58 195 38
-0.0610777 0.8341 -0.0433071 120 234 122
-0.0122553 0.0610806 -0.695082 126 135 39
0.487537 -0.532924 0.11026 190 60 142
0.256267 -0.264401 -0.867988 160 94 17
0.623256 0.646948 -0.52443 207 210 61
0.362049 -0.386457 -0.876098 174 78 16
-0.0692147 -0.781905 0.915828 119 28 244
0.410871 0.7075 -0.312866 180 218 88
0.468126 -0.280675 0.11026 187 92 142
0.513766 -0.174894 0.175356 193 105 150
-0.410971 0.654705 -0.679034 75 211 41
-0.410971 -0.272538 -0.820202 75 93 23
0.134211 -0.524787 0.579846 145 61 201
-0.24823 0.166862 -0.836228 96 149 21
0.383183 0.638811 -0.0280697 176 209 124
-0.394697 0.508618 -0.569452 77 192 55
-0.166859 0.19097 -0.792952 106 152 26
-0.134311 -0.0365638 -0.78663 110 123 27
-0.484204 -0.842132 -0.62359 66 20 48
0.256313 0.500481 -0.687171 160 191 40
-0.207545 -0.296949 -0.695702 101 90 39
-0.35183 0.223822 -0.711582 83 156 37
0.0772522 0.321466 0.626886 137 168 207
-0.223819 0.240096 -0.811629 99 158 24
-0.101763 0.370289 -0.668391 115 175 42
-0.533776 0.0285325 -0.858049 59 131 18
-0.573712 0.708422 -0.451196 54 218 70
-0.0448036 -0.704617 0.899554 122 38 242
0.427145 -0.362046 0.399095 182 81 178
0.0691151 -0.0772491 -0.742608 136 118 33
-0.280778 0.786225 -0.361689 92 228 81
-0.558105 -0.817721 -0.174537 56 23 105
-0.533027 -0.370183 -0.706927 60 80 37
-0.305189 -0.313224 0.348068 89 88 172
0.589886 0.0936289 -0.903799 203 139 12
-0.0448036 0.134314 -0.714122 122 145 36
0.380699 0.630674 -0.0362067 176 208 123
0.280678 0.626286 -0.532567 163 207 60
0.00401872 0.19941 -0.66007 128 153 43
-0.354011 0.459796 -0.819652 82 186 23
-0.118037 -0.671254 0.674589 112 42 214
-0.0757454 0.174999 -0.727856 118 150 35
-0.451656 -0.419005 -0.827883 70 74 22
-0.0529406 -0.703703 0.834458 121 38 234
0.738742 0.345877 -0.703445 222 172 38
0.319706 0.305192 0.508976 168 166 192
-0.714452 0.402837 -0.646485 36 179 45
-0.103894 0.573715 -0.548841 114 201 58
-0.101763 0.615775 -0.459333 115 206 69
0.052841 0.207548 -0.681246 134 154 41
-0.410971 -0.410868 -0.687223 75 75 40
0.764273 0.264507 -0.719719 225 161 36
0.117937 0.11804 -0.80062 143 143 25
-0.671356 -0.0691121 -0.723493 42 119 35
0.355725 0.158725 0.134671 173 148 145
0.46944 -0.296949 0.321823 187 90 169
-0.312303 -0.10166 -0.6058 88 115 50
0.362049 0.0753786 0.346235 174 137 172
0.271534 0.223822 -0.622074 162 156 48
0.48913 0.500481 0.264864 190 191 161
0.280678 0.606263 -0.160745 163 205 107
-0.322379 0.655085 -0.296592 86 211 90
0.0365668 0.874869 0.0207526 132 239 130
-0.595855 0.207548 -0.866186 52 154 17
-0.533027 0.577948 -0.402374 60 201 76
0.467831 -0.280675 -0.756654 187 92 31
-0.213349 0.589989 0.565935 100 203 200
-0.38656 0.807848 -0.353552 78 231 82
0.1098 0.0366695 -0.791444 141 132 27
-0.444744 0.728319 -0.556978 71 220 56
0.461448 0.3947 0.289275 186 178 164
0.234229 0.231959 -0.402374 157 157 76
-0.208498 0.321466 -0.52443 101 168 61
-0.663219 -0.353909 -0.788951 43 82 27
0.451556 0.142451 -0.757955 185 146 31
-0.0852896 0.549304 -0.508156 117 198 63
0.0365668 0.834379 -0.0931661 132 234 116
0.614297 -0.0853862 -0.853798 206 117 19
-0.297052 0.785278 -0.418566 90 228 74
0.1098 -0.638706 0.648257 141 46 210
-0.150585 -0.755203 0.858869 108 31 237
0.362049 -0.313224 -0.888019 174 88 14
0.443419 0.313329 -0.862562 184 167 18
0.101663 -0.0935232 -0.839646 140 116 20
-0.183133 0.451659 -0.748018 104 185 32
0.268367 0.11804 -0.703445 162 143 38
0.288815 0.801552 -0.0173314 164 230 125
-0.337737 -0.248127 -0.828965 84 96 22
-0.1099 0.612242 -0.475607 113 206 67
0.433716 0.500481 0.484564 183 191 189
0.513146 0.53303 0.32996 193 195 170
0.0121557 0.294187 -0.394237 129 165 77
-0.19127 -0.402731 0.396657 103 76 178
-0.0286161 0.0285325 0.118397 124 131 143
-0.317874 -0.150483 -0.622074 87 108 48
-0.410971 0.803414 -0.223359 75 230 99
0.337638 -0.329498 0.439121 171 85 183
-0.500478 0.742792 -0.483744 64 222 66
0.313226 -0.858406 0.495835 167 18 191
0.208685 0.297055 -0.166399 154 165 106
0.101663 -0.213517 -0.760404 140 100 31
-0.602506 -0.760761 0.0288897 51 31 131
-0.687631 0.213566 -0.6058 40 155 50
-0.280778 -0.305087 -0.777792 92 89 28
-0.0261408 0.0448066 0.142808 124 133 146
-0.190931 0.19941 -0.792952 103 153 26
-0.223255 0.777141 0.24859 99 227 159
-0.38656 -0.386457 -0.80246 78 78 25
0.101663 0.307824 -0.345415 140 167 83
0.622434 -0.0935232 -0.853777 207 116 19
0.142349 -0.451553 0.61249 146 70 206
-0.508615 -0.231853 -0.734132 63 98 34
0.296952 0.63201 -0.500019 165 208 64
0.079514 0.345877 -0.597663 138 172 51
-0.443519 0.0854918 -0.752278 71 138 32
0.0365668 0.142451 -0.730724 132 146 34
-0.455682 -0.223716 0.0207526 69 99 130
-0.354011 0.565578 -0.748921 82 200 32
-0.370286 0.704664 -0.622074 80 217 48
0.519343 0.573715 0.102123 194 201 141
0.30509 0.0817511 0.346235 166 138 172
-0.410971 -0.394594 -0.690347 75 77 39
0.323378 -0.59802 -0.6058 169 51 50
-0.508615 -0.199305 -0.740179 63 102 33
0.246584 -0.207442 -0.646485 159 101 45
-0.706497 0.109903 -0.801089 37 142 25
-0.150585 0.434368 -0.125714 108 183 111
0.419008 0.500481 -0.0652985 181 191 119
-0.671356 -0.256264 -0.803814 42 95 25
0.00401872 -0.944981 -0.321003 128 7 87
-0.424727 -0.248127 0.0614378 73 96 135
-0.589986 0.142451 -0.861671 52 146 18
-0.775203 0.0773548 -0.711582 29 137 37
0.0853892 0.962927 0.232316 138 250 157
0.471298 0.264507 0.207905 188 161 154
0.394597 -0.466953 -0.670897 178 68 42
0.409982 0.419111 -0.0443438 180 181 122
0.262065 0.150588 -0.500019 161 147 64
-0.671356 -0.305087 -0.715614 42 89 36
-0.712583 0.174999 -0.768541 37 150 30
-0.592244 0.272644 -0.801089 52 162 25
-0.687631 -0.0363794 -0.858049 40 123 18
0.702156 0.500481 -0.687171 217 191 40
-0.435382 0.638811 -0.360082 72 209 82
0.27048 0.11804 -0.508156 162 143 63
-0.3296 0.557441 -0.750249 85 199 32
0.561084 -0.394594 -0.833638 199 77 21
0.478112 0.378426 0.216042 188 176 155
0.113643 0.0122583 -0.801089 142 129 25
-0.305189 0.435385 -0.835863 89 183 21
0.557338 -0.0121527 -0.755197 199 126 31
-0.0726018 0.345877 -0.207085 118 172 101
-0.435382 0.497732 -0.809226 72 191 24
0.370186 -0.866543 0.485943 175 17 189
-0.591261 0.646948 -0.556978 52 210 56
0.459693 0.63459 -0.622074 186 208 48
-0.142448 0.427248 -0.719991 109 182 36
0.174897 0.223822 -0.793307 150 156 26
-0.443519 -0.923502 -0.558963 71 10 56
0.477587 0.288918 0.216042 188 164 155
0.465674 0.679497 0.077712 187 214 137
-0.0610498 0.207548 -0.687171 120 154 40
0.288815 0.908028 0.289275 164 243 164
-0.183133 0.427248 -0.747506 104 182 32
-0.161632 0.712045 -0.402374 107 218 76
-0.358989 -0.0691121 -0.719719 82 119 36
-0.0819508 -0.207442 -0.695308 117 101 39
0.0202928 0.0439599 -0.719719 130 133 36
-0.240093 0.183136 -0.828146 97 151 22
-0.158722 0.831171 -0.076892 107 233 118
0.296952 0.902021 0.281138 165 243 163
-0.150585 -0.79331 0.917155 108 26 244
0.271447 0.215685 -0.613937 162 155 49
-0.0718105 0.321466 -0.223359 118 168 99
-0.671356 -0.23999 -0.806113 42 97 25
0.459693 0.312405 -0.695308 186 167 39
0.313226 -0.248127 -0.902845 167 96 12
0.30509 -0.0853862 -0.912103 166 117 11
-0.358584 -0.329498 -0.646485 82 85 45
0.60616 -0.15862 -0.748919 205 107 32
0.116585 0.329603 -0.66276 142 170 43
0.705208 0.362151 -0.752267 217 174 32
0.451556 0.419111 -0.845065 185 181 20
0.1098 0.313329 0.626326 141 167 207
0.484105 0.191273 -0.910166 189 152 11
-0.60626 -0.923502 -0.519316 50 10 61
-0.655082 -0.394594 -0.783685 44 77 28
-0.297052 -0.150483 -0.819552 90 108 23
0.561458 -0.280675 -0.866186 199 92 17
-0.183133 -0.679391 0.688493 104 41 215
-0.418499 -0.23999 0.183494 74 97 151
-0.760864 0.11804 -0.659018 30 143 43
-0.516752 0.742535 -0.491881 62 222 65
-0.598123 -0.760761 -0.679353 51 31 41
0.573612 0.646948 -0.594248 201 210 52
0.707572 0.410974 -0.74413 218 180 33
-0.202743 0.703908 0.126534 102 217 144
-0.576625 0.663222 -0.52443 54 212 61
0.30509 -0.768898 0.577703 166 29 201
0.30509 -0.0418866 -0.752267 166 122 32
-0.663219 -0.15862 -0.722218 43 107 35
0.456216 0.720182 0.232316 186 219 157
0.370186 0.181149 0.142808 175 151 146
0.30029 -0.142346 -0.752267 166 109 32
-0.46793 -0.842132 0.541146 68 20 196
-0.524889 -0.256264 -0.851458 61 95 19
0.280678 -0.60189 -0.776678 163 51 28
0.532927 0.697751 -0.483744 195 216 66
-0.0583409 0.264507 -0.66276 120 161 43
-0.26164 0.150588 -0.581389 94 147 53
-0.0773518 0.496948 -0.573252 118 191 54
-0.321463 0.804431 -0.288455 87 230 91
-0.508615 -0.256264 -0.729752 63 95 34
0.261766 -0.337635 -0.280318 161 84 92
0.0447039 0.305192 0.610454 133 166 205
-0.256367 0.599049 -0.312866 95 204 88
0.422695 -0.296949 0.484564 181 90 189
-0.174996 0.752786 0.11026 105 223 142
-0.42073 -0.23999 0.16722 74 97 149
-0.557438 0.207548 -0.873359 56 154 16
0.313226 0.191522 -0.0931661 167 152 116
-0.293846 0.272644 0.093986 90 162 139
-0.663219 -0.345772 -0.790057 43 83 27
0.060978 0.280781 0.654956 135 163 211
0.646846 0.0203954 -0.711749 210 130 37
-0.622534 0.597475 -0.573252 48 204 54
-0.427245 0.637444 -0.353552 73 209 82
0.199308 0.886998 0.00447853 153 241 128
0.296952 -0.0853862 -0.90991 165 117 11
-0.687631 0.0854918 -0.827816 40 138 22
-0.402834 -0.174894 -0.718605 76 105 36
-0.710837 0.272644 -0.719719 37 162 36
0.0935262 -0.443416 0.604259 139 71 205
0.239993 0.590706 -0.166399 158 203 106
-0.370286 0.760867 -0.520162 80 225 61
0.573612 0.00412137 -0.731741 201 128 34
-0.508615 -0.272538 -0.727546 63 93 35
0.533714 -0.313224 0.411331 196 88 180
0.427145 0.694086 -0.272181 182 216 93
-0.321463 0.215685 -0.855653 87 155 18
-0.527399 -0.899091 -0.516293 60 13 62
0.191171 0.174999 -0.83452 152 150 21
-0.402834 -0.23999 -0.708846 76 97 37
-0.264504 0.508618 -0.769706 94 192 29
-0.565575 0.714048 -0.434922 55 219 72
-0.565575 -0.296949 -0.709602 55 90 37
0.581749 0.0692177 -0.906938 202 136 12
-0.0970897 0.915471 0.216042 115 244 155
0.492242 -0.581746 -0.0344965 190 53 123
-0.565575 0.386563 -0.64255 55 177 46
0.492242 0.541167 -0.746574 190 196 32
0.508516 0.687634 -0.26429 192 215 94
0.454962 0.3947 0.0207526 186 178 130
0.49238 0.484207 -0.801089 190 189 25
-0.207545 0.0285325 -0.825969 101 131 22
-0.0936259 0.8341 -0.0391483 116 234 123
0.427145 -0.427446 0.378783 182 73 176
0.52479 0.704619 -0.491881 194 217 65
-0.74459 0.101766 -0.769541 33 140 29
0.0935262 -0.45969 0.601605 139 69 204
0.38646 -0.256264 -0.0513983 177 95 121
0.122791 -0.0121527 -0.825501 143 126 22
0.191171 0.264507 -0.771808 152 161 29
-0.305189 -0.166757 0.404199 89 106 179
0.557338 -0.0691121 -0.872948 199 119 16
-0.527807 -0.0121527 -0.88246 60 126 15
0.060978 -0.687528 0.645575 135 40 210
0.0691151 -0.638706 0.641197 136 46 209
