ply
format ascii 1.0
comment Created by Open3D
element vertex 1216
property double x
property double y
property double z
property uchar red
property uchar green
property uchar blue
end_header
0.508227 -0.431471 0.371278 192 72 175
-0.207136 0.457681 0.509917 101 186 193
0.470339 -0.408993 -0.714024 187 75 36
-0.36316 -0.0266536 -0.549234 81 124 57
0.494943 0.52086 0.0205208 191 194 130
0.517067 -0.560725 0.0612442 193 56 135
0.327873 -0.462075 -0.272126 169 69 93
-0.559794 -0.527108 -0.248575 56 60 96
0.397865 -0.964722 -0.00135566 178 4 127
0.500317 -0.446707 -0.00894259 191 71 126
0.381844 -0.375947 -0.15096 176 80 108
0.100699 0.395617 -0.608055 140 178 50
-0.724887 0.513169 -0.483738 35 193 66
-0.382203 0.244235 -0.159461 79 159 107
-0.137032 -0.682209 0.710271 110 41 218
0.345656 0.393753 -0.130858 172 178 111
-0.46178 -0.637383 -0.620177 69 46 48
0.491801 -0.552703 -0.0319493 190 57 123
-0.506321 -0.766821 -0.409535 63 30 75
0.145062 0.999601 0.171521 146 255 149
-0.409465 0.600157 -0.725625 75 204 35
0.697314 0.256974 -0.852514 216 160 19
-0.17596 0.260322 0.319657 105 161 168
-0.0701924 -0.172389 -0.761386 119 106 30
0.613702 -0.291775 -0.834657 206 90 21
0.319534 -0.807927 0.573639 168 24 201
0.265096 0.362258 -0.38826 161 174 78
-0.505645 -0.926334 -0.0268767 63 9 124
-0.47569 -0.433427 -0.191628 67 72 103
0.38867 0.683221 0.00123808 177 215 128
0.361509 -0.607602 -0.821613 174 50 23
-0.129308 -0.989627 0.590732 111 1 203
-0.778902 0.174749 -0.645462 28 150 45
0.267157 0.0465189 -0.930117 162 133 9
-0.614366 0.240654 -0.635573 49 158 46
-0.461593 -0.769596 -0.488435 69 29 65
-0.215088 -0.821792 0.717124 100 23 219
0.474348 -0.236747 -0.895706 188 97 13
0.307063 0.770586 0.523254 167 226 194
-0.239725 0.832174 0.201326 97 234 153
-0.525591 -0.613814 0.143922 60 49 146
-0.470225 -0.829603 0.084346 68 22 138
0.563483 -0.858126 -0.442819 199 18 71
0.0610302 -0.155571 -0.769926 135 108 29
0.445246 0.401047 -0.605227 184 179 50
-0.649328 0.525273 -0.640021 45 194 46
-0.143902 0.256022 0.357264 109 160 173
0.225102 0.210259 0.50489 156 154 192
-0.262037 0.784684 0.364299 94 228 174
-0.401233 -0.228433 -0.568804 76 98 55
-0.174007 0.0532789 0.305012 105 134 166
0.0938217 -0.569973 0.633338 139 55 208
0.301362 0.83531 -0.00128654 166 234 127
-0.422162 -0.584774 0.389171 74 53 177
0.54694 -0.864132 -0.117846 197 17 112
0.134411 -0.998181 -0.129181 145 0 111
0.456103 0.322043 0.0959939 186 169 140
0.274299 -0.731011 0.691198 162 34 216
0.466406 -0.831638 -0.187795 187 21 104
-0.0987999 0.373207 -0.148191 115 175 109
0.450293 -0.490468 -0.686702 185 65 40
0.2178 -0.813009 0.869652 155 24 238
0.316643 -0.224497 -0.101269 168 99 115
0.116237 0.1414 -0.808465 142 146 24
-0.336711 -0.586894 -0.7161 85 53 36
-0.145199 0.830228 0.0429021 109 233 133
-0.651255 0.11374 -0.870484 44 142 17
-0.228639 -0.831783 -0.708632 98 21 37
-0.359377 0.643017 -0.706788 82 209 37
0.253578 0.569297 -0.615221 160 200 49
-0.749257 0.480595 -0.508593 32 189 63
-0.558372 -0.693934 -0.724284 56 39 35
0.303154 0.193484 -0.879483 166 152 15
-0.175372 -0.479497 0.452647 105 66 185
-0.279743 0.60733 -0.27469 92 205 92
0.292698 -0.437757 -0.333279 165 72 85
-0.224407 0.708261 -0.127907 99 218 111
-0.558176 -0.602235 0.0935368 56 51 139
0.515801 -0.140886 -0.771879 193 110 29
-0.46112 -0.473373 -0.269564 69 67 93
0.135336 0.875805 -0.0535789 145 239 121
0.10532 -0.989848 0.617356 141 1 206
-0.096906 -0.997874 -0.0960479 115 0 115
0.219884 -0.0885451 0.420916 156 116 181
0.319313 0.11716 -0.456566 168 142 69
0.626344 -0.0733673 -0.692431 207 118 39
0.102347 -0.996638 0.18775 141 0 151
0.361312 -0.0563826 0.405379 174 120 179
-0.696445 0.134379 -0.847747 39 145 19
0.457277 -0.889478 -0.529917 186 14 60
-0.13908 0.796714 0.0647036 110 229 136
0.343031 -0.42447 -0.879381 171 73 15
-0.379057 0.43329 -0.576336 79 183 54
-0.414674 -0.470984 -0.591295 75 67 52
-0.330394 -0.0993637 -0.645842 85 115 45
0.351214 0.0434727 0.403984 172 133 179
-0.531343 -0.764113 0.374861 60 30 175
-0.47128 -0.373432 -0.286233 67 80 91
0.328894 0.74293 -0.076115 169 222 118
-0.140133 0.282619 -0.237315 110 164 97
0.00140211 -0.94845 -0.309769 128 7 88
0.371033 -0.409812 -0.226602 175 75 99
0.305131 -0.735128 -0.649235 166 34 45
0.344215 0.910491 0.290425 171 244 165
0.487196 -0.906014 -0.486492 190 12 65
0.524095 0.290011 -0.877931 194 164 16
0.770663 0.178787 -0.708115 226 150 37
-0.563654 -0.848275 0.430754 56 19 182
0.137229 0.952757 0.336734 145 249 170
0.463202 -0.600606 -0.636819 187 51 46
-0.549888 0.50915 -0.748998 57 192 32
0.760547 0.395238 -0.71205 224 178 37
0.482898 0.690241 -0.538523 189 216 59
-0.442534 -0.577369 -0.635859 71 54 46
-0.454986 0.515256 -0.790561 69 193 27
-0.289327 0.571233 0.223683 91 200 156
-0.428801 0.108108 -0.360933 73 141 81
-0.3567 0.253408 -0.17533 82 160 105
0.4462 -0.87204 -0.564624 184 16 56
0.382473 -0.0367582 -0.437308 176 123 72
0.486105 -0.624335 -0.130291 189 48 111
0.413675 -0.262854 -0.744296 180 94 33
0.215362 0.598188 -0.532777 155 204 60
-0.0148295 -0.271166 0.327207 126 93 169
0.459076 0.198837 -0.908062 186 153 12
-0.48219 -0.718742 -0.737185 66 36 34
-0.00732432 0.239937 0.618268 127 158 206
-0.227266 0.846539 0.322096 99 235 169
0.307172 -0.472233 -0.480994 167 67 66
-0.516066 0.260382 -0.717227 62 161 36
0.302371 -0.488371 -0.556594 166 65 57
-0.318884 0.448839 -0.59428 87 185 52
0.0237426 0.0145006 0.387481 131 129 177
-0.482309 -0.327436 -0.484363 66 86 66
-0.659151 -0.58505 -0.626836 43 53 48
0.419185 0.423411 -0.556776 181 181 57
0.16578 -0.673274 0.922838 149 42 245
-0.756506 0.0447895 -0.704169 31 133 38
0.159033 0.314223 -0.238464 148 168 97
0.485445 0.657542 0.151461 189 211 147
-0.552961 0.648693 -0.606557 57 210 50
-0.436597 -0.162484 0.309011 72 107 167
0.0117917 -0.678787 0.660502 129 41 212
0.387714 0.526942 -0.166676 177 195 106
0.556243 -0.0346988 0.149784 198 123 147
-0.0838262 0.539236 0.657078 117 196 211
0.439861 0.299532 0.316205 184 166 168
-0.222918 -0.189753 -0.785746 99 103 27
-0.549566 -0.111026 -0.86345 57 113 17
-0.569345 -0.671168 0.0570142 55 42 135
0.331995 0.841733 0.11097 170 235 142
-0.118129 -0.964026 -0.688673 112 5 40
-0.153138 -0.823123 -0.738987 108 23 33
-0.535897 0.653015 -0.186839 59 211 104
0.320479 -0.473913 -0.64325 168 67 45
-0.218855 0.603288 -0.00709997 100 204 127
-0.652117 0.556617 -0.621009 44 198 48
-0.322377 0.206472 -0.38089 86 154 79
0.51696 -0.441137 0.0904987 193 71 139
0.0802548 0.950558 0.0954169 138 249 140
-0.607141 -0.0696032 -0.729693 50 119 34
0.289919 -0.69885 0.860515 164 38 237
0.732118 0.212143 -0.813587 221 155 24
0.485042 -0.596298 -0.0565342 189 51 120
0.449562 0.681181 -0.532939 185 214 60
-0.355654 -0.0628891 -0.547306 82 119 58
-0.445403 0.173328 -0.0990774 71 150 115
0.214014 0.592381 -0.441751 155 203 71
-0.502532 0.292107 -0.843955 63 165 20
0.213212 -0.505325 -0.70192 155 63 38
-0.668582 0.28647 -0.759021 42 164 31
0.232195 0.914931 0.0819002 157 244 138
0.312954 -0.278481 -0.709966 167 92 37
-0.623458 0.0885385 -0.852822 48 139 19
0.430499 0.855676 0.243395 182 237 159
-0.180698 0.419885 0.507567 104 181 192
0.458548 -0.849108 0.434853 186 19 183
-0.118232 0.0943441 0.051759 112 140 134
0.467593 0.725602 -0.384747 187 220 78
0.443362 -0.636219 -0.355695 184 46 82
-0.180862 -0.174672 -0.74127 104 105 33
0.443161 -0.687399 0.361005 184 40 174
-0.214564 -0.351677 0.444618 100 83 184
-0.428995 -0.593666 -0.798961 73 52 26
0.0282332 0.0344801 -0.737961 131 132 33
-0.127599 -0.999097 -0.460191 111 0 69
0.501388 0.723897 -0.364281 191 220 81
0.312618 -0.269627 -0.485996 167 93 66
0.24492 0.714662 -0.139242 159 219 110
0.678259 -0.369343 -0.656395 214 80 44
-0.420561 -0.879763 0.075992 74 15 137
-0.213668 0.71424 0.163612 100 219 148
0.495288 0.460227 -0.538993 191 186 59
-0.0761127 0.541498 -0.471153 118 197 67
0.636407 0.386618 -0.572775 209 177 54
0.643515 0.253408 -0.886997 210 160 14
0.488219 -0.368116 0.37931 190 81 176
0.540777 -0.8303 -0.46948 196 22 68
-0.757064 0.181985 -0.708922 31 151 37
-0.521284 -0.826814 0.511806 61 22 193
0.686792 0.0312387 -0.695217 215 131 39
-0.464464 -0.158308 0.225284 68 107 156
0.0380301 -0.999792 -0.564196 132 0 56
-0.276698 0.101791 0.0364705 92 140 132
0.0345707 0.306568 -0.409824 132 167 75
-0.734053 0.255651 -0.685819 34 160 40
0.375303 -0.952309 -0.553773 175 6 57
0.452777 -0.0736888 -0.284548 185 118 91
0.111743 0.361701 -0.227366 142 174 99
0.288975 0.621801 -0.163165 164 207 107
0.0673786 -0.946434 -0.704976 136 7 38
0.0806233 0.976514 0.289707 138 252 164
0.513671 -0.422865 0.162344 193 74 148
-0.131206 -0.520817 0.519815 111 61 194
-0.0696099 0.610665 0.647918 119 205 210
0.0451794 -0.84159 -0.762957 133 20 30
-0.196074 0.31463 -0.809052 103 168 24
0.0879543 0.964322 0.222525 139 250 156
0.412088 -0.807063 0.523923 180 25 194
0.43509 -0.448675 -0.16845 183 70 106
-0.0357477 -0.890844 0.790421 123 14 228
0.0387867 0.955889 0.355179 132 249 173
0.463018 -0.994391 -0.211421 187 1 101
0.476659 -0.737475 -0.131583 188 33 111
0.222942 -0.244472 0.545441 156 96 197
-0.0529061 -0.442941 0.380852 121 71 176
-0.0690868 0.306991 -0.707953 119 167 37
-0.212098 -0.817224 0.82375 100 23 233
-0.0957564 0.830212 -0.0600214 115 233 120
0.479703 -0.465255 0.289745 189 68 164
-0.0741767 0.220742 0.372271 118 156 175
0.379283 0.0952465 0.267584 176 140 162
0.190288 -0.532943 0.587293 152 60 202
0.257617 0.019684 -0.590833 160 130 52
-0.149231 0.31529 0.425603 108 168 182
0.454031 -0.414461 -0.879542 185 75 15
-0.249956 0.191788 0.0263827 96 152 131
0.471823 -0.428703 -0.0927633 188 73 116
-0.352077 -0.997677 -0.356418 83 0 82
0.374462 0.0771563 -0.429303 175 137 73
0.0384514 0.679737 -0.180807 132 214 104
0.397089 -0.117912 0.462962 178 112 187
0.454783 -0.0469019 0.303326 185 122 166
-0.358437 -0.332854 -0.15279 82 85 108
0.0263549 -0.380271 0.336708 131 79 170
-0.045613 0.320228 0.620298 122 168 207
-0.512365 0.323253 -0.821927 62 169 23
0.261317 -0.407183 -0.846488 161 76 20
0.213803 0.741332 0.595653 155 222 203
-0.398642 -0.529768 0.428418 77 60 182
-0.160449 0.377857 -0.112627 107 176 113
0.213377 0.506919 -0.333819 155 192 85
-0.205737 -0.995308 0.275653 101 1 163
-0.135761 -0.999046 -0.43284 110 0 72
0.421931 0.537191 -0.23037 181 196 98
0.260673 0.317116 -0.494513 161 168 64
0.00663629 -0.671483 0.880475 128 42 240
0.0107078 -0.451623 -0.75742 129 70 31
0.507997 0.485978 0.0476544 192 189 134
0.378221 -0.184411 -0.750652 176 104 32
-0.314259 -0.960412 -0.628356 87 5 47
-0.422415 -0.232209 -0.00888012 74 98 126
0.539448 -0.572922 -0.799177 196 54 26
-0.177031 0.764822 0.00441302 105 225 128
-0.305025 -0.498116 0.491768 89 64 190
-0.381754 0.589144 -0.75327 79 203 31
0.251394 -0.596813 -0.728134 160 51 35
0.151646 0.320386 0.613863 147 168 206
-0.315324 -0.998383 -0.48654 87 0 65
-0.443779 -0.0160562 0.248925 71 125 159
-0.744124 0.458415 -0.524179 33 186 61
0.03246 0.751946 0.616199 132 223 206
0.503145 -0.820263 0.443892 192 23 184
-0.560916 0.37047 -0.798085 56 175 26
-0.0713234 -0.982388 0.683651 118 2 215
-0.64352 0.484203 -0.646367 45 189 45
-0.495775 0.361716 -0.635961 64 174 46
0.457485 -0.507068 -0.193137 186 63 103
-0.246056 0.792891 -0.277359 96 229 92
0.399212 -0.068613 -0.791111 178 119 27
0.558749 -0.807638 -0.136669 199 25 110
0.17951 0.466491 -0.663604 150 187 43
0.367981 0.358033 -0.109787 174 173 114
-0.253085 0.686336 0.508466 95 215 192
-0.492158 0.440855 -0.605224 65 184 50
0.269932 0.634036 -0.456989 162 208 69
0.00486224 0.171882 0.439721 128 149 184
-0.754929 -0.184881 -0.734689 31 104 34
-0.301177 -0.0327898 0.393358 89 123 178
0.27666 -0.830876 0.596854 163 22 204
-0.289033 0.586895 -0.379058 91 202 79
0.359059 0.423816 -0.825188 173 182 22
-0.0461977 -0.189053 0.478884 122 103 189
-0.616921 0.685205 -0.508892 49 215 63
0.116446 0.465294 -0.565221 142 187 55
-0.22734 -0.513177 0.530667 99 62 195
0.310458 -0.252322 -0.714331 167 95 36
0.00916037 -0.80749 -0.782684 129 25 28
0.0843202 0.176343 -0.748119 138 150 32
0.241127 0.369596 0.617387 158 175 206
-0.57802 -0.782159 -0.0677905 54 28 119
-0.121412 0.569858 -0.339301 112 200 84
-0.242313 -0.751851 -0.72335 97 32 35
0.26089 -0.870903 0.602215 161 16 204
-0.042143 0.454874 0.657828 122 185 211
-0.386252 -0.470121 -0.651489 78 68 44
0.14371 -0.581433 -0.729709 146 53 34
0.476822 0.326199 0.123261 188 169 143
-0.0769736 0.491601 0.658201 118 190 211
0.625217 0.454429 -0.514807 207 185 62
0.669854 0.514034 -0.756239 213 193 31
0.532672 -0.375103 0.140233 195 80 145
0.30612 0.49809 0.613665 167 191 206
-0.245872 0.230215 -0.541029 96 157 59
0.41198 0.611265 -0.656641 180 205 44
-0.294396 0.565179 0.0454711 90 200 133
-0.5519 -0.461931 -0.0731587 57 69 118
-0.580696 -0.618089 -0.0748911 53 49 118
-0.370173 -0.349949 -0.17362 80 83 105
-0.0785787 -0.459458 0.401478 117 69 179
0.469251 -0.854385 -0.683865 187 19 40
-0.223468 0.808983 0.225371 99 231 156
0.0266781 -0.758241 -0.769985 131 31 29
0.27884 -0.232882 -0.598096 163 98 51
-0.404005 0.126615 -0.834634 76 144 21
0.499758 0.423548 0.312488 191 182 167
-0.715345 0.422869 -0.444935 36 181 71
0.0231064 -0.0281088 0.423568 130 124 182
-0.495241 -0.333463 -0.0542008 64 85 121
0.446186 -0.494776 0.356945 184 64 173
0.473471 -0.555197 -0.192688 188 57 103
0.600797 0.52455 -0.427758 204 194 73
-0.521966 0.393258 -0.789591 61 178 27
0.524438 -0.922951 -0.149767 194 10 108
0.244698 -0.156223 -0.870315 159 108 17
0.229285 0.488677 -0.25838 157 190 95
-0.0939678 -0.279201 0.488578 116 92 190
-0.197073 0.127047 0.140626 102 144 145
-0.467144 -0.359237 -0.694514 68 82 39
0.00828982 0.8939 0.458053 129 241 186
-0.449594 -0.595142 -0.762865 70 52 30
0.254313 0.686755 -0.19401 160 215 103
-0.309151 0.0792768 -0.640803 88 138 46
0.500836 0.429197 0.37199 191 182 175
0.458395 -0.680932 0.107858 186 41 141
-0.699581 0.54426 -0.4695 38 197 68
-0.36921 -0.522208 0.470186 80 61 187
0.501334 -0.826222 -0.682122 191 22 41
0.477667 -0.216211 0.403325 188 100 179
0.0253574 -0.997294 0.0544251 131 0 134
0.335383 0.466842 -0.255768 170 187 95
0.436647 -0.997724 -0.405617 183 0 76
-0.176429 0.61535 -0.02689 105 206 124
-0.0173269 0.682208 0.636993 125 214 209
-0.157894 0.844816 0.103065 107 235 141
-0.137468 -0.889804 0.858614 110 14 237
-0.23314 -0.0335089 0.417901 98 123 181
-0.464725 -0.986064 0.404781 68 2 179
0.414996 -0.563859 0.46312 180 56 187
0.598441 0.590159 -0.661026 204 203 43
0.540931 0.702217 -0.322331 196 217 86
-0.413567 -0.347144 0.29521 75 83 165
0.337066 0.681058 -0.396713 170 214 77
0.69151 -0.29793 -0.770099 216 90 29
0.403769 0.746242 0.10416 179 223 141
-0.45061 -0.438115 -0.541835 70 72 58
0.513804 -0.178742 -0.759273 193 105 31
-0.17017 0.558539 -0.673414 106 199 42
0.450174 -0.20571 -0.0703067 185 101 119
-0.457065 -0.328109 -0.521823 69 86 61
-0.586571 0.564291 -0.348705 53 199 83
-0.0745378 0.313414 0.527091 118 167 195
-0.0956196 0.377202 -0.397513 115 176 77
-0.534937 0.603336 -0.240167 59 204 97
-0.350315 0.389431 0.0339639 83 177 132
-0.470183 -0.819989 0.525889 68 23 195
0.451395 0.526445 0.426996 185 195 182
-0.279551 -0.996974 -0.0559038 92 0 120
-0.0769849 0.503313 -0.617135 118 192 49
0.630219 0.515871 -0.366684 208 193 81
-0.738551 0.496292 -0.448087 33 191 70
-0.402819 -0.96889 0.226127 76 4 156
-0.200267 0.133614 0.194917 102 145 152
-0.325823 0.155958 -0.857168 86 147 18
0.473641 0.721342 0.171251 188 219 149
0.317207 -0.290668 -0.391541 168 90 78
0.691223 0.233968 -0.638191 216 157 46
-0.235547 -0.841766 0.654992 97 20 211
-0.251065 0.269739 -0.188586 95 162 103
0.045541 0.87985 0.470715 133 240 188
0.54277 0.471377 -0.532455 197 188 60
0.341115 -0.979683 0.471665 171 3 188
-0.578109 -0.655681 -0.754518 54 44 31
0.110967 -0.997938 -0.0595497 142 0 120
-0.351399 -0.460025 0.446016 83 69 184
-0.0362948 0.0487384 0.123696 123 134 143
0.481942 0.304076 -0.873263 189 166 16
0.540893 0.633207 -0.61511 196 208 49
-0.449671 -0.735397 0.137272 70 34 145
-0.285942 0.0115404 0.306631 91 129 167
0.500071 -0.314382 -0.895171 191 87 13
0.52658 -0.895684 -0.111615 195 13 113
0.374872 -0.22556 -0.118452 175 99 112
-0.0995869 -0.894166 -0.720843 115 13 36
-0.580058 -0.523176 -0.396437 54 61 77
-0.49213 -0.455045 -0.296089 65 69 90
-0.0970011 -0.999103 -0.42041 115 0 74
0.424503 -0.842544 0.519175 182 20 194
0.495487 0.374033 0.084982 191 175 138
-0.260517 0.534551 -0.760006 94 196 31
0.381475 0.652116 -0.549573 176 211 57
0.409293 -0.576051 -0.403628 180 54 76
-0.128295 0.448912 -0.724124 111 185 35
-0.467607 0.756763 -0.215582 68 224 100
-0.402924 -0.993885 0.269264 76 1 162
0.146605 0.568887 -0.269934 146 200 93
-0.401856 0.083977 -0.407231 76 138 76
-0.41567 -0.859204 0.170092 75 18 149
-0.194762 0.47316 -0.0962678 103 188 115
0.37276 0.188726 -0.0984447 175 152 115
-0.191397 0.397681 -0.413149 103 178 75
-0.0536596 0.349973 -0.413413 121 172 75
0.186192 -0.7736 0.875411 151 29 239
0.11361 -0.994771 0.540399 142 1 196
-0.70602 0.539692 -0.377965 37 196 79
-0.403638 0.770529 -0.513038 76 226 62
0.500133 0.549832 -0.424403 191 198 73
0.261312 -0.277951 -0.162267 161 92 107
0.265015 -0.762237 0.876195 161 30 239
0.0656027 0.0269437 0.379388 136 131 176
0.340279 -0.997325 -0.000786948 171 0 127
-0.185145 0.554817 -0.192607 104 198 103
0.428239 -0.699951 0.204173 182 38 154
0.477218 0.703348 0.270754 188 217 162
-0.754821 0.398007 -0.519596 31 178 61
0.0141726 -0.0591388 0.436264 129 120 183
0.0966953 -0.285156 0.5008 140 91 191
-0.182 0.240328 0.311296 104 158 167
-0.0420778 -0.283644 0.351171 122 91 172
-0.284123 0.429879 -0.0591962 91 182 120
0.116578 -0.997177 0.080562 142 0 138
0.13613 -0.239648 0.428609 145 97 182
0.206202 -0.715059 0.881642 154 36 240
0.0967082 0.666501 -0.213486 140 212 100
-0.0419844 0.0886989 0.220636 122 139 156
-0.39825 -0.754019 0.564907 77 31 200
0.0672489 0.871472 -0.0101327 136 239 126
0.414805 -0.726136 -0.437617 180 35 72
-0.483571 -0.0840168 -0.126959 66 117 111
0.21256 0.595298 -0.174926 155 203 105
-0.138511 0.586126 -0.0982169 110 202 115
0.116273 -0.998313 -0.153254 142 0 108
0.682052 0.40101 -0.543991 214 179 58
-0.301435 0.228048 -0.0979289 89 157 115
-0.737327 -0.47475 -0.713456 33 67 37
0.474841 0.551475 -0.219793 188 198 99
0.0263355 -0.939054 -0.701348 131 8 38
-0.0447516 -0.274315 -0.713901 122 93 36
-0.423378 -0.383161 -0.565867 74 79 55
0.258513 0.0608628 -0.595112 160 135 52
0.439591 -0.791931 0.498189 184 27 191
-0.245297 0.726636 0.325983 96 220 169
0.219889 -0.998328 -0.1879 156 0 104
-0.00453017 0.891477 0.0169999 127 241 130
-0.119533 -0.996666 0.121359 112 0 143
0.107997 -0.593085 0.666719 141 52 213
-0.445861 -0.943946 0.0102703 71 7 129
-0.117683 0.484994 -0.668766 112 189 42
0.715564 0.267876 -0.63157 219 162 47
0.424963 -0.936881 0.00424723 182 8 128
0.173459 -0.448053 -0.712104 150 70 37
-0.298404 0.658251 -0.641559 89 211 46
-0.308331 -0.705093 -0.713431 88 38 37
-0.603367 -0.680588 -0.362807 51 41 81
0.40563 0.00405046 0.372188 179 128 175
0.506124 0.523156 0.265402 192 194 161
0.362637 -0.99581 0.319386 174 1 168
-0.671529 -0.242674 -0.805708 42 97 25
0.463251 -0.927952 -0.0469705 187 9 122
0.0238784 0.197068 -0.681876 131 153 41
0.271824 0.331372 0.588312 162 170 203
-0.560725 -0.871121 -0.392595 56 16 77
-0.0988824 0.00699291 0.0725414 115 128 137
-0.582357 -0.82222 -0.140618 53 23 110
0.748834 -0.0694411 -0.79554 223 119 26
-0.484254 -0.271629 -0.298781 66 93 89
-0.11786 -0.995583 0.308482 112 1 167
-0.353073 0.0161211 0.266286 82 130 161
-0.584657 -0.330746 -0.696604 53 85 39
-0.241244 0.672567 0.40852 97 213 180
0.173542 0.383192 -0.376872 150 176 79
-0.358877 -0.698097 0.591377 82 38 203
-0.52852 -0.767823 0.0894335 60 30 139
-0.236397 0.220731 -0.822339 97 156 23
-0.268897 0.637233 -0.0952627 93 209 115
0.319107 -0.998563 -0.363423 168 0 81
-0.571948 -0.882387 0.36261 55 15 174
0.0828877 -0.0323899 0.427939 138 123 182
0.374963 -0.558145 -0.397704 175 56 77
-0.279861 0.265014 -0.237806 92 161 97
0.154334 0.494664 -0.436997 147 191 72
-0.502723 -0.996713 -0.395006 63 0 77
0.530842 -0.0802835 -0.0754188 195 117 118
-0.335903 0.164788 -0.0133486 85 149 126
0.332565 0.485343 -0.169307 170 189 106
-0.169485 0.659341 -0.0237084 106 212 124
0.678781 0.439561 -0.478616 214 184 66
0.295312 -0.75037 0.791305 165 32 228
0.528358 0.389041 -0.600199 195 177 51
0.0952237 -0.598687 0.887576 140 51 241
-0.166783 -0.251158 -0.692241 106 95 39
0.0574989 -0.298274 -0.711154 135 89 37
-0.58188 -0.730084 -0.115814 53 34 113
0.595989 0.550114 -0.29365 203 198 90
0.0468057 0.955617 0.312455 133 249 167
-0.315844 -0.997629 -0.300288 87 0 89
0.0491283 -0.732629 0.672493 134 34 213
-0.493989 -0.996976 -0.439595 65 0 71
-0.0658305 0.960618 0.229332 119 250 157
0.24634 -0.997604 -0.0126551 159 0 126
-0.596422 0.636164 -0.574436 51 209 54
-0.759645 0.266624 -0.573244 31 161 54
0.54783 0.625265 -0.642724 197 207 46
0.578896 0.112624 -0.899499 201 142 13
0.119794 -0.998044 -0.0944603 143 0 115
-0.415114 0.197061 -0.0837125 75 153 117
0.643914 0.153602 -0.643395 210 147 45
0.23179 -0.997138 0.0860049 157 0 138
0.300443 0.379266 -0.151248 166 176 108
0.248996 -0.490226 0.551966 159 65 198
-0.454516 -0.7309 0.389923 70 34 177
-0.417956 -0.195703 -0.202308 74 103 102
-0.236554 -0.994437 0.435933 97 1 183
-0.670235 0.475884 -0.415341 42 188 75
0.567684 0.419665 -0.586145 200 181 53
0.2559 -0.996264 0.104531 160 0 141
0.413387 0.030919 0.353868 180 131 173
-0.603661 -0.774523 0.0139701 51 29 129
-0.343413 -0.804446 -0.682568 84 25 40
0.431884 0.501688 -0.77888 183 191 28
0.437173 0.444471 -0.851489 183 184 19
-0.203169 0.710213 0.117556 102 218 142
-0.312438 0.510639 0.152609 88 193 147
0.50765 -0.900581 -0.482762 192 13 66
0.336642 0.133849 -0.433113 170 145 72
0.140091 -0.950091 -0.668862 145 6 42
0.327419 0.263272 0.498417 169 161 191
0.334979 -0.801716 -0.643438 170 25 45
-0.63275 -0.757512 -0.581061 47 31 53
0.365367 -0.973971 0.0231921 174 3 130
0.67832 -0.664864 -0.589194 214 43 52
0.750545 0.0852625 -0.714987 223 138 36
0.173858 0.51029 -0.240595 150 193 97
0.207051 -0.271663 -0.867199 154 93 17
0.638441 0.244331 -0.660859 209 159 43
0.513031 -0.32199 0.444794 193 86 184
-0.356033 -0.759395 0.641265 82 31 209
0.434052 -0.00828335 -0.780335 183 126 28
-0.482064 -0.746913 -0.460558 66 32 69
-0.143855 -0.293137 0.560351 109 90 199
0.145331 0.499352 -0.55542 146 191 57
-0.071431 -0.999033 -0.387684 118 0 78
0.130723 0.888641 0.0517886 144 241 134
0.55897 -0.0462266 0.077442 199 122 137
0.404642 -0.491609 -0.662103 179 65 43
0.368276 0.855294 0.223582 174 237 156
0.359451 0.214377 -0.0502745 173 155 121
0.154775 -0.170928 0.513888 147 106 193
-0.362058 -0.548893 -0.761193 81 58 30
-0.417299 -0.997631 -0.463318 74 0 68
-0.474704 -0.701527 -0.491283 67 38 65
-0.191007 0.848488 0.329666 103 236 170
0.039111 -0.48249 0.448414 132 66 185
0.135431 -0.9251 -0.68179 145 10 41
-0.513606 -0.00922353 -0.236308 62 126 97
0.459082 -0.583392 0.329661 186 53 170
0.379642 -0.998465 -0.30896 176 0 88
0.402524 -0.025955 0.349817 179 124 172
-0.216281 -0.433956 -0.717213 100 72 36
-0.140871 -0.312034 0.549554 110 88 198
-0.0912264 0.0322993 -0.812949 116 132 24
-0.639853 0.283559 -0.580007 46 164 54
-0.519948 -0.0650898 -0.767688 61 119 30
0.472791 -0.932882 -0.0644533 188 9 119
0.218141 -0.999606 -0.499755 155 0 64
0.737778 0.460982 -0.669742 222 186 42
-0.472596 -0.277808 0.173498 67 92 150
0.589968 0.419532 -0.845469 203 181 20
0.278578 -0.70681 0.644626 163 37 210
-0.471133 -0.747785 0.201497 67 32 153
-0.403145 0.38663 -0.652563 76 177 44
-0.518651 -0.632346 -0.460724 61 47 69
-0.254045 -0.850929 0.590316 95 19 203
-0.496202 -0.344722 -0.302382 64 84 89
-0.173415 0.761827 0.117918 105 225 143
-0.148706 0.0694158 -0.791185 109 136 27
-0.245448 -0.997822 -0.1897 96 0 103
0.253518 0.277064 0.568896 160 163 200
-0.702323 0.108768 -0.806911 38 141 25
0.206708 0.810007 -0.113412 154 231 113
-0.127648 0.881716 0.332316 111 240 170
0.328042 0.158029 0.266015 169 148 161
-0.109181 -0.366475 -0.731504 114 81 34
-0.509439 0.607947 -0.240621 63 205 97
0.490681 -0.55001 0.204749 190 57 154
0.199396 -0.641 0.784329 153 46 228
-0.293458 0.730772 -0.127296 90 221 111
-0.444299 0.799124 -0.378617 71 229 79
-0.0723525 -0.875988 -0.724943 118 16 35
-0.109764 0.644281 -0.410405 114 210 75
-0.266485 0.669362 -0.631706 94 213 47
0.412502 -0.969249 0.293111 180 4 165
-0.304608 -0.995033 0.24789 89 1 159
0.43172 0.610655 0.492965 183 205 190
0.36405 0.106061 0.2601 174 141 161
-0.434712 -0.183275 -0.21803 72 104 100
-0.632442 0.0471489 -0.849586 47 134 19
0.458277 0.54423 -0.209746 186 197 101
-0.170673 0.010317 0.0903294 106 129 139
0.349236 0.205867 -0.011516 172 154 126
-0.552942 -0.815479 -0.206739 57 24 101
-0.495056 0.61016 -0.692106 64 205 39
0.347561 0.328311 0.483993 172 169 189
0.668181 -0.0479449 -0.691663 213 121 39
-0.155788 0.393213 0.514594 108 178 193
-0.379313 -0.997951 -0.472163 79 0 67
0.571402 0.542294 -0.743738 200 197 33
0.288292 -0.788693 0.854499 164 27 236
-0.140476 -0.996104 0.191739 110 0 152
-0.335945 0.058071 -0.754977 85 135 31
0.0876095 0.807974 -0.134229 139 231 110
0.435461 -0.483078 -0.214721 183 66 100
0.522071 -0.504186 -0.0130953 194 63 126
0.649251 0.512768 -0.384528 210 193 78
-0.0427173 -0.999628 -0.568744 122 0 55
0.6972 -0.39653 -0.710446 216 77 37
-0.333905 0.000485876 0.342593 85 128 171
-0.494015 -0.214372 -0.730333 65 100 34
0.0388471 0.770558 -0.168354 132 226 106
0.553563 -0.822616 0.312919 198 23 167
0.367139 -0.997333 -0.0377243 174 0 123
-0.622575 -0.749451 -0.677744 48 32 41
-0.379227 -0.0192939 -0.87269 79 125 16
-0.693945 0.0756729 -0.829674 39 137 22
0.53858 -0.737741 -0.0126269 196 33 126
-0.633345 -0.19411 -0.867284 47 103 17
0.341398 0.860727 0.164112 171 237 148
-0.0357183 0.914701 0.000364823 123 244 128
0.137042 -0.329537 -0.746142 145 85 32
-0.721309 0.375863 -0.487992 36 175 65
0.286227 -0.0214886 -0.688245 164 125 40
-0.0168462 -0.767396 0.851615 125 30 236
-0.500887 -0.0423349 -0.279849 64 122 92
0.17177 -0.999258 -0.403607 149 0 76
0.097855 -0.996045 0.306859 140 1 167
-0.455619 -0.123898 0.295251 69 112 165
0.485047 -0.632074 -0.178957 189 47 105
-0.368513 -0.344112 0.339027 81 84 171
0.492421 0.184091 -0.917131 190 151 11
0.357643 0.820713 0.13188 173 232 144
0.173699 0.441545 -0.240468 150 184 97
-0.3516 0.0507375 -0.55468 83 134 57
0.536269 0.724873 -0.389004 196 220 78
0.39327 0.682726 0.521308 178 215 194
-0.227044 0.776963 -0.335497 99 227 85
-0.648764 -0.6416 -0.713045 45 46 37
-0.511268 -0.786298 0.473514 62 27 188
0.40141 -0.979606 -0.0280907 179 3 124
-0.462567 -0.872598 -0.597639 69 16 51
0.132743 0.497968 -0.522563 144 191 61
-0.354329 -0.20857 -0.667103 82 101 42
-0.650251 0.450248 -0.690915 45 185 39
0.0846038 0.302573 -0.654672 138 166 44
-0.0631484 -0.998623 -0.26238 119 0 94
0.298303 0.0798877 -0.495834 166 138 64
0.487407 0.349843 -0.636595 190 172 46
0.121848 0.643224 -0.207766 143 210 101
0.491757 -0.859892 -0.391748 190 18 78
0.338168 -0.448696 -0.665674 171 70 43
0.55169 0.558116 -0.315183 198 199 87
0.566603 -0.217064 -0.740151 200 100 33
-0.336612 -0.875938 0.528177 85 16 195
0.0282566 -0.697776 0.895209 131 39 242
0.182025 -0.13189 0.407291 151 111 179
0.107486 -0.540375 0.583183 141 59 202
0.563393 -0.856778 0.345265 199 18 172
0.445841 -0.980959 0.410752 184 2 180
0.289631 -0.543923 0.558098 164 58 199
-0.522245 -0.389857 0.0586757 61 78 135
0.0942163 -0.278454 0.332076 140 92 170
0.382137 0.814154 0.394492 176 231 178
-0.468245 -0.128341 -0.458569 68 111 69
-0.707839 -0.143098 -0.805052 37 109 25
0.446082 -0.592485 -0.651973 184 52 44
0.0557389 0.278478 -0.631996 135 163 47
-0.0931085 0.0558964 -0.792742 116 135 26
0.400843 -0.874003 -0.566297 179 16 55
0.271921 0.2942 0.606375 162 165 205
0.174787 -0.245386 -0.840243 150 96 20
-0.463508 -0.0501305 -0.40814 68 121 75
-0.279574 -0.763778 -0.709788 92 30 37
0.477563 -0.616295 0.209392 188 49 154
0.585824 -0.603602 -0.559604 202 51 56
0.605434 -0.228838 -0.851007 205 98 19
-0.0911162 -0.998946 -0.369607 116 0 80
0.143845 0.758304 0.607237 146 224 205
-0.481118 -0.100193 0.160107 66 115 148
0.561174 -0.659826 -0.0303356 199 43 124
0.086786 0.859742 0.532884 139 237 195
-0.112074 0.363564 -0.680877 113 174 41
-0.396225 -0.119247 -0.72809 77 112 35
-0.318005 0.199579 -0.870682 87 153 16
-0.163143 -0.998619 -0.311317 107 0 88
0.484902 0.382528 -0.871407 189 176 16
-0.0251621 -0.756096 0.88755 124 31 241
-0.114584 0.315007 -0.336818 113 168 85
0.0407977 0.441614 0.667823 133 184 213
0.453099 0.392195 -0.0428669 185 178 122
-0.569911 -0.585351 -0.79357 55 53 26
0.441979 -0.448171 -0.888067 184 70 14
0.227268 0.540656 -0.297933 156 196 90
0.642253 0.359711 -0.831209 209 173 22
0.464894 0.685249 0.0979572 187 215 140
0.451072 -0.955687 0.443548 185 6 184
0.0364858 0.900539 0.441362 132 242 184
-0.152041 0.298521 -0.345502 108 166 83
0.520458 0.00739651 -0.0926871 194 128 116
0.292814 -0.326667 -0.194547 165 86 103
0.485341 0.623431 -0.637689 189 207 46
0.125474 -0.334061 0.595415 143 85 203
0.459069 0.36854 -0.624098 186 174 48
0.240743 0.50326 -0.29832 158 192 89
0.439043 -0.199454 -0.129468 183 102 111
0.25693 -0.533536 0.570921 160 59 200
0.0728865 -0.0713082 -0.77728 137 118 28
-0.644719 0.459992 -0.420612 45 186 74
0.618411 -0.100951 -0.723568 206 115 35
-0.749858 -0.186502 -0.773515 32 104 29
0.185052 -0.910907 -0.666166 151 11 43
0.265966 -0.41734 0.54139 161 74 197
0.477055 -0.76417 0.0527344 188 30 134
0.278777 0.651691 -0.386146 163 211 78
-0.573918 0.677105 -0.541019 54 214 59
-0.660247 0.251224 -0.782349 43 160 28
0.33255 -0.280108 -0.902884 170 92 12
-0.130675 0.488183 -0.361761 111 190 81
-0.461002 0.562886 -0.749996 69 199 32
0.2382 0.93012 0.338532 158 246 171
0.362949 -0.72112 0.581776 174 36 202
0.0783953 0.825562 -0.119434 137 233 112
0.401166 -0.573226 0.490777 179 54 190
0.288743 0.909955 0.0345473 164 244 132
0.40034 -0.466316 0.383225 179 68 176
-0.0078363 0.199496 -0.662505 127 153 43
-0.25637 0.771345 -0.212635 95 226 100
0.206472 0.566453 -0.414345 154 200 75
-0.257869 0.397201 -0.544719 95 178 58
0.23392 0.394962 -0.74605 157 178 32
0.339461 0.550612 -0.691555 171 198 39
0.485921 0.187508 -0.715352 189 151 36
0.21484 0.936096 0.231805 155 247 157
-0.464507 0.784289 -0.267071 68 227 93
-0.439076 -0.187367 -0.505034 72 104 63
0.342454 -0.987413 0.270882 171 2 162
0.331128 -0.204293 -0.439914 170 101 71
0.457069 0.728737 0.293793 186 220 165
0.0605418 0.318582 -0.402306 135 168 76
0.520611 -0.101161 -0.104967 194 115 114
-0.226873 0.220419 -0.415858 99 156 74
0.560346 -0.426874 -0.828668 199 73 22
-0.2114 0.322423 0.28296 101 169 164
-0.147794 0.735155 -0.0206971 109 221 125
-0.126726 0.0614945 0.255366 111 135 160
-0.303077 0.207891 -0.0673147 89 154 119
0.061141 0.968658 0.180277 135 251 150
0.497504 -0.479311 -0.664354 191 66 43
0.029025 0.148776 0.469532 131 146 187
-0.223657 -0.995794 0.184959 99 1 151
-0.0168751 -0.303681 -0.722522 125 89 35
-0.494915 -0.271743 -0.392168 64 93 77
-0.228839 -0.589995 -0.73443 98 52 34
-0.578231 0.494088 -0.511014 54 190 62
-0.713215 0.248148 -0.723025 37 159 35
0.181348 0.582599 -0.243192 151 202 96
0.137949 0.534125 0.679357 145 196 214
0.68944 0.587484 -0.318083 215 202 87
0.265861 0.45863 -0.22346 161 186 99
0.0953708 -0.151714 0.311303 140 108 167
-0.571434 0.0966042 -0.71502 55 140 36
0.145294 -0.998605 -0.234433 146 0 98
0.664311 0.479036 -0.762643 212 189 30
0.423884 -0.429124 0.400532 182 73 179
-0.0108748 0.759001 0.604315 126 224 205
-0.626408 -0.687819 -0.254942 48 40 95
-0.585808 -0.70541 -0.112399 53 38 113
0.275433 -0.209352 -0.690443 163 101 39
-0.619879 -0.42866 -0.832121 48 73 21
0.395227 0.359997 -0.0668022 178 173 119
-0.481687 -0.717863 0.20807 66 36 154
-0.194134 0.745669 -0.422436 103 223 74
-0.376595 0.813184 -0.407173 79 231 76
-0.4119 -0.274679 -0.820761 75 92 23
0.67056 -0.17631 -0.721279 213 105 36
-0.59202 -0.750048 0.0524102 52 32 134
-0.160674 -0.545399 0.583199 107 58 202
0.0585265 0.851595 -0.0763325 135 236 118
-0.638701 -0.382402 -0.691448 46 79 39
0.36316 0.136924 -0.404853 174 145 76
-0.210005 -0.401228 -0.714563 101 76 36
-0.373647 -0.997967 -0.518443 80 0 61
0.0967037 -0.813958 0.809851 140 24 231
-0.00229681 0.127991 0.375141 127 144 175
-0.644085 -0.236378 -0.716547 45 97 36
0.380737 -0.593107 0.563097 176 52 199
-0.118979 -0.994937 0.417325 112 1 181
0.168072 0.788378 -0.141228 149 228 109
0.455388 0.527053 -0.755554 186 195 31
0.410396 0.286766 -0.66858 180 164 42
-0.0345487 0.226668 -0.638017 123 156 46
-0.656617 -0.750373 -0.577921 44 32 54
-0.304472 -0.435384 -0.776424 89 72 29
-0.388214 -0.142243 0.365048 78 109 174
-0.634925 -0.622086 -0.339776 47 48 84
-0.429767 -0.756162 0.476269 73 31 188
-0.251282 0.383701 -0.579223 95 176 54
0.261402 -0.386366 0.570871 161 78 200
0.376846 -0.782947 0.520056 176 28 194
0.518398 0.431154 -0.839149 194 182 21
-0.155291 -0.697439 0.736669 108 39 221
0.156518 0.468509 -0.417479 147 187 74
0.358541 -0.770298 -0.714208 173 29 36
-0.0241397 -0.997527 0.0111671 124 0 129
0.446569 0.308527 0.0456551 184 167 133
-0.190758 0.37205 -0.423833 103 175 73
0.403661 -0.308569 -0.0791398 179 88 117
-0.0885315 0.44158 -0.209117 116 184 101
0.208995 0.566254 -0.330635 154 200 85
0.1983 -0.289632 0.573919 153 91 201
0.152555 -0.999863 -0.565518 147 0 55
-0.0845642 0.690198 -0.160243 117 216 107
0.106777 0.980762 0.158429 141 253 148
0.153298 -0.60346 0.858578 147 51 237
-0.112887 -0.60984 0.611579 113 50 205
-0.111655 0.288299 -0.223119 113 164 99
0.262609 -0.334957 -0.86218 161 85 18
0.547915 0.169884 -0.702486 197 149 38
-0.0992093 -0.738114 0.906438 115 33 243
-0.401606 -0.564668 0.42967 76 56 182
0.339416 -0.680242 -0.781234 171 41 28
0.55564 -0.523588 -0.617194 198 61 49
0.401823 0.216177 0.352614 179 155 172
-0.497297 -0.475868 -0.481334 64 67 66
-0.377849 0.638695 -0.332229 79 209 85
-0.558441 0.116782 -0.870841 56 142 16
-0.505484 -0.0814144 -0.0304974 63 117 124
0.181008 0.953108 0.278079 151 249 163
0.299405 -0.461894 0.509209 166 69 192
0.380253 0.265213 -0.684791 176 161 40
0.294244 0.586593 -0.608791 165 202 50
-0.361058 -0.244401 -0.0392696 81 96 122
-0.239271 0.6281 0.549487 97 208 198
-0.347638 0.0164271 -0.534177 83 130 59
0.0265379 0.344753 -0.266757 131 171 93
-0.339207 0.0357245 -0.850955 84 132 19
-0.418994 -0.149354 -0.186295 74 108 104
-0.562052 0.418471 -0.60599 56 181 50
0.463877 -0.38849 -0.879229 187 78 15
-0.163384 -0.945949 -0.69069 107 7 39
-0.348112 0.248714 -0.686274 83 159 40
0.180099 -0.435095 0.624462 150 72 207
0.601449 0.710144 -0.391365 204 218 78
-0.749504 -0.272847 -0.734928 32 93 34
0.332847 -0.201122 -0.897939 170 102 13
0.472927 -0.505822 0.342433 188 63 171
0.239369 -0.0186474 0.408164 158 125 180
0.362776 0.187098 -0.360225 174 151 82
0.259464 -0.123843 -0.680048 161 112 41
0.293061 -0.682004 -0.715983 165 41 36
0.598005 0.0697418 -0.716794 204 136 36
-0.0773578 -0.281144 -0.712188 118 92 37
0.2799 0.309008 -0.554266 163 167 57
-0.755521 -0.0682051 -0.775532 31 119 29
-0.436151 -0.4235 -0.677412 72 74 41
-0.351525 0.776965 -0.174619 83 227 105
-0.173636 0.917377 0.140548 105 244 145
-0.547332 -0.74426 -0.689312 58 33 40
0.476283 0.650181 -0.615099 188 210 49
0.404313 0.337877 -0.641361 179 171 46
0.491791 0.387042 0.211628 190 177 154
-0.336846 -0.543509 0.521356 85 58 194
-0.452232 -0.656563 -0.534857 70 44 59
-0.104193 0.185997 -0.781977 114 151 28
-0.106771 0.258268 0.408919 114 160 180
-0.401831 0.0883897 0.038511 76 139 132
-0.669961 -0.0584398 -0.848627 42 120 19
-0.211913 0.731866 -0.505714 100 221 63
-0.445765 -0.732982 -0.683093 71 34 40
0.0280095 -0.139998 -0.772804 131 110 29
-0.0536331 0.761179 -0.126831 121 225 111
0.332779 -0.574626 -0.804334 170 54 25
0.44997 -0.288711 -0.910752 185 91 11
0.599809 -0.239114 -0.723783 204 97 35
0.190957 -0.333471 -0.838591 152 85 21
0.590331 -0.542243 -0.591996 203 58 52
0.679714 0.298632 -0.854492 214 166 19
0.0805529 0.868994 -0.0270332 138 238 124
0.0932214 -0.994921 0.505594 139 1 192
-0.347881 0.658358 -0.224451 83 211 99
0.699133 -0.256976 -0.76168 217 95 30
0.316639 -0.84448 0.51203 168 20 193
-0.265132 0.0629956 0.0703934 94 136 136
-0.292083 0.552997 0.155301 90 198 147
-0.01362 -0.898487 0.731622 126 13 221
0.228431 -0.177297 0.562279 157 105 199
0.198179 -0.71473 -0.734949 153 36 34
-0.565972 -0.643631 0.0751358 55 45 137
0.428116 -0.17296 -0.92312 182 105 10
0.511445 -0.886771 -0.0770838 193 14 118
0.119364 0.221842 -0.805003 143 156 25
-0.669844 -0.174708 -0.819503 42 105 23
-0.176149 0.438345 -0.107231 105 183 114
-0.341961 0.656606 -0.261883 84 211 94
-0.336093 0.292075 -0.845419 85 165 20
-0.213664 -0.143219 -0.79924 100 109 26
-0.212149 -0.836049 0.732339 100 21 221
0.393956 0.799764 0.482146 178 229 189
-0.48557 -0.975467 -0.0822951 66 3 117
-0.460181 -0.745964 -0.527876 69 32 60
-0.379948 -0.774831 0.602411 79 29 204
0.433309 0.742544 0.121304 183 222 143
-0.0570239 -0.484271 0.447198 120 66 185
0.299704 -0.338133 -0.576886 166 84 54
-0.359671 0.403614 0.0763638 82 179 137
-0.433458 -0.965429 0.450618 72 4 185
0.532241 -0.919701 -0.18898 195 10 103
-0.110802 0.840176 0.480895 113 235 189
-0.243126 0.247994 -0.0332977 97 159 123
-0.686263 -0.390396 -0.780676 40 78 28
-0.0971382 -0.914057 0.829543 115 11 233
-0.139861 -0.47832 0.439481 110 67 184
0.498736 0.557875 -0.174822 191 199 105
-0.0487883 -0.997286 0.0500308 121 0 134
-0.328418 0.289559 0.197239 86 164 153
-0.192106 -0.312467 -0.700927 103 88 38
0.295504 -0.477717 -0.36843 165 67 81
-0.343639 0.442725 0.144556 84 184 146
0.432946 -0.685503 -0.796757 183 40 26
0.271205 -0.0750412 -0.646129 162 118 45
0.420852 0.4971 0.534173 181 191 196
0.377996 0.225473 -0.224434 176 156 99
0.328566 -0.984438 0.0495499 169 2 134
-0.546211 0.738873 -0.422326 58 222 74
-0.52994 -0.449314 0.155056 60 70 147
0.159047 -0.855526 -0.694102 148 18 39
-0.598328 -0.69146 -0.157117 51 39 107
0.349378 0.0113811 0.416685 172 129 181
0.284491 0.233193 -0.35662 164 157 82
-0.539808 -0.419425 -0.0716411 59 74 118
-0.634663 0.667737 -0.411161 47 213 75
0.31565 -0.727205 0.621517 168 35 207
0.31386 0.246197 -0.208404 168 159 101
0.414481 0.706357 0.0295967 180 218 131
-0.132078 0.38237 0.526788 111 176 195
-0.51275 -0.475383 -0.463994 62 67 68
0.361529 -0.188182 -0.17863 174 104 105
0.167101 -0.949947 0.673326 149 6 213
-0.250995 -0.897722 -0.677606 95 13 41
-0.0394007 0.0479194 0.17821 122 134 150
-0.229892 0.334805 -0.51578 98 170 62
0.511108 -0.678966 -0.0608967 193 41 120
-0.366686 -0.609584 -0.728973 81 50 35
0.295648 -0.998635 -0.277034 165 0 92
-0.482293 0.34954 -0.816731 66 172 23
0.354957 -0.287204 -0.714934 173 91 36
-0.318118 -0.275267 0.374888 87 92 175
0.491358 -0.429783 0.311305 190 73 167
-0.0704187 0.263329 0.444789 119 161 184
0.0285376 0.651663 -0.215274 131 211 100
-0.168921 -0.256163 0.512823 106 95 193
0.751497 -0.0902326 -0.778406 223 116 28
-0.472654 -0.994119 -0.14623 67 1 109
0.445427 -0.116246 -0.255615 184 113 95
-0.49278 -0.646221 0.146761 65 45 146
-0.437403 -0.355001 -0.54725 72 82 58
0.131119 -0.996882 0.150533 144 0 147
-0.341183 -0.994687 0.299854 84 1 166
-0.5513 -0.672112 0.0174272 57 42 130
0.501363 -0.872448 -0.456059 191 16 69
0.0650502 -0.825576 0.76939 136 22 226
0.0398623 0.369584 0.633725 133 175 208
-0.549333 -0.512442 0.0133515 57 62 129
-0.222362 0.528549 -0.33027 99 195 85
0.269266 -0.372031 -0.237711 162 80 97
0.374421 -0.0317304 0.37643 175 123 175
-0.27906 0.204106 -0.595123 92 154 52
0.262944 0.247704 -0.491908 161 159 65
0.378357 0.162017 0.0853477 176 148 138
-0.0800033 -0.0169277 -0.80706 117 125 25
0.272341 0.190266 -0.856362 162 152 18
0.704588 0.453186 -0.506325 217 185 63
0.290893 0.166281 -0.674828 165 149 41
-0.240523 0.0962295 0.03181 97 140 132
-0.309948 -0.973349 0.122934 88 3 143
0.0778697 0.0619752 -0.756612 137 135 31
-0.179588 -0.977801 -0.665575 105 3 43
0.663889 -0.592421 -0.545634 212 52 58
0.48818 -0.813738 0.482548 190 24 189
-0.374693 -0.278429 -0.608809 80 92 50
0.216493 0.468135 -0.682072 155 187 41
0.383153 0.411399 -0.589753 176 180 52
0.400629 0.208541 0.393196 179 154 178
-0.746557 -0.321735 -0.768288 32 86 30
-0.530552 -0.374212 0.0975294 60 80 140
-0.310838 0.786463 -0.187383 88 228 104
-0.139661 -0.410964 0.445494 110 75 184
-0.190386 0.575744 -0.156893 103 201 107
0.468164 0.202535 0.155219 187 153 147
-0.348679 -0.997256 -0.215915 83 0 100
-0.689886 0.571896 -0.398479 40 200 77
0.056541 -0.395436 0.590436 135 77 203
0.238597 0.247621 -0.408423 158 159 75
-0.113414 -0.994503 0.487795 113 1 190
-0.460575 -0.271188 -0.479084 69 93 66
0.360173 0.50594 -0.279827 173 192 92
-0.257904 0.225397 0.235502 95 156 158
0.350124 0.105975 0.052896 172 141 134
-0.390311 -0.044621 -0.742097 78 122 33
-0.0781919 0.737651 -0.150998 118 222 108
-0.251976 -0.244637 -0.809778 95 96 24
0.565191 -0.403367 -0.827257 200 76 22
-0.404322 0.0974722 -0.392806 76 140 77
-0.546217 -0.148571 -0.734722 58 109 34
0.455474 -0.204985 -0.0452114 186 101 122
0.120524 0.381659 -0.677503 143 176 41
-0.496019 -0.16045 -0.884764 64 107 15
-0.544456 -0.752607 -0.591165 58 32 52
0.256575 0.204939 -0.503923 160 154 63
-0.483924 -0.471976 0.209501 66 67 154
0.158288 -0.763975 -0.729463 148 30 34
0.384748 -0.211666 0.505613 177 101 192
-0.720162 0.278465 -0.539081 36 163 59
-0.49218 -0.843686 0.531083 65 20 195
0.457122 -0.841103 -0.223103 186 20 99
-0.666936 -0.870247 -0.562863 42 17 56
-0.562138 0.0865388 -0.842749 56 139 20
-0.0916715 0.581646 0.644395 116 202 210
-0.153231 -0.997567 -0.0537354 108 0 121
0.319241 0.358578 0.53644 168 173 196
0.529936 -0.71699 0.256708 195 36 160
0.340771 0.604534 -0.0857761 171 205 117
0.656057 -0.756125 -0.57467 211 31 54
0.497034 -0.662767 0.058969 191 43 135
-0.379228 -0.374583 0.352674 79 80 172
-0.203466 0.747723 0.151907 102 223 147
-0.418167 -0.559217 -0.805371 74 56 25
-0.357568 -0.996886 -0.159545 82 0 107
0.521615 0.480675 -0.786633 194 189 27
-0.153733 0.601141 -0.614471 108 204 49
0.0084859 -0.170583 -0.775738 129 106 29
0.476556 -0.732157 0.0770292 188 34 137
0.0742728 -0.335723 0.560173 137 85 199
-0.433187 -0.75348 0.148773 72 31 146
-0.306422 -0.304367 0.367712 88 89 174
-0.396324 -0.983236 0.448542 77 2 185
0.282023 0.455503 0.634534 163 186 208
0.400253 0.789264 0.429419 179 228 182
-0.248435 0.630972 0.0801437 96 208 138
-0.672374 -0.668487 -0.697385 42 42 39
-0.309065 0.1841 -0.414615 88 151 75
0.406299 0.210681 -0.180878 179 154 104
0.0239919 0.83928 0.530269 131 235 195
0.445309 -0.606397 0.476207 184 50 188
0.532142 -0.450943 0.0664633 195 70 136
-0.538855 -0.950317 0.376468 59 6 175
0.296464 -0.113383 -0.560945 165 113 56
-0.671229 -0.283447 -0.799236 42 91 26
-0.641638 -0.285544 -0.858212 46 91 18
-0.0408891 0.368412 -0.504401 122 174 63
-0.541325 -0.566528 0.146988 58 55 146
-0.444255 -0.993925 -0.110047 71 1 113
-0.373848 -0.738315 0.612575 80 33 206
-0.270525 0.535397 0.326722 93 196 169
-0.599582 0.613285 -0.579639 51 206 54
-0.439 -0.663623 -0.560631 72 43 56
-0.472454 -0.287169 0.198814 67 91 153
-0.487099 -0.439237 -0.828627 65 71 22
0.430362 0.220798 0.0574419 182 156 135
-0.0208956 -0.671909 0.886888 125 42 241
0.354614 -0.725477 -0.781045 173 35 28
0.261539 0.174781 -0.876815 161 150 16
-0.492677 -0.775761 0.387118 65 29 177
0.477283 -0.0447315 0.272394 188 122 162
0.415453 -0.41588 -0.899732 180 74 13
0.325154 -0.524305 -0.546804 169 61 58
0.441985 0.59712 -0.00710137 184 204 127
0.564454 0.714472 -0.399 199 219 77
-0.13254 0.104362 0.210904 111 141 154
-0.441889 0.475827 -0.580721 71 188 53
-0.495599 0.0477843 -0.204597 64 134 101
0.62361 0.701758 -0.399008 207 217 77
-0.468936 -0.166659 0.0616431 68 106 135
-0.539938 0.0713594 -0.850266 59 137 19
-0.105727 0.344423 0.588432 114 171 203
0.688604 -0.100324 -0.687016 215 115 40
0.538048 -0.000679211 0.115716 196 127 142
0.0874449 -0.628857 0.657309 139 47 211
-0.581448 -0.799435 0.452953 53 26 185
0.0382351 -0.173763 -0.772154 132 105 29
0.493129 0.47526 0.331974 190 188 170
-0.158242 -0.514247 -0.750427 107 62 32
0.529022 -0.690582 0.270739 195 39 162
0.368257 0.386203 -0.824849 174 177 22
-0.237684 -0.996739 0.0426182 97 0 133
0.203069 0.0708 0.448868 153 137 185
0.15293 0.496434 -0.576289 147 191 54
0.372979 -0.738095 -0.489174 175 33 65
0.530882 0.307019 -0.674942 195 167 41
0.506762 -0.228191 0.283747 192 98 164
-0.506721 -0.824877 0.259462 63 22 161
-0.204735 0.0389795 0.259331 101 132 161
0.290029 -0.377217 -0.291424 164 79 90
-0.625856 -0.934417 -0.535904 48 8 59
-0.718119 -0.539933 -0.718141 36 59 36
-0.350555 -0.994179 0.395155 83 1 178
0.167717 -0.818036 -0.705352 149 23 38
0.374444 -0.542255 -0.852536 175 58 19
0.118133 -0.498739 0.596827 143 64 204
0.42991 -0.255772 -0.00110169 182 95 127
0.398661 0.251736 -0.0400484 178 160 122
-0.308277 0.682223 -0.622423 88 214 48
-0.391435 -0.935178 -0.604749 78 8 50
-0.348698 -0.365809 0.369875 83 81 175
-0.560956 0.00588954 -0.721861 56 128 35
-0.169475 0.277572 -0.80607 106 163 25
0.280743 -0.301362 -0.287407 163 89 91
0.200871 0.327214 0.623618 153 169 207
0.39167 0.19201 0.205773 177 152 154
-0.202889 0.455632 0.58286 102 186 202
0.269386 0.178759 0.418058 162 150 181
0.175307 0.901396 0.0671241 150 242 136
-0.412709 -0.997495 -0.42029 75 0 74
0.262144 -0.860339 0.675395 161 18 214
-0.0605567 0.0221024 0.151807 120 130 147
-0.0114196 -0.575293 0.537801 126 54 196
-0.385546 0.80347 -0.385043 78 230 78
0.534968 -0.211713 -0.908724 196 101 12
0.0141769 -0.993269 -0.65157 129 1 44
-0.292192 0.505597 0.177396 90 192 150
-0.241807 0.495128 0.524481 97 191 194
-0.124093 0.371351 0.562772 112 175 199
-0.73883 0.0467201 -0.662067 33 133 43
-0.636804 -0.60907 -0.281473 46 50 92
0.390018 -0.507494 -0.650697 177 63 45
0.467411 -0.495945 -0.678783 187 64 41
-0.328658 -0.99431 0.383523 86 1 176
-0.45774 -0.192387 0.0803528 69 103 138
-0.262897 0.168893 -0.501681 94 149 64
-0.383614 0.124008 0.00964766 79 143 129
0.0795713 0.373432 -0.439712 138 175 71
0.228515 -0.918462 -0.649052 157 10 45
-0.429386 -0.0834231 -0.494342 73 117 64
-0.769451 0.353787 -0.564807 29 173 55
0.438854 -0.931987 0.275363 183 9 163
0.265327 -0.266908 -0.666401 161 93 43
0.28197 0.110355 -0.911203 163 142 11
0.321461 0.862857 0.465805 168 238 187
0.373772 -0.632868 -0.619611 175 47 48
-0.236354 0.00776317 -0.848518 97 128 19
0.445593 -0.628887 -0.635208 184 47 47
0.307451 -0.319167 -0.488999 167 87 65
0.415436 0.177594 -0.720862 180 150 36
0.244943 -0.176252 -0.643012 159 105 46
0.33112 0.383021 -0.541551 170 176 58
-0.124432 0.286162 -0.26704 112 164 93
0.073179 -0.532549 0.519469 137 60 194
0.770143 0.276721 -0.676441 226 163 41
-0.552779 -0.522526 0.125113 57 61 143
0.0348671 0.210478 0.554729 132 154 198
-0.185987 0.153659 0.0229262 104 147 130
-0.271424 0.548955 0.30346 93 197 166
0.355835 0.297062 -0.127231 173 165 111
0.277598 0.517108 0.633023 163 193 208
0.206915 0.611001 0.653407 154 205 211
0.481408 -0.751578 -0.0972073 189 32 115
0.633541 0.627344 -0.553487 208 207 57
0.39796 -0.750635 0.468386 178 32 187
0.374045 -0.880561 0.217111 175 15 155
0.297847 -0.475737 -0.617347 165 67 49
-0.45094 0.285234 -0.694606 70 164 39
-0.171817 -0.660476 0.704357 106 43 217
0.0148319 -0.997504 0.0242793 129 0 131
0.426517 0.524726 -0.190291 182 194 103
-0.672275 -0.862066 -0.595757 42 18 52
-0.550229 0.541085 -0.715491 57 196 36
0.0744154 0.166386 0.530788 137 149 195
0.136044 0.541951 -0.259806 145 197 94
0.111534 -0.748089 0.869436 142 32 238
0.175851 0.330686 0.620264 150 170 207
0.307027 0.140318 -0.904 167 145 12
-0.496493 0.132026 -0.895274 64 144 13
-0.427863 0.641594 -0.30111 73 209 89
-0.31066 -0.696352 0.682052 88 39 214
-0.528013 -0.893111 -0.519758 60 14 61
-0.601801 0.251552 -0.80493 51 160 25
-0.124081 -0.727026 0.886173 112 35 240
0.740611 0.548865 -0.506522 222 197 63
0.435822 -0.381262 -0.112801 183 79 113
0.244912 0.437749 0.640789 159 183 209
0.481473 -0.616446 -0.603823 189 49 51
0.479488 -0.335827 0.45295 189 85 185
-0.220215 -0.246674 -0.74822 99 96 32
0.496922 0.0506544 -0.0805077 191 134 117
0.31153 -0.524688 0.531553 167 61 195
-0.173245 0.698009 -0.488864 105 216 65
-0.136121 -0.999341 -0.616479 110 0 49
0.0405851 -0.162583 0.33872 133 107 171
