ply
format ascii 1.0
comment Created by Open3D
element vertex 1179
property double x
property double y
property double z
property uchar red
property uchar green
property uchar blue
end_header
-0.648482 -0.0960862 0.350194 45 115 172
-0.617191 -0.102139 0.278482 49 114 163
0.114019 0.0689912 0.0826439 142 136 138
-0.148272 0.0959546 -0.289487 109 140 91
0.847826 -0.0912383 -0.322367 236 116 86
-0.84885 0.0688936 0.0546006 19 136 134
-0.539461 0.0646957 0.132422 59 136 144
0.862783 0.0528365 0.129 238 134 144
-0.87737 0.0630055 0.291765 16 136 165
-0.867886 0.0927874 -0.125069 17 139 112
0.401835 -0.100825 -0.208851 179 115 101
-0.990631 -0.0849418 0.14066 1 117 145
-0.430945 0.0607576 0.311869 73 135 167
0.41225 0.0758128 -0.0270366 180 137 124
0.0822701 -0.102342 -0.319577 138 114 87
-0.991939 -0.0780365 0.255679 1 118 160
-0.420619 -0.0269585 -0.361453 74 124 81
0.269996 0.0964734 -0.24589 162 140 96
-0.485501 -0.0896206 -0.358638 66 116 82
0.951345 -0.10314 0.304545 249 114 166
-0.351018 0.0753289 -0.0958786 83 137 115
-0.749046 -0.100932 0.203198 32 115 153
-0.496058 -0.100723 0.00515053 64 115 128
0.847949 0.0561172 0.0537896 236 135 134
-0.574483 0.0768916 -0.0734494 54 137 118
0.370171 0.0656485 0.205419 175 136 154
0.994271 -0.0412731 0.0311193 254 122 131
-0.904462 0.0624363 0.287113 12 135 164
-0.0814361 -0.0922632 0.353796 117 116 173
0.658459 0.0936895 -0.126121 211 139 111
0.120936 -0.102162 -0.29972 143 114 89
0.965194 -0.0239662 0.362981 251 124 174
-0.712383 0.0356162 0.212446 37 132 155
-0.866662 -0.103364 0.262953 17 114 161
0.945412 -0.103056 0.274688 248 114 163
0.996419 -0.0181325 0.0406344 255 125 133
0.299911 0.0653794 -0.225852 166 136 99
0.373301 0.0975852 -0.257378 175 140 95
0.993832 -0.0357506 -0.135567 254 123 110
0.841025 0.0611538 0.205914 235 135 154
0.669214 0.0480539 -0.364365 213 134 81
-0.324302 -0.101126 -0.186374 86 115 104
0.332748 0.0946177 -0.24623 170 140 96
-0.0101873 0.0734836 -0.0961883 126 137 115
-0.696553 0.0947918 -0.157576 39 140 107
-0.244761 0.0546683 0.000407157 96 134 128
0.0205803 -0.101219 -0.220271 130 115 99
-0.942491 -0.0949145 -0.35695 7 115 82
-0.646174 0.0815594 -0.158752 45 138 107
-0.554475 -0.100722 0.0588681 57 115 135
-0.223136 0.0692308 0.0526268 99 136 134
-0.24034 -0.102231 0.164798 97 114 149
0.0673463 -0.090668 -0.358514 136 116 82
0.392371 0.0572847 0.0314559 178 135 132
0.280383 -0.0692611 -0.35953 163 119 82
-0.538459 -0.103295 0.33654 59 114 170
0.512712 0.0774478 -0.329236 193 137 86
0.647264 0.0776445 -0.131856 210 137 111
0.868483 -0.103136 -0.202096 238 114 102
0.731732 -0.100095 -0.00415269 221 115 127
-0.964476 0.0518444 -0.308495 5 134 88
0.751892 0.0471903 -0.00275623 223 134 127
0.148131 0.061961 0.147793 146 135 146
0.338569 -0.0676053 0.358039 171 119 173
0.389519 0.0639463 0.064526 177 136 136
-0.0982255 -0.103987 0.321559 115 114 168
-0.0940493 0.00696941 0.338966 116 128 171
-0.186939 -0.0612285 0.358418 104 120 173
0.692639 0.0782701 -0.0893669 216 137 116
0.631891 0.077712 -0.119646 208 137 112
-0.917734 -0.101105 0.0663252 10 115 136
-0.490908 0.0742503 -0.0215412 65 137 125
0.949555 -0.0979153 -0.268646 249 115 93
-0.371049 -0.103442 0.303348 80 114 166
0.614485 0.0580869 -0.35312 206 135 82
0.00732245 0.07569 -0.041175 128 137 122
-0.497246 -0.100626 -0.0655261 64 115 119
0.633434 0.0498198 0.155158 208 134 147
-0.609199 -0.100868 -0.224038 50 115 99
-0.419661 -0.101544 -0.20416 74 115 101
0.305046 0.0660457 0.182992 166 136 151
0.288612 0.048785 0.0656901 164 134 136
0.972414 0.0529104 -0.301682 251 134 89
-0.551155 0.0628502 -0.10065 57 136 115
-0.215306 -0.103548 0.278111 100 114 163
-0.674821 0.0393512 0.110452 41 133 142
-0.50542 -0.101788 -0.254901 63 115 95
0.1289 0.0303016 0.21649 144 131 155
0.0417824 -0.0826894 -0.359656 133 117 82
0.991789 -0.0507437 -0.328764 254 121 86
0.806059 0.00581331 0.335296 230 128 170
-0.742793 -0.104135 -0.235796 33 114 97
0.702931 -0.101637 0.220814 217 115 156
0.591139 -0.0940181 -0.355869 203 116 82
0.812092 0.10602 -0.314004 231 141 87
-0.476664 -0.1029 0.29723 67 114 165
0.530823 0.0698424 -0.293181 195 136 90
0.0104874 -0.104237 0.321233 129 114 168
-0.0138959 0.0670532 0.273501 126 136 162
0.500819 0.0914716 -0.233262 191 139 98
0.879678 0.0808947 -0.0379052 240 138 123
-0.185255 -0.103235 0.252048 104 114 160
0.32567 0.0728666 -0.17517 169 137 105
0.291547 0.0310574 -0.365309 165 131 81
0.0678112 -0.103593 0.295676 136 114 165
-0.284061 0.0616719 -0.00299607 91 135 127
-0.459795 0.0531804 0.0175121 69 134 130
0.994064 -0.0465001 0.0669174 254 122 136
0.984771 0.00944426 0.291205 253 129 165
0.987589 -0.0256941 0.362818 253 124 174
-0.653624 0.0616289 0.139183 44 135 145
0.535956 -0.0194964 0.365083 196 125 174
0.412656 0.0394853 0.110445 180 133 142
0.084413 0.100435 -0.186388 138 140 104
-0.620019 0.0504424 0.138721 48 134 145
-0.200937 0.0879127 -0.136229 102 139 110
-0.428155 0.0563133 -0.337769 73 135 84
-0.170042 0.054346 -0.360136 106 134 82
-0.151461 0.0441987 -0.366493 108 133 81
0.0453843 -0.101471 -0.243878 133 115 96
-0.620377 0.0588322 0.31253 48 135 167
0.901052 0.0655822 0.167777 242 136 149
0.761673 -0.109062 0.291571 225 114 165
0.533073 0.0930748 -0.16547 195 139 106
-0.98969 -0.0849136 -0.0222294 1 117 125
-0.266035 -0.0114004 0.36534 94 126 174
-0.660591 -0.101135 0.186777 43 115 151
0.988811 -0.039244 -0.354254 254 122 82
0.820507 0.0697145 0.199665 232 136 153
0.194624 0.0654508 0.182224 152 136 151
-0.370741 0.00433041 0.357817 80 128 173
-0.193452 0.0939909 -0.199433 103 139 102
0.862698 0.0312297 0.222363 237 131 156
0.723669 0.0660278 0.102908 220 136 141
0.0213068 0.0464419 0.135059 130 133 145
-0.770295 -0.010925 -0.362822 29 126 81
0.41872 0.0478592 -0.223421 181 134 99
0.378755 0.0204147 -0.364176 176 130 81
0.252627 -0.10137 -0.0841398 160 115 117
0.963371 0.0108156 0.315112 250 129 168
-0.759948 0.0309768 -0.366533 31 131 81
-0.416848 0.0658819 0.0144795 74 136 129
0.625629 0.0712042 0.0805661 207 137 138
-0.42034 0.0643365 0.248987 74 136 159
0.385937 -0.10105 0.00610065 177 115 128
-0.116588 0.068739 0.1986 113 136 153
-0.890962 -0.100595 -0.171353 14 115 106
0.504032 -0.0491363 -0.35938 192 121 82
-0.853248 -0.0573738 0.358111 19 120 173
0.242206 0.10274 -0.275746 158 141 92
0.593719 -0.100877 -0.335072 203 115 85
0.198319 -0.101917 0.129453 153 115 144
-0.993436 -0.0362436 -0.197698 1 123 102
0.0328582 0.0162853 -0.364737 132 130 81
0.688544 -0.0999917 -0.0932008 215 115 116
-0.45805 -0.10097 -0.136132 69 115 110
-0.57061 -0.0123051 -0.362283 55 126 81
0.987108 -0.0900349 -0.319444 253 116 87
-0.788056 0.0367918 0.320428 27 132 168
0.808022 -0.0916739 -0.320717 231 116 87
-0.0945047 -0.0560185 0.359454 115 120 173
-0.616506 -0.100431 -0.043387 49 115 122
-0.194598 -0.0163154 0.364649 103 125 174
0.326139 0.0400263 0.252899 169 133 160
-0.695178 0.0573152 -0.208148 39 135 101
0.50442 -0.100913 0.0889667 192 115 139
-0.209963 0.0712379 0.201655 101 137 153
0.113126 0.0755833 -0.176061 142 137 105
-0.988352 -0.0859114 -0.301735 1 117 89
-0.210983 -0.0577925 -0.360302 101 120 82
-0.52401 -0.100787 0.0340577 61 115 132
-0.528832 -0.087688 -0.359018 60 116 82
0.82039 -0.100045 -0.344538 232 115 84
-0.0829881 -0.100278 -0.15129 117 115 108
0.8421 0.0656847 -0.330277 235 136 85
0.164314 0.0272283 0.323802 148 131 169
-0.635659 -0.100846 -0.179733 46 115 105
-0.750203 0.0520343 -0.204823 32 134 101
-0.835483 0.0481185 0.213092 21 134 155
0.940844 0.103976 -0.260425 247 141 94
-0.450999 -0.101987 -0.296731 70 114 90
0.215743 0.0507157 -0.114181 155 134 113
-0.173861 0.103672 -0.295653 105 141 90
-0.421677 0.0431856 0.318799 74 133 168
0.317786 -0.101317 0.039303 168 115 133
0.726768 -0.101543 0.220444 220 115 156
-0.945211 -0.10177 -0.33138 7 115 85
-0.255109 0.0727048 -0.0750581 95 137 118
-0.1554 0.0648696 0.15396 108 136 147
-0.675527 0.056591 0.117068 41 135 142
-0.343775 0.065104 -0.206818 84 136 101
-0.537328 -0.10157 -0.239706 59 115 97
-0.617794 -0.101776 -0.326311 49 115 86
0.129613 -0.101956 0.176398 144 115 150
-0.703673 0.073882 -0.0236434 38 137 124
0.410226 0.0662805 -0.00194838 180 136 127
-0.249382 0.0689069 0.202385 96 136 153
0.624101 0.0982691 -0.181146 207 140 104
-0.560493 0.0479909 0.0029558 56 134 128
0.622305 -0.102098 0.241315 207 114 158
-0.0560069 -0.100933 0.347683 120 115 172
0.462503 0.0538606 0.106888 186 134 141
-0.679837 0.0802886 -0.0636339 41 138 119
0.947229 0.00546339 0.358871 248 128 173
-0.348583 -0.0472834 0.360259 83 121 173
-0.359963 0.0674922 0.0496672 82 136 134
0.554776 -0.100179 -0.14519 198 115 109
-0.173302 -0.102841 0.229854 105 114 157
0.72902 0.0817634 -0.0655331 220 138 119
-0.765129 0.0470378 -0.246492 30 133 96
0.956802 -0.0994725 -0.169949 249 115 106
0.575387 0.0752194 -0.22826 201 137 98
-0.32181 0.0740827 -0.0179722 86 137 125
0.231903 -0.0607221 0.358791 157 120 173
-0.34179 0.0997169 -0.173381 84 140 105
-0.861348 -0.0899886 -0.146983 18 116 109
0.0981722 0.0384859 0.226072 140 132 156
-0.723465 -0.0902619 -0.358711 35 116 82
-0.274215 0.0480919 -0.000959106 93 134 127
-0.317731 -0.101929 -0.34714 87 115 83
-0.573722 0.00530362 0.356852 54 128 173
-0.833791 0.016911 -0.365124 21 130 81
-0.179878 -0.101228 -0.232708 105 115 98
-0.996085 -0.0263114 0.20872 0 124 154
-0.621842 0.062879 -0.331641 48 136 85
-0.0345265 0.095567 -0.169404 123 140 106
0.798143 -0.0999937 -0.0698213 229 115 119
0.497314 0.00857511 0.335385 191 129 170
0.219701 0.0682363 0.0313846 156 136 132
0.466043 0.0484173 -0.364294 187 134 81
0.87036 0.0637434 0.0139475 238 136 129
-0.522971 -0.101753 -0.26397 61 115 94
0.503375 -0.100566 0.0484632 192 115 134
-0.720897 -0.0862658 0.353921 36 117 173
-0.0890744 0.0984246 -0.191275 116 140 103
0.0731486 0.0581538 0.127197 137 135 144
0.701514 -0.051393 -0.35896 217 121 82
0.956564 0.034442 0.268703 249 132 162
0.771463 0.0529866 0.225718 226 134 156
-0.213428 -0.102592 0.204421 100 114 154
0.135509 0.0899802 -0.203976 145 139 101
0.917019 -0.0406333 0.36239 244 122 174
0.482724 0.0529315 -0.0463314 189 134 122
0.959951 0.0472362 -0.0683167 250 134 119
0.995142 0.0331886 -0.142887 254 132 109
0.339005 0.0520065 0.155993 171 134 147
0.710448 -0.00986331 -0.360946 218 126 81
0.292759 0.0447234 -0.212117 165 133 100
0.417719 0.0487987 0.238097 181 134 158
-0.557028 0.0660029 -0.00218943 56 136 127
0.997234 -0.0112172 0.0659813 255 126 136
0.440392 -8.96906e-05 -0.362202 184 127 81
-0.493296 -0.100674 -0.0346059 65 115 123
0.57248 -0.100291 -0.219535 200 115 100
-0.998809 0.0294563 -0.226076 0 131 99
-0.571175 0.0217719 -0.364961 55 130 81
0.964387 0.0354465 -0.365015 250 132 81
-0.278763 -0.100969 -0.0339754 92 115 123
-0.826021 -0.100622 0.0614708 22 115 135
0.444713 0.0653114 0.0109909 184 136 129
-0.469701 -0.0304608 0.362601 68 124 174
0.106857 0.0573136 0.000880126 141 135 128
0.0072488 0.0698373 -0.126285 128 136 111
-0.155125 -0.10243 0.199089 108 114 153
-0.171996 0.0630945 -0.0964382 106 136 115
0.647565 0.0617146 -0.0197409 210 135 125
-0.521415 0.0776522 -0.0479963 61 137 121
0.781893 0.0799727 -0.205326 227 138 101
0.444306 0.0684615 -0.206188 184 136 101
-0.333946 -0.103826 0.332059 85 114 170
-0.931814 -0.101523 0.248289 9 115 159
0.6805 0.0862035 -0.11104 214 138 113
-0.922451 0.0723674 -0.00625271 10 137 127
0.431972 -0.103473 0.302618 183 114 166
0.636 -0.0999558 0.348133 209 115 172
-0.411157 0.104261 -0.306409 75 141 88
0.634526 0.0632696 -0.0860265 208 136 117
0.969044 -0.100135 -0.288464 251 115 91
-0.29027 0.0793811 -0.063695 90 138 119
-0.503891 -0.102751 0.288064 63 114 164
-0.316609 -0.102897 0.221309 87 114 156
0.912615 0.0610349 -0.101902 244 135 115
-0.617793 0.0972036 -0.159527 49 140 107
0.658216 -0.074376 0.357105 211 118 173
0.544279 0.0545853 0.27474 197 134 163
0.616428 -0.0999631 -0.0492372 206 115 121
-0.456885 -0.0388331 -0.360822 69 123 81
0.111447 0.00040311 0.362472 142 128 174
0.994899 -0.0451558 0.346041 254 122 172
-0.0367615 0.0766936 -0.206092 123 137 101
0.342453 0.0430825 -0.21605 171 133 100
0.868204 0.098971 -0.189614 238 140 103
0.597901 0.0613601 0.00705913 204 135 128
0.866586 0.0676768 0.194308 238 136 152
0.169022 -0.103959 0.338189 149 114 171
-0.917359 -0.100991 -0.0574522 11 115 120
-0.986302 -0.0949736 0.0603466 2 115 135
0.67742 -0.0570119 0.359725 214 120 173
-0.785743 -0.105114 -0.186709 27 114 104
0.858849 0.0760085 -0.189574 237 137 103
-0.875689 -0.100528 -0.0796958 16 115 117
-0.0934589 0.0974576 -0.262491 116 140 94
-0.484581 0.0104542 0.329149 66 129 169
0.743443 -0.100134 -0.0698072 222 115 119
-0.994812 -0.0263667 -0.0809208 1 124 117
0.995522 -0.0292372 0.0534241 254 124 134
-0.777162 -0.106599 -0.273929 28 114 93
-0.317896 0.050903 -0.237982 87 134 97
0.191753 -0.0116267 -0.361952 152 126 81
-0.322276 0.0613999 0.12493 86 135 143
-0.826719 -0.0248444 -0.361884 22 124 81
-0.368014 0.0969868 -0.196881 81 140 102
-0.687791 -0.101664 -0.317412 40 115 87
-0.454981 0.00900987 0.332071 69 129 170
-0.0473014 0.0773748 -0.280107 121 137 92
-0.66164 -0.10049 -0.00284946 43 115 127
-0.682293 -0.102544 0.319023 41 114 168
0.28686 -0.0178918 -0.361384 164 125 81
0.349958 0.0939868 -0.142102 172 139 109
0.0811799 -0.100668 0.0808215 138 115 138
-0.931024 0.0937036 -0.12854 9 139 111
-0.0126007 0.0962952 -0.191052 126 140 103
0.845359 0.0498506 0.268047 235 134 162
0.953992 -0.100392 -0.123837 249 115 112
0.503592 -0.0849928 -0.358619 192 117 82
0.284083 0.105789 -0.309456 164 141 88
-0.996909 0.00458215 0.229888 0 128 157
-0.597655 -0.0134516 -0.362229 51 126 81
0.813757 0.0927177 -0.327881 231 139 86
-0.878984 0.0563698 0.104709 15 135 141
0.278429 0.06927 0.0444596 163 136 133
-0.428269 -0.0118877 -0.362287 73 126 81
0.792031 0.0576901 0.263588 228 135 161
-0.639898 0.0697842 0.184681 46 136 151
-0.00491285 -0.0984659 0.00667871 127 115 128
0.895597 0.0948881 -0.142065 242 140 109
-0.433051 -0.100865 -0.0769666 72 115 118
-0.120061 -0.0987659 -0.0856858 112 115 117
-0.11014 -0.100729 -0.350377 113 115 83
-0.595893 0.0731732 -0.0174637 52 137 125
-0.726209 -0.013117 -0.3627 35 126 81
0.88963 0.0602846 0.278168 241 135 163
0.0838485 0.0658291 0.256539 138 136 160
-0.644995 0.079318 -0.182089 45 138 104
-0.423635 0.0774118 -0.0847372 73 137 117
0.086778 -0.102092 0.191997 139 114 152
-0.1252 -0.0987621 0.0404629 112 115 133
-0.299013 0.064235 0.249603 89 136 159
0.430773 -0.100656 -0.130173 182 115 111
0.892586 0.0686009 0.0294025 241 136 131
0.0122326 -0.00801928 0.365202 129 126 174
0.54509 0.0912501 -0.144502 197 139 109
-0.910321 -0.100906 -0.107953 11 115 114
-0.574775 -0.100503 -0.130178 54 115 111
0.371574 0.0652089 0.102681 175 136 141
-0.0939317 0.00943826 -0.364054 116 129 81
0.076408 0.0405843 0.215575 137 133 155
0.431023 -0.101377 -0.328704 182 115 86
0.598674 -0.100172 0.0161138 204 115 130
-0.257515 0.0700719 -0.234559 95 136 98
0.625317 0.0619833 0.0117215 207 135 129
0.631684 0.0942759 -0.294979 208 140 90
0.438711 0.00598778 0.354835 183 128 173
0.481199 -0.0708595 -0.359008 189 118 82
-0.392815 0.0484213 0.172837 77 134 150
-0.996739 -0.0140696 0.129073 0 126 144
-0.664125 -0.101244 -0.246123 43 115 96
0.433113 -0.100699 -0.156945 183 115 107
0.0362866 -0.100954 -0.202525 132 115 102
0.379855 -0.10095 -0.19499 176 115 103
-0.624949 -0.102908 0.325155 48 114 169
-0.232259 -0.103836 0.33843 98 114 171
-0.997614 -0.00135047 0.268353 0 127 162
-0.876721 -0.100617 -0.106942 16 115 114
-0.358516 0.0672257 0.287389 82 136 164
0.628925 0.0705145 -0.0113731 208 136 126
-0.0398536 -0.100358 -0.153686 122 115 108
-0.865908 0.00725083 0.355397 17 128 173
-0.277736 0.0528027 -0.309717 92 134 88
-0.815479 0.0913273 -0.118449 24 139 112
-0.277992 -0.1035 0.285508 92 114 164
-0.574574 0.0868598 -0.11409 54 139 113
-0.478739 -0.101937 -0.341807 66 115 84
-0.0710814 -0.0990137 -0.353689 118 115 82
-0.143551 0.0877473 -0.115946 109 139 113
-0.454844 -0.0463375 0.360373 70 122 173
-0.822448 -0.106629 0.327911 23 114 169
-0.632606 -0.100735 0.117005 47 115 142
0.435785 0.0887649 -0.254289 183 139 95
-0.0891428 -0.103691 0.287874 116 114 164
-0.82177 -0.100399 -0.0257036 23 115 124
-0.669535 0.0850843 -0.0844988 42 138 117
0.755354 0.0446607 0.105516 224 133 141
-0.0506013 0.0649917 0.255553 121 136 160
0.354538 0.049382 0.131872 173 134 144
0.774792 0.065105 0.139644 226 136 145
0.387411 0.0425663 0.320593 177 133 168
-0.668008 0.106211 -0.314496 42 141 87
0.126394 -0.0371324 -0.360823 144 123 81
-0.693943 0.0988316 -0.269738 39 140 93
-0.483408 -0.100849 0.0108514 66 115 129
0.875142 0.0733562 -0.00435798 239 137 127
0.408628 -0.103922 0.327794 180 114 169
0.205208 -0.101244 -0.20362 154 115 102
0.448629 -0.103687 0.311789 185 114 167
-0.620755 0.0493401 0.203915 48 134 153
0.121629 0.0845988 -0.115978 143 138 113
0.486697 0.00774607 -0.362624 190 128 81
0.606087 -0.0714049 -0.358852 205 118 82
-0.910657 -0.0027007 0.36486 11 127 174
0.925309 0.0704538 0.0579612 245 136 135
0.569617 -0.100826 -0.288515 200 115 91
0.139625 0.0427097 0.129491 145 133 144
-0.845884 -0.106599 -0.272832 20 114 93
-0.877761 -0.100859 0.068257 16 115 136
0.769653 -0.105629 -0.27706 226 114 92
0.281949 0.0526822 0.212411 163 134 155
-0.991983 -0.0729776 0.173896 1 118 150
0.883269 -0.100866 0.0926191 240 115 139
0.764651 -0.109786 0.318097 225 114 168
-0.0217848 0.0590207 0.209995 125 135 154
-0.415357 -0.101165 0.0152886 75 115 129
-0.0114379 0.0401728 0.215604 126 133 155
0.486735 -0.101223 -0.309874 190 115 88
0.376329 -0.100976 -0.0849376 175 115 117
-0.344662 0.0524519 0.115357 84 134 142
-0.744937 0.0775388 -0.0539951 33 137 121
0.80599 0.097144 -0.169035 230 140 106
-0.964256 -0.101253 0.0222231 5 115 130
0.686394 -0.0682665 -0.358605 215 119 82
0.562214 -0.100482 -0.243795 199 115 96
0.135131 0.0554496 0.314984 145 135 168
0.310359 0.0833342 -0.123264 167 138 112
-0.667051 -0.0113121 -0.362573 42 126 81
0.585604 0.0983388 -0.325686 202 140 86
0.765015 -0.100378 0.063179 225 115 136
-0.532794 0.04688 -0.108269 60 133 114
-0.790453 0.000144264 -0.363617 27 128 81
-0.243904 0.0496599 0.0724579 96 134 137
-0.995991 -0.0321482 0.275897 1 123 163
-0.588386 -0.101563 -0.264378 52 115 94
-0.900348 0.0646449 -0.22533 13 136 99
0.469159 -0.0314794 0.363359 187 123 174
0.403202 -0.101162 0.0921235 179 115 139
-0.671589 0.0568037 -0.341796 42 135 84
0.482571 0.0678995 0.0357119 189 136 132
0.140328 0.0675376 0.0799015 145 136 138
0.852476 0.0714187 -0.177727 236 137 105
-0.916715 0.0703496 0.0780761 11 136 137
0.244281 0.0990326 -0.249647 159 140 96
-0.11054 -0.100786 -0.206479 113 115 101
0.817423 -0.101008 0.163826 232 115 148
0.411308 0.0566899 0.117156 180 135 142
-0.189469 -0.100568 -0.158609 103 115 107
-0.627336 0.0631419 0.202755 48 136 153
-0.852447 0.0585637 0.104378 19 135 141
-0.512719 0.00662583 0.350888 62 128 172
-0.890813 -0.100558 -0.108602 14 115 114
-0.186199 -0.100573 -0.129586 104 115 111
0.89112 -0.100972 0.0693204 241 115 136
-0.466186 0.076358 -0.0469033 68 137 122
0.601093 0.0626244 0.303746 204 135 166
-0.99736 -0.0107067 0.220627 0 126 156
0.477192 -0.101174 -0.291915 188 115 90
0.288693 0.047703 0.08794 164 134 139
0.781328 -0.0941037 -0.320066 227 116 87
0.752996 0.0525523 0.0499376 224 134 134
-0.952995 0.0495505 0.0163833 6 134 130
-0.612689 -0.10076 0.135413 49 115 145
-0.534401 0.0454973 0.2155 59 133 155
0.95431 0.05336 0.0660645 249 134 136
0.936019 -0.0959851 -0.201909 247 115 102
0.855961 0.044682 -0.00250787 237 133 127
0.346457 0.0676183 0.0884145 172 136 139
-0.0969648 0.063894 0.250132 115 136 159
-0.329233 0.0286675 0.323216 86 131 169
0.794317 0.0767137 -0.0943295 229 137 115
-0.892534 0.0997977 -0.270656 14 140 93
-0.275803 0.0569108 -0.351012 92 135 83
-0.251119 -0.0584269 0.358761 95 120 173
-0.98515 0.0418442 -0.186202 2 133 104
0.798655 -0.105558 -0.302372 229 114 89
0.118286 0.104173 -0.314752 143 141 87
-0.736447 0.0891966 -0.264655 34 139 94
0.522496 0.0370611 -0.365045 194 132 81
0.783859 -0.0123356 0.366959 227 126 174
-0.535941 0.069728 -0.0995142 59 136 115
0.59555 0.0778679 -0.0272635 203 137 124
-0.0619286 0.0697732 -0.0253556 120 136 124
0.719613 -0.100148 0.0494581 219 115 134
-0.684266 0.0952555 -0.161234 40 140 107
0.614109 -0.101452 0.189272 206 115 152
-0.588112 0.0683518 0.151329 53 136 147
-0.178655 0.0513101 0.165042 105 134 149
0.157576 0.059229 -0.236206 148 135 97
0.621281 -0.100011 -0.185154 207 115 104
0.631782 -0.100883 0.143505 208 115 146
-0.0255542 -0.101078 -0.220558 124 115 99
-0.0852686 -0.0857617 -0.359522 117 117 82
-0.749257 -0.100622 0.136342 32 115 145
0.491047 -0.10387 0.338586 190 114 171
-0.00336112 -0.102557 -0.336251 127 114 85
0.437917 0.05945 -0.106677 183 135 114
0.299538 -0.0192123 -0.361286 166 125 81
0.323659 -0.101453 -0.264346 169 115 94
-0.0316957 -0.101947 -0.285139 123 115 91
0.61409 -0.0998738 -0.155764 206 115 108
-0.816809 0.0523292 0.266486 23 134 161
0.631922 0.0481721 -0.205366 208 134 101
-0.523524 -0.101999 -0.320284 61 114 87
0.948539 -0.10269 0.228694 248 114 157
0.0498347 0.0754266 -0.299896 134 137 89
-0.243798 0.0501681 -0.36402 96 134 81
-0.713122 0.0496476 0.160886 37 134 148
0.385006 0.0509959 0.211609 177 134 154
-0.642033 -0.102157 0.285057 46 114 164
0.362551 0.0567627 -0.338486 174 135 84
0.766905 -0.0859355 -0.357847 225 117 82
-0.278299 0.0656139 0.257314 92 136 160
0.147764 0.00601507 0.353836 146 128 173
-0.379046 0.0691463 0.0614076 79 136 135
0.231421 -0.101418 0.0181205 157 115 130
-0.3769 0.0661482 0.259774 79 136 161
0.596732 0.00532415 -0.362152 204 128 81
0.816359 0.0564249 0.116804 232 135 142
0.995892 -0.0189468 -0.0563048 254 125 120
0.0347614 -0.0991374 0.0680571 132 115 136
0.345755 0.0308986 0.203985 172 131 154
0.638604 0.0586657 -0.163535 209 135 107
-0.505672 -0.100685 0.0164433 63 115 130
0.0402984 0.096363 -0.25084 133 140 96
-0.235304 0.0484261 0.0297574 97 134 131
-0.678831 -0.0766992 -0.359898 41 118 82
-0.272017 -0.101486 0.0678855 93 115 136
0.909687 0.056438 0.117643 243 135 142
0.944996 0.0660622 0.158352 248 136 148
0.485766 0.0335615 -0.364943 189 132 81
-0.64966 0.0514338 -0.208192 45 134 101
-0.554221 -0.0993472 -0.351416 57 115 83
-0.447705 0.068564 -0.00367788 70 136 127
0.24297 -0.101572 -0.266672 158 115 93
-0.538828 0.0808978 -0.25958 59 138 94
-0.0707206 0.0994681 -0.254784 118 140 95
0.588937 0.0552319 0.116264 203 135 142
0.474402 -0.0990759 0.349112 188 115 172
-0.953022 -0.101274 -0.161459 6 115 107
0.616749 0.0726198 0.059196 206 137 135
0.418731 0.0491613 -0.101739 181 134 115
0.222903 0.0506411 0.307307 156 134 167
0.6387 0.0341598 0.170627 209 132 149
0.0663191 -0.0987072 -0.0386514 136 115 123
0.127262 -0.0962029 0.351423 144 115 172
-0.658233 -0.0620302 -0.360172 44 120 82
0.135418 -0.0486874 0.360407 145 121 173
-0.573165 0.0675006 -0.0953212 54 136 115
-0.686833 0.061279 -0.0394506 40 135 122
-0.386349 0.074016 -0.016323 78 137 125
0.422643 -0.0530082 -0.359527 181 121 82
0.562623 0.0681608 0.183225 199 136 151
-0.149276 0.00631443 0.345411 108 128 172
-0.230404 0.100552 -0.27648 98 140 92
-0.735845 0.0890026 -0.173178 34 139 105
-0.384828 -0.10289 0.253696 78 114 160
-0.945578 0.0777692 -0.0229579 7 137 125
0.249494 -0.101327 -0.067718 159 115 119
-0.595892 -0.100381 0.0364526 52 115 132
-0.138895 0.0523968 0.0800259 110 134 138
0.748067 -0.0964486 -0.321996 223 115 86
0.592913 0.0665397 0.186684 203 136 151
0.891946 0.0373186 0.32352 241 132 169
0.65207 0.0775756 -0.075414 211 137 118
0.845234 -0.100614 0.0868874 235 115 139
-0.899024 0.0621207 0.129594 13 135 144
-0.392781 -0.101682 0.127413 77 115 144
-0.992303 0.0553547 -0.351432 1 135 83
-0.723688 -0.100513 0.0808515 35 115 138
0.754511 0.0291834 0.225131 224 131 156
-0.337663 0.0926742 -0.235145 84 139 98
-0.670711 0.0469921 0.218793 42 133 155
0.461906 0.0689141 0.0458373 186 136 133
-0.784323 0.0692299 0.0745312 27 136 137
0.61013 0.0685524 -0.226729 205 136 99
-0.414684 0.08828 -0.241994 75 139 97
0.824768 0.0759795 -0.0968917 233 137 115
0.219579 -0.101214 -0.219976 155 115 99
0.708991 0.0976492 -0.245881 218 140 96
-0.873447 0.0471634 0.317313 16 134 168
0.743746 0.0463481 0.0229182 222 133 130
-0.969962 -0.0442245 -0.360836 4 122 81
0.0710447 0.0499856 0.00129331 137 134 128
-0.438755 0.068513 0.0636017 72 136 136
0.956626 -0.10099 -0.0740721 249 115 118
-0.97435 -0.100828 -0.340142 3 115 84
-0.553808 0.0958079 -0.148102 57 140 109
-0.382342 0.0616894 0.31058 79 135 167
0.467107 0.0541894 0.00626863 187 134 128
0.665779 0.060109 0.259709 212 135 161
-0.134436 -0.101157 -0.231648 110 115 98
-0.815803 0.0704087 0.0245681 23 136 131
0.138588 -0.100885 -0.131369 145 115 111
-0.838571 0.0698871 0.0696043 21 136 136
-0.193732 0.0767902 -0.0509299 103 137 121
0.665973 0.0707876 0.198689 212 137 153
-0.927449 -0.10115 -0.223892 9 115 99
0.991178 -0.077762 0.0995719 254 118 140
-0.618501 0.0772031 -0.00780979 49 137 127
-0.620337 -0.0517851 -0.360522 48 121 82
-0.816156 0.0643752 0.15805 23 136 148
0.978059 0.0335545 -0.364602 252 132 81
-0.0186356 -0.0589602 -0.360303 125 120 82
-0.65451 0.0795985 -0.203458 44 138 102
-0.231163 0.0668831 0.266408 98 136 161
-0.253115 0.00611499 0.352951 95 128 173
-0.975882 -0.101337 0.182867 3 115 151
-0.299897 -0.074845 -0.359961 89 118 82
0.647691 0.0553208 0.0587682 210 135 135
0.425974 -0.101096 0.0797311 182 115 138
-0.522851 0.0441939 -0.211711 61 133 101
-0.815308 -0.100555 0.115185 24 115 142
0.604858 0.0522799 0.22684 205 134 156
0.84142 0.0756938 -0.231713 235 137 98
-0.237507 -0.102252 -0.319529 97 114 87
-0.297281 0.0408623 0.124445 90 133 143
0.37325 -0.0384073 0.36227 175 123 174
0.10607 -0.103294 0.27102 141 114 162
-0.434283 -0.101001 -0.142107 72 115 109
-0.67721 0.0606817 0.133598 41 135 145
-0.674991 0.0620462 0.0873192 41 135 139
-0.0638777 -0.101541 0.152003 119 115 147
0.582278 0.0541355 0.244733 202 134 159
-0.486167 0.00492102 0.357076 66 128 173
0.726643 -0.0182848 0.365698 220 125 174
0.992945 -0.0505011 -0.0702435 254 121 119
0.450234 0.0613214 0.14103 185 135 145
0.808224 -0.0999964 -0.0234472 231 115 125
0.433208 0.0394792 0.239964 183 133 158
-0.249922 -0.101027 -0.193305 96 115 103
0.248666 0.0670506 0.0314537 159 136 132
-0.202021 -0.101866 -0.294325 102 115 90
-0.165043 0.0609016 -0.069493 106 135 119
0.433623 0.0750201 -0.322063 183 137 86
0.18586 0.0331084 0.322212 151 132 169
0.337191 0.0573173 -0.350168 170 135 83
-0.0960802 -0.102141 -0.302607 115 114 89
-0.991753 -0.0530727 -0.213631 1 121 100
0.901135 0.0372602 -0.36526 242 132 81
0.652176 -0.101429 0.199276 211 115 153
0.0932262 -0.0989149 0.01095 139 115 129
0.787384 0.0538405 -0.223185 228 134 99
0.308653 0.0538507 0.251784 167 134 160
-0.719431 0.0969588 -0.1515 36 140 108
-0.963247 0.0167588 0.20661 5 130 154
0.0857543 -0.104086 0.323779 138 114 169
-0.343693 -0.00717011 0.365046 84 127 174
-0.908782 -0.0827807 -0.359954 12 117 82
-0.442309 0.0653679 0.159898 71 136 148
-0.951701 0.0591674 0.0859936 6 135 138
-0.870225 0.0755514 -0.328247 17 137 86
0.618658 0.0801536 -0.0261978 206 138 124
0.471516 0.101893 -0.286006 188 140 91
-0.322929 0.0731874 -0.279226 86 137 92
0.514006 0.0481634 0.112215 193 134 142
0.230132 -0.103164 0.263277 157 114 161
0.994495 -0.01995 -0.336066 254 125 85
0.940577 -0.10079 -0.0552517 247 115 120
-0.446073 0.0540264 0.0503553 71 134 134
0.85211 0.0528794 -0.204187 236 134 101
-0.382919 -0.10211 -0.326572 79 114 86
0.191301 0.0582931 0.130416 152 135 144
-0.0912376 -0.0444919 -0.360814 116 122 81
0.210896 0.0743747 -0.0313425 154 137 124
0.684279 -0.100309 -0.26394 215 115 94
-0.127527 0.0539859 0.22309 111 134 156
0.293154 0.100971 -0.258502 165 140 95
-0.83679 -0.105266 -0.184585 21 114 104
-0.145563 0.0843299 -0.236088 109 138 97
-0.07218 -0.100604 0.0820274 118 115 138
-0.86902 0.0659792 0.173415 17 136 150
-0.0447695 0.0579647 0.21049 122 135 154
-0.901348 0.0965062 -0.249388 13 140 96
0.420116 -0.097922 0.35017 181 115 172
-0.969715 -0.101301 -0.0539793 4 115 121
0.315218 0.074211 -0.32069 168 137 87
-0.988808 -0.0785398 -0.336113 1 117 85
0.615842 -0.100082 -0.204059 206 115 101
0.669433 -0.100628 0.128696 213 115 144
0.992975 -0.0438649 -0.158485 254 122 107
-0.294732 -0.050253 0.35996 90 121 173
-0.584416 -0.101138 -0.202243 53 115 102
0.377518 -0.103557 0.295441 176 114 165
-0.88298 0.0932981 -0.132349 15 139 111
0.941342 0.0591061 0.248476 248 135 159
0.101788 0.0556655 0.105967 140 135 141
0.440241 -0.0961046 -0.354703 184 115 82
-0.29903 0.0500594 0.168194 89 134 149
-0.60179 0.0828759 -0.079647 51 138 117
0.159042 0.0598206 -0.249388 148 135 96
0.866415 -0.104818 -0.249501 238 114 96
0.134535 0.0972368 -0.241188 145 140 97
-0.68532 -0.0271585 -0.361637 40 124 81
-0.455794 0.0567515 -0.34488 69 135 84
-0.115115 0.0750274 -0.015515 113 137 126
0.979269 0.0242361 0.00953021 252 131 129
-0.269119 0.0620496 0.309978 93 135 167
-0.508355 0.0760555 -0.0103615 63 137 126
-0.0996334 0.0760648 -0.187074 115 137 104
-0.940436 0.0591489 0.231364 8 135 157
0.884092 0.0572441 0.31668 240 135 168
0.0435436 -0.0985418 -0.0522518 133 115 121
0.289649 -0.101279 -0.0717754 164 115 118
0.995047 -0.0163339 -0.23889 254 125 97
-0.290866 0.0628236 0.0109038 90 136 129
-0.514771 0.0644177 -0.331554 62 136 85
0.804761 -0.102163 0.257305 230 114 160
-0.799597 0.0736347 0.0636207 26 137 136
0.637053 0.0760495 -0.266449 209 137 94
0.770448 0.0350894 0.323785 226 132 169
-0.697624 -0.100474 -0.0732969 39 115 118
0.243869 0.0801391 -0.078138 159 138 118
0.747846 -0.101833 0.237604 223 115 158
-0.245625 -0.100415 -0.350635 96 115 83
-0.490178 0.0674178 0.0181956 65 136 130
0.087126 0.0515426 0.0933666 139 134 139
-0.696166 0.0371007 0.278355 39 132 163
0.206614 -0.103159 0.264814 154 114 161
-0.296522 0.0552761 0.224641 90 135 156
-0.509428 0.0114655 -0.363988 63 129 81
-0.443933 -0.101942 -0.271615 71 115 93
0.976529 -0.0473587 0.360695 252 121 173
0.690832 -0.100025 0.0230863 216 115 130
-0.0305551 0.103612 -0.322635 124 141 86
0.536499 0.0727959 -0.00652145 196 137 127
-0.153155 -0.101175 0.0915071 108 115 139
-0.325668 -0.100929 -0.0521419 86 115 121
0.672644 -0.100043 -0.218282 213 115 100
-0.457161 0.0499455 0.0616775 69 134 135
-0.0690209 0.0637363 -0.00260741 119 136 127
0.224226 -0.101124 -0.171091 156 115 106
0.95919 0.0621037 -0.265947 250 135 94
0.534139 0.0796261 -0.0728318 196 138 118
0.169097 0.0622852 -0.0904646 149 135 116
0.847026 0.0640923 -0.111106 235 136 113
-0.718579 -0.101539 -0.288859 36 115 91
-0.994442 -0.042646 0.116448 1 122 142
-0.112113 -0.102367 -0.325563 113 114 86
-0.577053 0.0519903 -0.222968 54 134 99
0.185814 0.0477403 0.317995 151 134 168
-0.119648 0.0732767 -0.202467 112 137 102
0.395421 -0.0525644 0.360194 178 121 173
-0.045416 -0.0984944 -0.0849964 122 115 117
-0.134112 0.0973579 -0.241166 110 140 97
0.14535 -0.0991339 -0.0222173 146 115 125
0.805645 -0.100525 0.099396 230 115 140
0.568517 0.0909936 -0.134394 200 139 110
0.27559 -0.0758369 0.356709 163 118 173
0.152874 -0.045955 -0.360404 147 122 82
-0.761813 0.0594088 0.271268 30 135 162
0.526264 0.0840453 -0.260367 195 138 94
-0.162384 -0.100489 -0.146431 107 115 109
0.221775 0.0743053 -0.118439 156 137 112
0.173253 0.0548274 -0.326972 150 134 86
0.804208 -0.01219 0.367116 230 126 174
0.326589 0.0430113 0.283154 169 133 164
-0.964934 -0.0642407 0.356765 4 119 173
0.35404 0.0518238 0.164709 173 134 149
0.714167 0.0196813 -0.363488 219 130 81
-0.12509 -0.101436 -0.249158 112 115 96
0.821005 -0.100228 0.0469374 232 115 133
0.888464 -0.0264468 -0.360029 241 124 82
0.779763 0.100555 -0.18269 227 140 104
-0.962965 0.0486752 -0.250569 5 134 96
-0.199051 0.0670252 0.287486 102 136 164
0.289908 0.0460634 -0.365675 164 133 81
-0.726005 0.084024 -0.110389 35 138 113
0.98122 -0.100393 0.137713 253 115 145
-0.98592 -0.0970801 0.280441 2 115 163
-0.854317 -0.100186 -0.117098 19 115 113
-0.87778 -0.10066 0.00588843 16 115 128
-0.589079 0.0680568 0.027377 52 136 131
0.508049 0.0552272 -0.358746 192 135 82
0.358332 0.006592 0.348197 173 128 172
0.0436176 0.0978504 -0.303549 133 140 89
0.152383 0.0669078 -0.0788142 147 136 117
0.304725 0.0518033 0.0101635 166 134 129
0.763178 0.107173 -0.314334 225 141 87
-0.743935 0.0696908 0.0975953 33 136 140
-0.686852 0.0426957 0.27162 40 133 162
-0.782534 -0.0313208 0.362047 28 124 174
-0.842208 0.0458527 -0.232181 20 133 98
0.748272 -0.0999313 -0.0227806 223 115 125
-0.576813 0.0950817 -0.166262 54 140 106
-0.700552 0.0677392 -0.0476803 38 136 121
0.793176 -0.0979228 -0.331183 229 115 85
0.233115 0.0440013 -0.213216 157 133 100
0.239371 0.0596688 -0.000308294 158 135 127
-0.821502 0.0371015 0.236101 23 132 158
-0.163401 0.0733569 -0.271733 107 137 93
-0.881526 -0.101232 0.254908 15 115 160
-0.0347431 -0.102617 0.234782 123 114 157
-0.824676 -0.100619 0.125811 22 115 144
-0.0243852 0.0635098 0.247717 124 136 159
-0.803365 -0.100527 0.10023 25 115 140
-0.576271 -0.101889 0.343854 54 115 171
-0.0524603 0.0250688 -0.365471 121 131 81
-0.981132 -0.0434572 -0.0905908 2 122 116
-0.370143 0.0470017 -0.070195 80 133 119
-0.144024 0.055558 0.116631 109 135 142
0.555145 -0.100124 -0.0136078 198 115 126
-0.0453411 0.0851461 -0.292767 122 138 90
0.329384 -0.101652 -0.308857 169 115 88
0.681212 -0.100882 0.161781 214 115 148
0.276436 -0.0281215 -0.360859 163 124 81
-0.968506 0.0155874 0.175063 4 129 150
0.416443 0.0904222 -0.167206 181 139 106
-0.172421 0.0668799 0.286511 106 136 164
-0.825844 -0.100774 0.155467 22 115 147
0.205807 -0.102238 0.187145 154 114 151
0.880355 0.0796413 -0.0149734 240 138 126
-0.0295342 0.05655 -0.347562 124 135 83
0.270276 0.019737 -0.364268 162 130 81
-0.339345 -0.101866 -0.293612 84 115 90
0.490383 0.0499496 0.107843 190 134 141
-0.555477 -0.100755 0.0841201 57 115 138
0.743883 -0.0315985 -0.359703 222 123 82
-0.419543 0.0769427 -0.066441 74 137 119
0.49257 0.0672123 0.169883 190 136 149
-0.92969 0.0428388 0.214433 9 133 155
0.911521 0.0613918 0.105819 244 135 141
0.0769674 -0.102461 0.21461 137 114 155
-0.726129 -0.100488 -0.0483888 35 115 121
-0.887347 0.0723965 -0.207559 14 137 101
0.861242 0.0663321 -0.0783706 237 136 118
0.14212 0.0456229 -0.220393 146 133 99
0.6695 0.0129949 0.328371 213 129 169
0.949797 0.0550244 0.283257 249 135 164
0.27664 -0.0582694 0.359285 163 120 173
0.223536 0.0760511 -0.0557298 156 137 120
0.833144 -0.100137 0.00823414 234 115 129
-0.773417 0.0951001 -0.141305 29 140 109
-0.516217 -0.0941619 -0.357289 62 115 82
0.445879 -0.100415 -0.134628 184 115 110
0.849155 0.0770372 -0.302657 236 137 89
0.729913 0.0662263 0.159304 221 136 148
-0.14832 0.0488989 -0.223097 109 134 99
-0.9335 -0.101307 0.201482 8 115 153
-0.49452 0.0679332 0.276025 64 136 163
-0.784658 0.064488 0.304539 27 136 166
-0.989678 -0.081793 -0.0974468 1 117 115
-0.782398 -0.108397 0.277065 28 114 163
-0.954391 0.0187127 0.321809 6 130 169
-0.11235 0.0708149 -0.120541 113 137 112
-0.824992 0.0323972 -0.366666 22 132 81
-0.993959 -0.0558745 0.259381 1 120 161
-0.430865 0.0693421 -0.149425 73 136 108
0.0311267 0.0395379 0.165453 131 133 149
-0.119396 -0.101242 0.0961705 112 115 140
0.772024 -0.100191 0.0371665 226 115 132
-0.726675 0.0545542 0.107043 35 134 141
0.555213 -0.100325 -0.175464 198 115 105
0.86586 0.0449588 -0.365832 238 133 81
-0.382526 0.0699552 -0.042777 79 136 122
0.25314 0.0575796 -0.208539 160 135 101
0.901021 -0.100346 -0.0475336 242 115 121
0.041848 0.0731713 -0.0315914 133 137 123
-0.347865 0.0841414 -0.204427 83 138 101
0.414496 -0.101441 -0.283533 180 115 91
0.420994 0.0758139 -0.188877 181 137 103
-0.473136 -0.0959031 0.350879 67 115 172
0.0100114 -0.101435 -0.243639 129 115 96
0.980179 -0.100251 0.00422254 252 115 128
0.170282 -0.0996605 -0.0459497 149 115 122
-0.709077 -0.100477 0.0835079 37 115 138
0.536587 -0.100379 0.021396 196 115 130
-0.8328 -0.10081 0.173926 21 115 150
-0.548231 0.0700704 -0.330389 58 136 85
0.654366 0.0602224 -0.225386 211 135 99
-0.881884 -0.100154 -0.349423 15 115 83
0.823157 -0.104618 -0.263297 232 114 94
-0.149566 0.0695023 -0.0342178 108 136 123
-0.0980144 -0.0782108 0.356256 115 118 173
-0.923709 -0.0115894 0.364832 10 126 174
0.82855 0.10814 -0.315773 233 141 87
0.0926121 0.0767409 -0.109523 139 137 114
-0.299482 -0.102188 0.151035 89 114 147
-0.0244282 0.076243 -0.0118046 124 137 126
-0.0337227 -0.0981802 -0.0313523 123 115 124
0.603499 0.0718965 0.069042 204 137 136
-0.876864 -0.101698 -0.331665 16 115 85
0.885497 -0.101625 0.19817 240 115 153
-0.998181 -0.00883829 0.332769 0 126 170
0.436743 0.0856612 -0.148335 183 138 109
-0.748591 0.0559775 -0.302607 32 135 89
-0.919414 -0.102014 0.32649 10 114 169
-0.714686 0.105091 -0.303803 36 141 89
-0.528683 0.0666059 -0.142268 60 136 109
-0.035857 -0.10133 -0.243028 123 115 97
0.32128 0.0174228 0.317469 168 130 168
0.561078 -0.0885858 0.354691 199 116 173
0.825202 -0.100563 0.105334 233 115 141
-0.927281 0.0367891 0.32017 9 132 168
0.517465 0.0637667 -0.331427 193 136 85
-0.256504 0.0881443 -0.203739 95 139 102
0.636011 -0.100515 -0.274018 209 115 93
-0.822632 0.0647225 -0.00226608 23 136 127
-0.36825 -0.101058 -0.0416834 81 115 122
-0.0826858 -0.0982502 -0.0624305 117 115 120
0.477377 -0.100749 0.0493388 188 115 134
0.373956 0.0471056 -0.00743482 175 134 127
-0.913957 0.0789484 -0.0304574 11 138 124
0.994803 -0.0490121 0.297102 254 121 165
0.382472 -0.0201467 0.365005 176 125 174
-0.539171 0.08235 -0.185959 59 138 104
-0.772148 0.0552256 0.314616 29 135 168
0.726077 -0.100311 0.0730919 220 115 137
-0.173065 -0.0975505 0.350245 105 115 172
0.10538 -0.101927 0.175466 141 115 150
-0.0673195 -0.102191 -0.305534 119 114 89
-0.932596 0.0579607 -0.352743 9 135 83
-0.110731 0.0693043 -0.191985 113 136 103
-0.93743 -0.101273 0.0821963 8 115 138
0.87008 0.0716932 0.0876923 238 137 139
0.959993 0.0374897 0.0456908 250 132 133
-0.184811 -0.102321 -0.324181 104 114 86
0.635418 0.0603367 -0.058665 209 135 120
0.996718 0.00503327 -0.329756 255 128 85
-0.413633 -0.102081 -0.314375 75 114 87
-0.213022 -0.10067 -0.101739 100 115 115
0.190972 -0.10416 0.329478 152 114 170
0.898164 -0.0473698 -0.358862 242 121 82
-0.301628 -0.1009 -0.154741 89 115 108
-0.54239 0.045971 0.00458632 58 133 128
0.881898 0.0988928 -0.239343 240 140 97
0.891388 -0.100486 -0.0342761 241 115 123
-0.947812 -0.101496 0.254056 7 115 160
0.264479 -0.101197 -0.140805 161 115 110
-0.497072 0.0569155 -0.345042 64 135 84
0.892612 0.0225728 -0.363896 241 130 81
0.96141 0.0284428 0.128653 250 131 144
-0.789322 0.0584661 -0.00587849 27 135 127
-0.273128 0.0568147 -0.0102942 93 135 126
0.324329 0.0625126 -0.130388 169 135 111
0.630659 0.0798945 -0.199003 208 138 102
-0.619096 0.0788716 -0.205621 49 138 101
0.650639 0.0668315 -0.108883 210 136 114
0.5291 0.0781943 -0.0336353 195 137 123
-0.0831245 0.09411 -0.137323 117 139 110
0.462876 0.101405 -0.275646 187 140 92
-0.140966 -0.0421036 0.361174 110 122 174
-0.297919 0.0475033 -0.261732 90 134 94
0.285798 0.0605956 -0.332317 164 135 85
-0.159536 -0.0965507 -0.355894 107 115 82
-0.344252 0.0670673 0.268526 84 136 162
-0.685419 0.0648078 -0.0247798 40 136 124
-0.538574 0.061623 0.117906 59 135 143
-0.995378 -0.0238941 -0.0230643 1 124 125
0.880172 0.0632586 0.29385 240 136 165
-0.166624 0.0822685 -0.204057 106 138 101
-0.779019 0.0543002 0.0815621 28 134 138
0.992113 -0.0767729 0.300222 254 118 166
0.314914 -0.060595 0.359093 168 120 173
0.498008 -0.101915 0.212931 191 115 155
0.618917 0.0644349 0.295472 206 136 165
-0.357991 -0.101874 0.151776 82 115 147
-0.218136 0.072091 -0.145937 100 137 109
-0.259284 0.0236579 0.3248 94 131 169
-0.777175 -0.10038 0.037761 28 115 132
-0.729168 -0.101071 0.230485 35 115 157
0.683733 0.0160502 0.327736 215 130 169
-0.395496 0.0541651 0.106373 77 134 141
-0.563337 -0.100667 -0.156897 56 115 107
-0.994541 -0.024226 -0.140474 1 124 110
-0.994688 -0.0344373 0.033464 1 123 132
-0.711395 -0.100462 0.0356101 37 115 132
0.709634 0.0557192 0.116126 218 135 142
0.313726 0.0767295 -0.15239 168 137 108
0.350048 0.0759745 -0.0955623 172 137 115
0.371319 -0.101263 0.0573077 175 115 135
-0.505757 0.0450192 0.110176 63 133 142
-0.405758 -0.102222 0.209357 76 114 154
0.720784 0.0797202 -0.328845 219 138 86
0.761448 0.0353969 -0.364781 225 132 81
-0.200955 0.0713145 -0.00789075 102 137 126
-0.533891 -0.100714 0.0211912 59 115 130
-0.283139 -0.101849 -0.280114 91 115 92
-0.708714 0.0590335 0.105768 37 135 141
0.866463 0.0948259 -0.148584 238 140 109
0.00157971 0.0539234 0.22328 128 134 156
-0.572769 -0.100351 -0.0544427 54 115 121
0.305876 -0.101478 0.04364 166 115 133
0.534192 -0.043629 0.361558 196 122 174
-0.067015 -0.102267 0.199088 119 114 153
0.203741 0.0869487 -0.158377 153 139 107
0.48008 0.0889664 -0.116153 189 139 113
-0.996828 -0.0219813 0.28535 0 125 164
-0.690968 0.0421838 -0.367028 39 133 81
0.611157 -0.10275 0.28097 205 114 163
-0.192342 0.0627734 -0.00135846 103 136 127
-0.198619 0.0940247 -0.326865 102 139 86
-0.175038 -0.0234122 -0.361657 105 125 81
0.550078 -0.100254 -0.192433 198 115 103
0.963773 0.0153478 0.209729 250 129 154
0.646529 0.0797374 -0.247484 210 138 96
0.0683506 0.0819656 -0.234075 136 138 98
-0.115448 -0.103652 0.280412 113 114 163
0.218275 -0.0892763 -0.358457 155 116 82
-0.356273 0.0579986 0.0956201 82 135 140
-0.223982 -0.0716701 -0.360061 99 118 82
-0.343109 -0.102712 0.226038 84 114 156
0.640081 0.0419457 0.020523 209 133 130
0.542889 -0.100289 -0.221808 197 115 99
-0.846918 -0.100441 -0.106787 20 115 114
0.144125 -0.10281 0.240143 146 114 158
-0.560153 0.0313019 0.232418 56 131 157
-0.754644 -0.100551 -0.0210825 31 115 125
-0.279241 0.0667768 0.0254774 92 136 131
-0.189306 0.0651385 0.0193103 103 136 130
0.349777 -0.0917961 -0.35759 172 116 82
0.435712 -0.0793894 0.35623 183 117 173
0.572817 0.0668735 0.0128824 201 136 129
0.203995 0.0849461 -0.137307 154 138 110
-0.781399 0.00793943 0.34559 28 129 172
-0.736504 0.091824 -0.314089 34 139 87
0.123577 -0.101539 -0.248328 143 115 96
-0.0459336 0.050259 -0.100689 122 134 115
-0.233667 0.0817364 -0.22978 98 138 98
0.381977 0.0653851 -0.0208107 176 136 125
-0.572423 0.067739 0.0400515 55 136 133
-0.469706 -0.0753391 -0.359811 68 118 82
0.997667 -0.0109638 0.194132 255 126 152
-0.872827 0.0552618 0.115521 16 135 142
-0.949951 0.0407139 0.314036 6 133 168
0.779584 -0.100607 0.112391 227 115 142
0.731492 0.0711395 0.078408 221 137 137
0.30725 -0.00836892 -0.361991 167 126 81
0.867429 -0.102889 0.331506 238 114 170
-0.752525 0.0797113 -0.194539 32 138 103
-0.962124 0.0445311 -0.214554 5 133 100
0.85736 -0.109297 0.274873 237 114 163
0.83471 0.0070378 0.353936 234 128 173
0.530135 0.0542743 0.00626895 195 134 128
-0.436669 0.0983159 -0.314557 72 140 87
0.743868 0.0764049 -0.295302 222 137 90
0.109211 0.0422158 -0.20866 141 133 101
0.836408 0.0625639 0.286831 234 135 164
-0.581585 0.0909069 -0.133409 53 139 110
-0.207872 0.053013 -0.202422 101 134 102
-0.681312 -0.100591 0.105639 41 115 141
0.845353 0.067666 -0.0503749 235 136 121
0.554764 -0.100199 0.0152121 198 115 129
0.63195 0.040393 0.116574 208 133 142
0.889254 0.0491634 -0.364787 241 134 81
0.891554 -0.100155 -0.133676 241 115 110
-0.197268 -0.100308 -0.017157 102 115 125
0.713868 -0.100549 -0.315501 219 115 87
0.171062 -0.0304163 -0.360926 149 124 81
0.692144 0.0556706 -0.208157 216 135 101
-0.239651 -0.101251 -0.236156 97 115 97
-0.494852 -0.101909 0.206838 64 115 154
-0.994829 -0.0261508 -0.100072 1 124 115
-0.336431 0.0591178 0.231668 85 135 157
-0.26257 -0.0118488 -0.362319 94 126 81
-0.460914 0.0615584 -0.332401 69 135 85
0.586785 -0.101544 0.201947 202 115 153
-0.684611 -0.100814 -0.175691 40 115 105
-0.956022 0.0375345 0.139371 6 132 145
-0.522608 -0.0667357 0.357309 61 119 173
-0.369154 -0.101087 -0.16931 80 115 106
0.0761448 -0.101429 0.120521 137 115 143
-0.322199 -0.100886 -0.128679 86 115 111
0.350636 0.0660489 0.0323426 172 136 132
0.996767 -0.0180885 0.0951621 255 125 140
0.974819 -0.0998932 -0.241959 252 115 97
0.488129 -0.100757 0.0629097 190 115 136
0.157814 0.0530571 -0.208907 148 134 101
-0.992416 -0.0454733 -0.267275 1 122 93
0.159968 0.0282658 -0.365337 148 131 81
-0.333554 -0.100954 -0.104151 85 115 114
-0.782338 -0.083448 0.354259 28 117 173
0.989675 -0.08645 0.0160315 254 116 130
-0.551927 -0.0290182 -0.361329 57 124 81
-0.871675 -0.103281 -0.280197 16 114 92
-0.2198 0.0548922 0.1147 99 134 142
0.469811 0.0690492 0.071756 187 136 137
0.783149 0.0636046 0.210533 227 136 154
-0.859225 -0.036365 0.36121 18 123 174
-0.606312 0.0945251 -0.327375 50 140 86
-0.252907 -0.103563 0.277328 95 114 163
-0.719888 0.0336914 0.139447 36 132 145
-0.0772349 -0.101726 -0.281848 118 115 92
0.0261638 0.0160047 0.328238 131 130 169
-0.23814 0.0964094 -0.161403 97 140 107
-0.305857 -0.102618 0.197672 89 114 153
0.797315 -0.10021 0.021044 229 115 130
0.944954 0.0599117 0.267159 248 135 162
-0.866631 0.0446243 0.111621 17 133 142
-0.0224403 0.0683678 -0.0991179 125 136 115
0.318693 0.0434644 -0.366073 168 133 81
0.566804 -0.0500003 -0.359286 200 121 82
-0.309267 0.0848781 -0.138284 88 138 110
0.710184 -0.100678 0.137347 218 115 145
0.70206 -0.102242 0.262563 217 114 161
0.456349 0.0860133 -0.205567 186 138 101
0.703405 -0.0999316 0.0327552 217 115 132
-0.74126 0.065773 -0.150532 33 136 108
0.66098 0.0583683 -0.352518 212 135 83
0.660156 0.0107105 -0.362655 212 129 81
0.533803 -0.100844 -0.275087 196 115 92
0.707091 0.0447483 0.320346 218 133 168
0.486138 -0.100433 -0.0584039 189 115 120
0.581705 0.0586365 0.280677 202 135 163
0.387331 0.00811304 0.336034 177 129 170
0.801146 0.0755778 -0.329817 230 137 85
-0.338027 0.0437544 0.00842763 84 133 129
-0.997162 0.0206837 -0.0337907 0 130 123
-0.996737 -0.0150507 0.166791 0 126 149
-0.65733 -0.0143435 0.364722 44 126 174
0.945888 0.00769196 0.341489 248 128 171
0.0217701 -0.049662 0.360145 130 121 173
-0.535049 -0.100602 -0.129999 59 115 111
0.127974 0.0640567 0.0130613 144 136 129
-0.620994 -0.101237 0.19584 48 115 152
-0.773192 0.0418635 -0.367495 29 133 81
-0.472336 0.0563646 -0.356035 67 135 82
0.672196 0.0626309 0.130033 213 135 144
0.268796 0.0553149 -0.102451 162 135 114
-0.194899 -0.103759 0.290929 103 114 165
0.313426 0.0764019 -0.0918921 167 137 116
0.0895148 -0.101644 0.152786 139 115 147
-0.471376 0.0905323 -0.203023 67 139 102
-0.350131 -0.0738084 0.356436 83 118 173
0.576119 0.0679585 0.197804 201 136 153
-0.0819175 0.0763894 -0.0128132 117 137 126
0.276537 -0.0423189 -0.360249 163 122 82
-0.366258 0.0605454 0.235549 81 135 158
-0.00446045 0.0697142 -0.154262 127 136 108
0.602339 -0.100049 -0.182604 204 115 104
0.161407 -0.102299 -0.339214 148 114 84
0.350042 0.0974871 -0.171865 172 140 106
-0.0259672 0.0575066 0.000683093 124 135 128
0.343004 0.0400251 -0.365934 171 133 81
0.647624 0.0829969 -0.165693 210 138 106
-0.54329 0.0435991 0.316341 58 133 168
-0.987063 -0.0864193 -0.347282 2 116 83
0.822321 0.075671 -0.229117 232 137 98
-0.0417747 0.0720753 -0.0445184 122 137 122
0.131186 0.0370538 0.165155 144 132 149
0.276712 -0.10139 0.0635068 163 115 136
0.902876 -0.0941816 0.35327 243 115 173
-0.443893 -0.101355 0.110984 71 115 142
-0.186392 0.0511517 0.221991 104 134 156
0.0353889 -0.100621 -0.170598 132 115 106
-0.304695 0.0261134 -0.365434 89 131 81
0.342662 -0.104042 0.336623 171 114 170
0.203963 -0.10133 -0.0410141 154 115 122
0.386295 0.0685088 0.187895 177 136 151
0.18307 -0.00447256 0.365261 151 127 174
0.832535 -0.104719 -0.253507 234 114 95
0.641141 -0.100021 -0.199754 209 115 102
-0.0576544 0.0766574 -0.272516 120 137 93
0.665806 -0.102172 0.248071 212 114 159
-0.554297 -0.101616 -0.29263 57 115 90
-0.831066 0.0184002 0.322282 22 130 169
-0.0733842 0.052034 -0.209347 118 134 101
0.636498 -0.100409 0.0781505 209 115 137
-0.352991 -0.103355 0.297597 82 114 165
-0.497868 0.0804311 -0.0527161 64 138 121
-0.649276 -0.100979 -0.202374 45 115 102
-0.110755 0.0804891 -0.328254 113 138 86
-0.347601 0.0952917 -0.14624 83 140 109
-0.613517 0.0319993 0.117055 49 132 142
0.828372 0.0906607 -0.327977 233 139 86
-0.580844 -0.0812627 0.355048 53 117 173
-0.409152 0.0734688 -0.00966176 75 137 126
0.0447495 -0.101408 0.136755 133 115 145
0.061181 0.0675565 0.287428 135 136 164
-0.431133 0.0660484 0.151158 73 136 147
-0.683907 0.0709011 -0.227734 40 137 98
0.592584 -0.0340061 0.362869 203 123 174
0.663881 0.058002 0.10639 212 135 141
