ply
format ascii 1.0
comment Created by Open3D
element vertex 1181
property double x
property double y
property double z
property uchar red
property uchar green
property uchar blue
end_header
0.166846 0.0531241 -0.313281 149 134 88
0.410966 0.0447854 -0.219488 180 133 100
-0.728262 0.0791361 -0.0935722 35 138 116
0.410966 0.0447854 -0.211959 180 133 100
0.408357 0.0447854 0.0122133 180 133 129
0.785284 0.101747 -0.325011 228 140 86
-0.158648 0.0525417 -0.272594 107 134 93
-0.158648 0.0529228 -0.275048 107 134 92
-0.158648 0.0522565 -0.264456 107 134 94
-0.158648 0.0518514 -0.256319 107 134 95
-0.158648 0.0529228 -0.251139 107 134 95
0.166846 0.0540672 -0.0935722 149 134 116
-0.899146 0.096958 -0.199358 13 140 102
0.785284 0.097252 -0.199358 228 140 102
-0.158648 0.0519564 -0.240044 107 134 97
-0.158648 0.0529228 -0.245251 107 134 96
-0.158648 0.0455504 -0.231907 107 133 98
0.410966 0.0447854 0.10667 180 133 141
-0.164461 0.0529228 -0.0935722 107 134 116
0.410966 0.0377194 0.215647 180 132 155
-0.158648 0.0529228 -0.100704 107 134 115
-0.899146 0.104072 -0.321418 13 141 87
0.410966 0.0447854 0.220049 180 133 156
-0.158648 0.0448014 -0.0854348 107 133 117
0.785284 0.104919 -0.321418 228 141 87
-0.158648 0.0452522 -0.0691601 107 133 119
-0.891009 -0.101778 0.29702 14 115 165
-0.891009 -0.101687 0.295052 14 115 165
0.166846 0.06106 0.00844323 149 135 129
0.405477 0.0529228 -0.101709 179 134 115
-0.891009 -0.101847 0.305158 14 115 166
0.410966 0.0522796 -0.101709 180 134 115
0.0610606 0.069192 0.0203506 135 136 130
-0.996794 -0.015811 0.353982 0 125 173
-0.891009 -0.102185 0.321432 14 114 168
0.0610606 0.0691974 0.0204855 135 136 130
0.410966 0.0459401 0.004076 180 133 128
0.410966 0.0497304 0.0122133 180 134 129
0.793422 -0.104497 -0.313281 229 114 88
0.793422 -0.101687 -0.316705 229 115 87
0.0610606 0.0646005 0.101724 135 136 140
-0.891009 -0.0935495 -0.358065 14 116 82
0.0610606 0.0691974 0.0969961 135 136 140
-0.728262 0.0919601 -0.117984 35 139 112
-0.728262 0.0936095 -0.123551 35 139 112
-0.733343 0.101747 -0.313281 34 140 88
-0.733324 0.101747 -0.305143 34 140 89
-0.158648 0.0544227 -0.329555 107 134 85
0.166846 0.0578815 0.313295 149 135 167
0.0610606 0.0681268 0.199372 135 136 153
-0.158648 0.0545258 -0.321418 107 134 87
0.0610606 0.063808 0.20751 135 136 154
0.410966 0.0529228 0.103284 180 134 141
-0.728262 0.101669 -0.264456 35 140 94
0.410966 0.0529228 0.113641 180 134 142
-0.158648 0.0605526 -0.313281 107 135 88
-0.728262 0.101747 -0.26513 35 140 94
-0.728262 0.100486 -0.256319 35 140 95
-0.158648 0.0606043 -0.305143 107 135 89
-0.728262 0.0990187 -0.248182 35 140 96
-0.158648 0.0601871 -0.297006 107 135 90
-0.728262 0.101581 -0.19122 35 140 103
-0.158648 0.0574865 -0.288868 107 135 91
-0.728262 0.101248 -0.183083 35 140 104
0.166846 0.0657712 0.0122133 149 136 129
0.410966 0.0579109 -0.353967 180 135 82
-0.728262 0.100317 -0.174946 35 140 105
-0.158648 0.0555284 -0.280731 107 135 92
-0.345807 0.00960589 0.32957 83 129 170
-0.728262 0.0991128 -0.166808 35 140 106
0.410966 0.0567107 -0.337693 180 135 84
0.166846 0.0691974 0.0194859 149 136 130
-0.728262 0.0979942 -0.158671 35 140 107
0.410966 0.06106 -0.331912 180 135 85
-0.728262 0.09709 -0.150534 35 140 108
0.793422 -0.108804 0.272608 229 114 162
-0.728262 0.0961131 -0.142396 35 140 109
-0.728262 0.0951412 -0.134259 35 140 110
-0.158648 0.0535863 -0.248182 107 134 96
-0.728262 0.0941217 -0.126122 35 140 111
0.166846 0.0656359 0.101724 149 136 140
-0.728262 0.103113 -0.321418 35 141 87
0.166846 0.0691974 0.0978036 149 136 140
-0.0447248 0.0114233 0.32957 122 129 170
-0.728262 0.106717 -0.313281 35 141 88
-0.728262 0.10603 -0.305143 35 141 89
-0.348691 0.0285107 0.109861 83 131 142
-0.345807 0.0206618 0.109861 83 130 142
-0.728262 0.105353 -0.297006 35 141 90
-0.158648 0.0557533 -0.101709 107 135 115
-0.345807 0.0285107 0.104261 83 131 141
-0.728262 0.104384 -0.288868 35 141 91
-0.345807 0.0285107 0.111023 83 131 142
-0.728262 0.103523 -0.280731 35 141 92
-0.728262 0.10247 -0.272594 35 141 93
-0.34869 0.036648 0.0122133 83 132 129
-0.345807 0.0306881 0.0122133 83 131 129
0.0610606 0.0695213 0.028488 135 136 131
0.793422 -0.101073 -0.337693 229 115 84
-0.345807 0.036648 0.00687378 83 132 128
0.0610606 0.0699608 0.0366253 135 136 132
0.166846 0.0686043 0.199372 149 136 153
-0.0513528 0.036648 0.004076 121 132 128
0.0610606 0.0702476 0.0447627 135 136 133
-0.345807 0.034465 0.0203506 83 132 130
0.0610606 0.070487 0.0529001 135 136 134
0.793422 -0.0935495 -0.170413 229 116 106
0.0610606 0.0705902 0.0610374 135 137 135
0.62719 0.0529228 -0.207495 207 134 101
-0.0447248 0.0441357 -0.22377 122 133 99
-0.345807 0.034275 0.028488 83 132 131
0.0610606 0.0711116 0.0691747 135 137 136
0.793422 -0.0989806 -0.117984 229 115 112
0.0610606 0.0713589 0.0773121 135 137 137
0.410966 0.0575841 0.117999 180 135 143
-0.0447248 0.0424656 -0.215632 122 133 100
-0.345807 0.0340978 0.0366253 83 132 132
0.625862 0.0529228 -0.101709 207 134 115
-0.0447248 0.0447854 -0.211625 122 133 101
0.0610606 0.0714424 0.0854494 135 137 138
0.0610606 0.0709087 0.0935868 135 137 139
0.630675 0.0493541 -0.101709 208 134 115
-0.051122 0.0447854 -0.0935722 121 133 116
-0.345807 0.0330007 0.0447627 83 132 133
0.166846 0.0705021 0.0447627 149 136 133
0.166846 0.0700582 0.028488 149 136 131
0.166846 0.0703065 0.0366253 149 136 132
0.166846 0.0707245 0.0529001 149 137 134
-0.345807 0.0324314 0.0529001 83 132 134
0.166846 0.0708418 0.0610374 149 137 135
0.410966 0.0560202 0.231922 180 135 157
0.166846 0.071224 0.0691747 149 137 136
0.410966 0.0575826 0.240059 180 135 158
-0.345807 0.0322603 0.0610374 83 132 135
0.166846 0.0713398 0.0773121 149 137 137
0.410966 0.0582579 0.248196 180 135 159
0.630675 0.0525551 0.0122133 208 134 129
0.166846 0.0716241 0.0854494 149 137 138
0.410966 0.0594085 0.256334 180 135 160
-0.345807 0.0322235 0.0691747 83 132 136
0.410966 0.0602291 0.264471 180 135 161
0.166846 0.0711318 0.0935868 149 137 139
0.410966 0.06106 0.271093 180 135 162
-0.345807 0.0323852 0.0773121 83 132 137
-0.345807 0.0313159 0.0854494 83 131 138
-0.0447248 0.0381154 0.004076 122 132 128
-0.345807 0.0308724 0.0935868 83 131 139
-0.0447248 0.0447854 0.00131084 122 133 128
-0.0447248 0.0447854 0.00557619 122 133 128
-0.345807 0.0298348 0.101724 83 131 140
-0.0447248 0.0403708 0.215647 122 133 155
0.410966 0.0691974 -0.105402 180 136 114
0.166846 0.095487 -0.199358 149 140 102
-0.345807 0.0422003 -0.215632 83 133 100
-0.158648 0.0662841 0.0122133 107 136 129
-0.345807 0.0447854 -0.21987 83 133 99
-0.345807 0.0447854 -0.210993 83 133 101
-0.0447248 0.0509678 -0.101709 122 134 115
-0.351991 0.0447854 0.0122133 83 133 129
-0.0471205 0.0529228 -0.0935722 121 134 116
-0.0447248 0.0529228 -0.100105 122 134 115
-0.996794 -0.00403872 0.356153 0 127 173
0.630675 0.0583353 -0.353967 208 135 82
0.630675 0.0559118 -0.337693 208 135 84
-0.891009 -0.101302 0.264471 14 115 161
0.630675 0.06106 -0.330411 208 135 85
-0.158648 0.0666915 0.101724 107 136 140
-0.891009 -0.101256 0.272608 14 115 162
-0.158648 0.0691974 0.0971211 107 136 140
-0.891009 -0.101593 0.280746 14 115 163
0.410966 0.0682485 0.199372 180 136 153
-0.891009 -0.0997099 0.345844 14 115 172
0.410966 0.0612207 0.272608 180 135 162
0.410966 0.0620084 0.280746 180 135 163
0.410966 0.0630922 0.288883 180 136 164
-0.0447248 0.0466984 0.109861 122 133 142
0.410966 0.0637763 0.29702 180 136 165
0.410966 0.0635634 0.305158 180 136 166
-0.0447248 0.0529228 0.11278 122 134 142
0.793422 -0.0895309 -0.321418 229 116 87
-0.158648 0.0663851 0.20751 107 136 154
0.410966 0.0773348 -0.204605 180 137 101
0.410966 0.0773348 -0.109337 180 137 114
0.409915 0.0773348 -0.0935722 180 137 116
0.410966 0.0771115 -0.0935722 180 137 116
-0.0447248 0.0592266 -0.329555 122 135 85
-0.345807 0.0466147 0.215647 83 133 155
0.7933 -0.0691374 -0.183083 229 119 104
0.793422 -0.0691374 -0.182777 229 119 104
-0.345807 0.0564304 -0.337693 83 135 84
-0.345807 0.06106 -0.331735 83 135 85
-0.891009 -0.00403872 0.365718 14 127 174
0.793422 -0.0718677 -0.142396 229 118 109
0.410966 0.0854721 -0.202326 180 138 102
-0.346157 0.06106 -0.101709 83 135 115
-0.891009 0.00946572 0.32957 14 129 170
0.410966 0.0929488 -0.126122 180 139 111
0.410966 0.0936095 -0.130016 180 139 111
0.410966 0.0903462 -0.117984 180 139 112
-0.345807 0.0612788 -0.101709 83 135 115
0.410966 0.101521 -0.264456 180 140 94
-0.891009 0.0446423 -0.215632 14 133 100
-0.891009 0.0447854 -0.216036 14 133 100
-0.345807 0.0691974 -0.100483 83 136 115
0.410966 0.101747 -0.266037 180 140 94
0.410966 0.100486 -0.256319 180 140 95
-0.891009 0.0447854 -0.215346 14 133 100
-0.720125 -0.10066 0.345844 36 115 172
-0.891009 0.0374242 0.109861 14 132 142
0.793422 -0.00403872 0.367286 229 127 174
0.410966 0.0992226 -0.248182 180 140 96
0.410966 0.0965985 -0.240044 180 140 97
-0.891009 0.0387521 0.215647 14 132 155
0.410966 0.0993487 -0.19122 180 140 103
0.793422 0.00212413 0.337707 229 128 171
0.793422 0.00409867 0.333838 229 128 170
0.410966 0.0995255 -0.183083 180 140 104
0.410966 0.0986705 -0.174946 180 140 105
0.792771 0.00409867 0.362119 229 128 174
0.410966 0.0978458 -0.166808 180 140 106
0.410966 0.0968036 -0.158671 180 140 107
0.410966 0.0958868 -0.150534 180 140 108
-0.345807 0.0653184 0.20751 83 136 154
0.410966 0.0950166 -0.142396 180 140 109
0.410966 0.0941839 -0.134259 180 140 110
0.410966 0.106745 -0.313281 180 141 88
0.410966 0.106236 -0.305143 180 141 89
0.410966 0.105525 -0.297006 180 141 90
0.410966 0.104538 -0.288868 180 141 91
0.410966 0.103585 -0.280731 180 141 92
0.410966 0.102486 -0.272594 180 141 93
-0.891009 0.0558273 -0.337693 14 135 84
-0.891009 0.06106 -0.331625 14 135 85
0.793422 0.0477594 -0.215632 229 134 100
-0.891009 0.0538573 0.004076 14 134 128
0.793422 0.0529228 -0.222567 229 134 99
0.793422 0.0529228 -0.210531 229 134 101
-0.891009 0.06106 0.00564498 14 135 128
0.793422 0.0479424 0.004076 229 134 128
-0.891009 0.0584578 0.117999 14 135 143
-0.345807 0.0766506 -0.0121987 83 137 126
0.793422 0.050696 0.109861 229 134 142
-0.720125 0.00911635 0.32957 36 129 170
0.793422 0.0501027 0.215647 229 134 155
0.793422 0.0485757 0.223784 229 134 156
-0.720133 0.0203733 0.215647 36 130 155
-0.720125 0.0203678 0.215647 36 130 155
-0.0447248 0.0675371 0.101724 122 136 140
-0.720125 0.0203733 0.215639 36 130 155
0.793422 0.0579506 -0.353967 229 135 82
-0.720125 0.0203733 0.215651 36 130 155
-0.0447248 0.0691974 0.100087 122 136 140
0.630105 0.0773348 -0.0772975 208 137 118
0.793422 0.0551723 -0.337693 229 135 84
0.629716 0.0773348 -0.0691601 208 137 119
0.793422 0.06106 -0.331664 229 135 85
-0.722266 0.0285107 0.117999 35 131 143
-0.720125 0.0264159 0.117999 36 131 143
-0.89889 0.0691974 -0.101709 13 136 115
-0.720125 0.0285107 0.116114 36 131 142
-0.891009 0.0665797 -0.101709 14 136 115
-0.720125 0.0285107 0.121629 36 131 143
0.793422 0.0571843 -0.101709 229 135 115
-0.722728 0.0285107 0.215647 35 131 155
-0.720125 0.0285107 0.210646 36 131 154
-0.0447248 0.0683367 0.199372 122 136 153
-0.720125 0.0285107 0.216436 36 131 155
-0.0447248 0.0640608 0.20751 122 136 154
-0.891009 0.0664378 0.0122133 14 136 129
-0.725637 0.036648 0.117999 35 132 143
-0.720125 0.036648 0.112602 36 132 142
-0.720125 0.0328889 0.126136 36 132 144
-0.720125 0.0327311 0.134273 36 132 145
-0.996794 -0.00097755 0.353982 0 127 173
-0.720125 0.0334822 0.142411 36 132 146
-0.345807 0.0985211 -0.199358 83 140 102
-0.720125 0.0329026 0.150548 36 132 147
-0.720125 0.0336744 0.158686 36 132 148
0.069198 0.0105513 0.32957 136 129 170
-0.720125 0.0343295 0.166823 36 132 149
-0.720125 0.0345937 0.17496 36 132 150
0.793422 0.059953 0.313295 229 135 167
-0.345807 0.104891 -0.321418 83 141 87
-0.720125 0.0345032 0.183098 36 132 151
-0.720125 0.0346083 0.191235 36 132 152
0.174983 0.00928679 0.32957 150 129 170
-0.720125 0.0345118 0.199372 36 132 153
-0.0447248 0.0709559 0.0203506 122 137 130
-0.720125 0.0300705 0.20751 36 131 154
0.793422 0.0662289 0.0122133 229 136 129
-0.0447248 0.0715718 0.028488 122 137 131
0.0631343 0.0447854 -0.22377 136 133 99
-0.0447248 0.0718694 0.0366253 122 137 132
0.069198 0.0421457 -0.215632 136 133 100
0.629616 0.0936095 -0.183083 208 139 104
-0.0447248 0.0720538 0.0447627 122 137 133
0.069198 0.0447854 -0.221291 136 133 99
-0.0447248 0.0721489 0.0529001 122 137 134
0.793422 0.0689409 0.101724 229 136 140
0.069198 0.0447854 -0.210795 136 133 101
-0.0447248 0.0722469 0.0610374 122 137 135
-0.720125 0.0437168 -0.215632 36 133 100
0.629113 0.0936095 -0.174946 208 139 105
-0.0447248 0.0725209 0.0691747 122 137 136
-0.720125 0.0447854 -0.218541 36 133 100
-0.891009 0.0636385 0.305158 14 136 166
0.628928 0.0936095 -0.166808 208 139 106
-0.0447248 0.0725344 0.0773121 122 137 137
-0.720125 0.0447854 -0.213069 36 133 100
0.069198 0.041228 0.004076 136 133 128
-0.0447248 0.0728494 0.0854494 122 137 138
-0.720125 0.0442406 0.109861 36 133 142
0.069198 0.0447854 0.00583498 136 133 128
0.627935 0.0936095 -0.158671 208 139 107
0.069198 0.0382161 0.109861 136 132 142
-0.0447248 0.0724165 0.0935868 122 137 139
-0.0447248 0.0813335 -0.321418 122 138 87
0.069198 0.0400935 0.215647 136 133 155
0.174983 0.0424295 -0.215632 150 133 100
0.174983 0.0447854 -0.211627 150 133 101
0.174983 0.0430364 0.004076 150 133 128
0.793422 0.0663676 0.20751 229 136 154
-0.891009 0.0767781 -0.0121987 14 137 126
0.174983 0.0447854 0.0049963 150 133 128
0.174983 0.0393256 0.109861 150 133 142
0.6301 0.101747 -0.313281 208 140 88
0.174983 0.039313 0.215647 150 133 155
0.630072 0.101747 -0.305143 208 140 89
0.069198 0.0529228 3.351e-05 136 134 128
0.629339 0.101747 -0.297006 208 140 90
0.069198 0.0529228 0.0102524 136 134 129
0.628633 0.101747 -0.288868 208 140 91
0.627594 0.101747 -0.280731 208 140 92
-0.720125 0.0475512 0.004076 36 134 128
0.069198 0.0561148 -0.337693 136 135 84
0.069198 0.06106 -0.331445 136 135 85
0.174983 0.0506399 -0.101709 150 134 115
-0.891009 0.0936095 -0.203731 14 139 102
-0.0447248 0.0956742 -0.199358 122 140 102
0.069198 0.0540414 -0.101709 136 134 115
0.174983 0.0529228 -0.101076 150 134 115
0.069198 0.06106 -0.0998096 136 135 115
0.174983 0.0529228 0.00942196 150 134 129
-0.720125 0.0565193 -0.337693 36 135 84
0.174983 0.0505127 0.223784 150 134 156
-0.720125 0.06106 -0.332466 36 135 85
-0.720125 0.0544439 -0.101709 36 134 115
-0.891009 0.0977278 -0.199358 14 140 102
-0.720125 0.06106 0.007585 36 135 128
-0.891009 0.104095 -0.321418 14 141 87
0.174983 0.06106 -0.0984736 150 135 115
0.793422 0.101747 -0.324342 229 140 86
-0.15051 0.00961814 0.32957 108 129 170
0.419104 0.00879761 0.32957 181 129 170
-0.720125 0.06106 0.312863 36 135 167
-0.882871 -0.102141 0.264471 15 114 161
-0.890334 -0.101687 0.272608 14 115 162
0.793422 0.0969857 -0.199358 229 140 102
-0.720125 0.0654075 0.0122133 36 136 129
0.411624 0.036648 0.109861 180 132 142
-0.151971 0.0447854 -0.22377 108 133 99
0.417918 0.036648 0.223784 181 132 156
-0.15051 0.042331 -0.215632 108 133 100
0.419104 0.0347273 0.223784 181 132 156
-0.15051 0.0447854 -0.221617 108 133 99
0.419104 0.036648 0.217955 181 132 155
0.793422 0.10415 -0.321418 229 141 87
-0.888911 -0.101687 0.321432 14 115 168
-0.15051 0.0447854 -0.210494 108 133 101
-0.882871 -0.102968 0.313295 15 114 167
-0.882871 -0.101687 0.316263 15 115 168
-0.156572 0.0447854 -0.0935722 108 133 116
0.419104 0.0430635 -0.215632 181 133 100
-0.720125 0.0656632 0.101724 36 136 140
0.419104 0.0447854 -0.220964 181 133 99
0.419104 0.0447854 -0.210003 181 133 101
0.419104 0.0421544 0.109861 181 133 142
0.801559 -0.104555 -0.313281 230 114 88
0.801559 -0.101687 -0.316966 230 115 87
0.174983 0.0581402 0.313295 150 135 167
0.419104 0.0376622 0.215647 181 132 155
-0.720125 0.0660304 0.305158 36 136 166
-0.15051 0.0400095 0.004076 108 133 128
-0.15051 0.0447854 0.0020382 108 133 128
0.413502 0.0447854 0.223784 180 133 156
-0.15051 0.0447854 0.00532423 108 133 128
-0.15051 0.0427159 0.109861 108 133 142
-0.15051 0.0429074 0.215647 108 133 155
0.419104 0.0489037 -0.101709 181 134 115
0.419104 0.0529228 -0.102901 181 134 114
0.069198 0.0673301 0.199372 136 136 153
-0.720125 0.0803565 -0.0935722 36 138 116
0.419104 0.0463388 0.004076 181 133 128
-0.153323 0.0529228 -0.0935722 108 134 116
-0.996794 0.0203733 -0.0101321 0 130 126
0.419104 0.0529228 0.00651357 181 134 128
0.801559 -0.109058 0.272608 230 114 162
0.419104 0.0529228 0.113477 181 134 142
-0.15051 0.0529228 -0.00264342 108 134 127
-0.337669 0.00969412 0.32957 84 129 170
-0.720125 0.101747 -0.326236 36 140 86
0.801559 -0.0935495 -0.170326 230 116 106
0.801559 -0.0990518 -0.117984 230 115 112
-0.720125 0.0989062 -0.199358 36 140 102
-0.15051 0.0572048 -0.329555 108 135 85
-0.343212 0.0285107 0.109861 84 131 142
-0.156807 0.06106 -0.321418 108 135 87
0.174983 0.067576 0.199372 150 136 153
-0.342551 0.036648 0.0122133 84 132 129
0.069198 0.0772247 -0.0284734 136 137 124
0.069198 0.0773348 -0.0318936 136 137 123
0.069198 0.0766661 -0.020336 136 137 125
0.069198 0.0738897 -0.0121987 136 137 126
0.419104 0.0567334 -0.337693 181 135 84
0.417042 0.06106 -0.329555 181 135 85
0.419104 0.0585115 -0.329555 181 135 85
-0.720125 0.106079 -0.321418 36 141 87
0.419104 0.06106 -0.107419 181 135 114
-0.337669 0.0348401 0.109861 84 132 142
0.174983 0.076954 -0.0366107 150 137 123
0.174983 0.0773348 -0.0434564 150 137 122
-0.15051 0.0552702 -0.101709 108 135 115
0.419104 0.06106 0.00856126 181 135 129
0.174983 0.0765146 -0.0284734 150 137 124
0.174983 0.0758914 -0.020336 150 137 125
-0.15051 0.0599921 -0.0935722 108 135 116
0.174983 0.0733039 -0.0121987 150 137 126
0.638812 -0.00403872 0.366224 209 127 174
-0.337669 0.0424037 -0.215632 84 133 100
-0.996794 0.0285107 -0.125114 0 131 112
-0.337669 0.0447854 -0.219749 84 133 99
-0.337669 0.0447854 -0.211088 84 133 101
0.174983 0.078544 -0.0854348 150 138 117
0.069198 0.0794189 -0.0854348 136 138 117
-0.337669 0.0413573 0.004076 84 133 128
0.174983 0.0790153 -0.0772975 150 138 118
0.069198 0.0791162 -0.0772975 136 138 118
0.174983 0.0786576 -0.0691601 150 138 119
0.069198 0.0787576 -0.0691601 136 138 119
-0.33875 0.0447854 0.0122133 84 133 129
0.638812 0.00702013 0.32957 209 128 170
-0.337669 0.0447854 0.00857622 84 133 129
0.174983 0.0781868 -0.0610228 150 137 120
0.069198 0.0786508 -0.0610228 136 138 120
0.638812 0.0122359 0.323166 209 129 169
0.069198 0.0780915 -0.0528854 136 137 121
-0.882871 -0.0995232 0.321432 15 115 168
0.069198 0.0780783 -0.0447481 136 137 122
0.069198 0.0774528 -0.0366107 136 137 123
-0.882871 -0.0998159 0.345844 15 115 172
0.638812 0.0155096 0.321432 209 129 168
0.638812 0.0203733 0.317407 209 130 168
-0.0365874 0.0117451 0.32957 123 129 170
0.635835 0.0285107 0.109861 209 131 142
0.174983 0.0962652 -0.199358 150 140 102
0.638812 0.0245437 0.109861 209 131 142
0.638812 0.0285107 0.106928 209 131 141
-0.866597 0.0529228 -0.223114 17 134 99
0.638812 0.0284897 0.117999 209 131 143
0.638812 0.0285107 0.11803 209 131 143
0.634154 0.0285107 0.215647 208 131 155
-0.866597 0.0512038 0.004076 17 134 128
0.419104 0.0666941 0.0122133 181 136 129
0.638812 0.0206619 0.215647 209 130 155
0.801559 -0.0896136 -0.321418 230 116 87
0.638812 0.0285107 0.208815 209 131 154
0.419104 0.0691974 0.0171591 181 136 130
0.638812 0.0213764 0.223784 209 130 156
-0.0438678 0.0447854 -0.22377 122 133 99
-0.0365874 0.0423437 -0.215632 123 133 100
-0.0365874 0.0447854 -0.220315 123 133 99
0.638812 0.0271854 0.231922 209 131 157
-0.0365874 0.0447854 -0.211539 123 133 101
0.638812 0.0276511 0.240059 209 131 158
-0.0365874 0.0443015 0.004076 123 133 128
0.638812 0.0275623 0.248196 209 131 159
-0.866597 0.0570589 -0.337693 17 135 84
-0.0424266 0.0447854 0.109861 122 133 142
-0.866597 0.06106 -0.331258 17 135 85
0.638812 0.0273915 0.256334 209 131 160
0.419104 0.0665315 0.101724 181 136 140
-0.0365874 0.0408647 0.109861 123 133 142
-0.0365874 0.0447854 0.107905 123 133 141
0.419104 0.0691974 0.0993239 181 136 140
0.638812 0.027397 0.264471 209 131 161
0.793681 -0.0691374 -0.183083 229 119 104
-0.882871 -0.00403872 0.365353 15 127 174
-0.0365874 0.0404382 0.215647 123 133 155
0.801559 -0.0694601 -0.183083 230 119 104
0.638812 0.0271125 0.272608 209 131 162
0.069198 0.100374 -0.272594 136 140 93
0.801559 -0.0691374 -0.183356 230 119 104
-0.866597 0.06106 0.00619895 17 135 128
0.069198 0.101747 -0.279898 136 140 92
0.638812 0.027203 0.280746 209 131 163
0.069198 0.0989678 -0.264456 136 140 94
-0.866597 0.0576137 0.117999 17 135 143
0.069198 0.0985409 -0.256319 136 140 95
-0.337669 0.0465935 0.215647 84 133 155
-0.882871 0.00935582 0.32957 15 129 170
0.069198 0.0974143 -0.248182 136 140 96
0.638812 0.0275413 0.288883 209 131 164
0.419104 0.0678728 0.199372 181 136 153
0.638812 0.0275188 0.29702 209 131 165
0.069198 0.09568 -0.199358 136 140 102
0.801559 -0.0718585 -0.142396 230 118 109
0.638812 0.0274148 0.305158 209 131 166
-0.0365874 0.0508644 -0.101709 123 134 115
-0.996794 0.0447854 -0.360649 0 133 82
0.638812 0.0255644 0.313295 209 131 167
-0.337669 0.0563603 -0.337693 84 135 84
-0.337669 0.06106 -0.331659 84 135 85
0.069198 0.104539 -0.313281 136 141 88
-0.15051 0.0647349 0.0122133 108 136 129
-0.0365874 0.0529228 0.010135 123 134 129
0.069198 0.104301 -0.305143 136 141 89
0.633114 0.036648 0.004076 208 132 128
0.638812 0.031477 0.004076 209 132 128
-0.15051 0.0691974 0.020069 108 136 130
0.069198 0.10367 -0.297006 136 141 90
-0.0365874 0.0529228 0.114664 123 134 142
0.638812 0.036648 -0.00102979 209 132 127
0.069198 0.103053 -0.288868 136 141 91
-0.344795 0.06106 -0.101709 84 135 115
0.419104 0.0765204 -0.0935722 181 137 116
-0.337669 0.0592345 -0.101709 84 135 115
-0.882871 0.0444829 -0.215632 15 133 100
0.638812 0.0353712 0.0122133 209 132 129
-0.15051 0.0635606 0.101724 108 136 140
-0.882871 0.0447854 -0.216445 15 133 100
0.638812 0.036648 0.0151575 209 132 129
-0.15051 0.0691974 0.0960503 108 136 140
-0.337669 0.06106 -0.101998 84 135 114
-0.882871 0.0447854 -0.215088 15 133 100
-0.882871 0.03855 0.109861 15 132 142
0.638812 0.0353265 0.101724 209 132 140
0.638812 0.036648 0.0991889 209 132 140
-0.0365874 0.0559194 -0.337693 123 135 84
-0.882871 0.0385078 0.215647 15 132 155
0.638812 0.0349177 0.126136 209 132 144
-0.0365874 0.06106 -0.332085 123 135 85
-0.866597 0.067276 -0.101709 17 136 115
-0.866597 0.0691974 -0.10237 17 136 114
0.638812 0.0347848 0.134273 209 132 145
0.638812 0.0346803 0.142411 209 132 146
-0.866597 0.0659089 0.0122133 17 136 129
0.638812 0.034307 0.150548 209 132 147
-0.15051 0.0657501 0.20751 108 136 154
-0.882886 0.0529228 0.004076 15 134 128
0.801559 -0.00403872 0.367146 230 127 174
-0.0365874 0.06106 -0.0989639 123 135 115
-0.882871 0.0529198 0.004076 15 134 128
0.638812 0.034785 0.158686 209 132 148
0.801559 0.00344823 0.337707 230 128 171
0.638812 0.0339656 0.166823 209 132 149
0.801559 0.00409867 0.335762 230 128 170
0.419104 0.0718984 0.0773121 181 137 137
0.638812 0.0337266 0.17496 209 132 150
0.419104 0.072379 0.0854494 181 137 138
0.801559 0.00321194 0.362119 230 128 174
0.638812 0.0334585 0.183098 209 132 151
0.638812 0.0333205 0.191235 209 132 152
-0.988657 -0.0935495 0.153491 1 116 147
0.638812 0.0328354 0.199372 209 132 153
-0.882871 0.0563188 -0.337693 15 135 84
-0.882871 0.06106 -0.331577 15 135 85
0.638812 0.0302346 0.20751 209 131 154
-0.337669 0.0691974 -0.100644 84 136 115
-0.882871 0.06106 0.00609624 15 135 128
-0.866597 0.0687384 0.199372 17 136 153
-0.882871 0.0581468 0.117999 15 135 143
0.801559 0.048292 -0.215632 230 134 100
0.801559 0.0529228 -0.221794 230 134 99
-0.15051 0.0693026 0.0203506 108 136 130
0.801559 0.0529228 -0.210819 230 134 101
-0.711987 -0.100823 0.345844 37 115 172
-0.15051 0.0696299 0.028488 108 136 131
-0.337669 0.0654721 0.20751 84 136 154
0.801559 0.0480824 0.004076 230 134 128
-0.15051 0.0697589 0.0366253 108 136 132
-0.866597 0.0651676 0.305158 17 136 166
0.635546 0.0447854 -0.22377 209 133 99
-0.15051 0.0699658 0.0447627 108 136 133
-0.866597 0.0773348 -0.205139 17 137 101
0.638812 0.0436388 -0.22377 209 133 99
-0.15051 0.0701225 0.0529001 108 136 134
0.801559 0.0508985 0.109861 230 134 142
0.638812 0.0447854 -0.225633 209 133 99
-0.15051 0.0704362 0.0610374 108 136 135
-0.866597 0.0742142 -0.109847 17 137 113
-0.15051 0.0704324 0.0691747 108 136 136
0.631268 0.0447854 -0.207495 208 133 101
-0.15051 0.0709186 0.0773121 108 137 137
0.801559 0.050492 0.215647 230 134 155
0.638812 0.0414137 -0.207495 209 133 101
-0.15051 0.0710766 0.0854494 108 137 138
0.636707 0.0447854 -0.199358 209 133 102
-0.15051 0.070454 0.0935868 108 136 139
0.801559 0.0492965 0.223784 230 134 156
0.638812 0.042836 -0.199358 209 133 102
-0.866597 0.076673 -0.0121987 17 137 126
0.638812 0.0447854 -0.194288 209 133 103
-0.882871 0.0660121 -0.101709 15 136 115
0.634465 0.0447854 -0.101709 208 133 115
0.638812 0.0372772 -0.101709 209 132 115
0.638812 0.0447854 -0.107426 209 133 114
0.801559 0.0579928 -0.353967 230 135 82
-0.337669 0.0773348 -0.107177 84 137 114
0.638812 0.0442833 -0.0935722 209 133 116
0.801559 0.0556533 -0.337693 230 135 84
0.638812 0.0447854 -0.0927988 209 133 116
-0.882871 0.0660623 0.0122133 15 136 129
-0.866597 0.0854721 -0.20276 17 138 102
0.801559 0.06106 -0.331805 230 135 85
0.638812 0.0410586 -0.00406139 209 133 127
-0.866597 0.0793748 -0.0935722 17 138 116
0.638812 0.0447854 -0.0113172 209 133 126
0.801559 0.0574813 -0.101709 230 135 115
0.638812 0.0400716 0.0203506 209 133 130
0.638812 0.0407515 0.028488 209 133 131
0.638812 0.0408917 0.0366253 209 133 132
-0.337669 0.0750976 -0.0121987 84 137 126
0.638812 0.040921 0.0447627 209 133 133
0.638812 0.0405274 0.0529001 209 133 134
-0.711987 0.00903437 0.32957 37 129 170
0.638812 0.041145 0.0610374 209 133 135
-0.866597 0.092794 -0.126122 17 139 111
-0.866597 0.0936095 -0.131805 17 139 111
0.638812 0.0410003 0.0691747 209 133 136
0.638812 0.0410158 0.0773121 209 133 137
-0.720115 0.0203733 0.215647 36 130 155
0.638812 0.0409374 0.0854494 209 133 138
-0.866597 0.101105 -0.272594 17 140 93
-0.866597 0.101747 -0.276457 17 140 92
0.638812 0.0407886 0.0935868 209 133 139
0.801559 0.0597166 0.313295 230 135 167
-0.718469 0.0285107 0.117999 36 131 143
-0.866597 0.100408 -0.264456 17 140 94
-0.714773 0.0285107 0.215647 36 131 155
-0.0365874 0.0670447 0.199372 123 136 153
-0.866597 0.0990018 -0.256319 17 140 95
-0.337669 0.0920534 -0.117984 84 139 112
-0.866597 0.0981593 -0.248182 17 140 96
-0.882871 0.0640047 0.305158 15 136 166
-0.337669 0.0936095 -0.123636 84 139 112
-0.714401 0.036648 0.117999 36 132 143
-0.866597 0.0952484 -0.240044 17 140 97
-0.866597 0.0995833 -0.19122 17 140 103
0.801559 0.0665189 0.0122133 230 136 129
-0.866597 0.0992922 -0.183083 17 140 104
-0.337669 0.100747 -0.256319 84 140 95
-0.866597 0.0986998 -0.174946 17 140 105
-0.866597 0.0977981 -0.166808 17 140 106
-0.337669 0.101747 -0.263224 84 140 94
-0.866597 0.0967946 -0.158671 17 140 107
-0.337669 0.0995528 -0.248182 84 140 96
0.801559 0.0691656 0.101724 230 136 140
-0.866597 0.0958941 -0.150534 17 140 108
-0.337669 0.0972944 -0.240044 84 140 97
-0.337669 0.0965349 -0.199358 84 140 102
-0.866597 0.0947097 -0.142396 17 140 109
-0.882871 0.0766141 -0.0121987 15 137 126
-0.337669 0.101747 -0.191462 84 140 103
-0.866597 0.105927 -0.313281 17 141 88
0.183121 0.00932625 0.32957 151 129 170
-0.337669 0.10139 -0.183083 84 140 104
-0.866597 0.105635 -0.305143 17 141 89
-0.337669 0.101747 -0.18947 84 140 103
-0.711987 0.0299105 0.215647 37 131 155
-0.866597 0.105261 -0.297006 17 141 90
-0.337669 0.100614 -0.174946 84 140 105
-0.866597 0.103662 -0.288868 17 141 91
-0.337669 0.099597 -0.166808 84 140 106
-0.337669 0.0984311 -0.158671 84 140 107
-0.858459 -0.106888 -0.313281 18 114 88
-0.337669 0.0973894 -0.150534 84 140 108
-0.858459 -0.101687 -0.32013 18 115 87
-0.337669 0.0963635 -0.142396 84 140 109
-0.882871 0.0789969 -0.0935722 15 138 116
0.801559 0.0658215 0.20751 230 136 154
-0.711987 0.0436748 -0.215632 37 133 100
-0.337669 0.0952672 -0.134259 84 140 110
-0.98052 -0.0996894 -0.158671 2 115 107
0.638812 0.0529228 -0.230811 209 134 98
-0.711987 0.0447854 -0.218559 37 133 100
-0.986827 -0.0935495 -0.150534 2 116 108
-0.711987 0.0447854 -0.213018 37 133 100
0.179192 0.036648 0.109861 150 132 142
-0.98052 -0.0997446 -0.150534 2 115 108
-0.711987 0.0442358 0.109861 37 133 142
-0.337669 0.107498 -0.313281 84 141 88
0.183121 0.0299063 0.109861 151 131 142
-0.98683 -0.0935495 -0.142396 2 116 109
0.638812 0.0483277 -0.19122 209 134 103
0.183121 0.036648 0.106544 151 132 141
-0.98052 -0.0998718 -0.142396 2 115 109
-0.711987 0.0411497 0.117999 37 133 143
-0.337669 0.106238 -0.297006 84 141 90
-0.986906 -0.0935495 -0.134259 2 116 110
-0.337669 0.104963 -0.288868 84 141 91
0.638812 0.0521075 -0.183083 209 134 104
0.796319 0.0773348 -0.0935722 229 137 116
-0.98052 -0.0998675 -0.134259 2 115 110
-0.337669 0.103926 -0.280731 84 141 92
0.638812 0.0529228 -0.182398 209 134 104
-0.986963 -0.0935495 -0.126122 2 116 111
-0.0365874 0.0757138 -0.0121987 123 137 126
-0.337669 0.102885 -0.272594 84 141 93
0.801559 0.0766428 -0.0935722 230 137 116
-0.98052 -0.0997091 -0.126122 2 115 111
0.638812 0.0487602 -0.109847 209 134 113
-0.0365874 0.0773348 -0.0195481 123 137 125
-0.987096 -0.0935495 -0.117984 2 116 112
-0.337669 0.10192 -0.264456 84 140 94
0.638812 0.0529228 -0.115687 209 134 113
-0.0432186 0.0854721 -0.321418 122 138 87
-0.98052 -0.0999697 -0.117984 2 115 112
-0.987185 -0.0935495 -0.109847 2 116 113
-0.882871 0.0936095 -0.204302 15 139 101
0.183121 0.0424976 -0.215632 151 133 100
-0.98052 -0.0998444 -0.109847 2 115 113
0.638812 0.0502802 -0.0854348 209 134 117
0.183121 0.0447854 -0.211759 151 133 101
-0.987056 -0.0935495 -0.101709 2 116 115
0.183121 0.0446927 0.004076 151 133 128
-0.98052 -0.0999861 -0.101709 2 115 115
-0.858509 -0.101687 -0.174946 18 115 105
0.638812 0.0501694 -0.0772975 209 134 118
-0.987241 -0.0935495 -0.0935722 2 116 116
-0.98052 -0.0998755 -0.0935722 2 115 116
0.638812 0.0496433 -0.0691601 209 134 119
-0.882871 0.0915004 -0.117984 15 139 112
-0.987327 -0.0935495 -0.0854348 2 116 117
0.183121 0.0403396 0.0122133 151 133 129
0.183121 0.0447854 0.0181344 151 133 130
-0.98052 -0.100089 -0.0854348 2 115 117
0.638812 0.0490681 -0.0610228 209 134 120
-0.711987 0.0447854 0.219795 37 133 156
-0.98737 -0.0935495 -0.0772975 2 116 118
0.0773354 0.0102446 0.32957 137 129 170
0.183121 0.0447506 0.0935868 151 133 139
-0.98052 -0.0999395 -0.0772975 2 115 118
0.638812 0.0487885 -0.0528854 209 134 121
0.183121 0.0447854 0.0928096 151 133 139
-0.987423 -0.0935495 -0.0691601 2 116 119
-0.0365874 0.0805245 -0.0854348 123 138 117
-0.98052 -0.10022 -0.0691601 2 115 119
-0.0365874 0.0807646 -0.0772975 123 138 118
0.638812 0.048289 -0.0447481 209 134 122
0.183121 0.0400106 0.101724 151 133 140
-0.0365874 0.0803515 -0.0691601 123 138 119
-0.711987 0.047212 0.004076 37 134 128
-0.987402 -0.0935495 -0.0610228 2 116 120
-0.98052 -0.0999708 -0.0610228 2 115 120
0.638812 0.0477041 -0.0366107 209 134 123
-0.0365874 0.079734 -0.0610228 123 138 120
-0.987392 -0.0935495 -0.0528854 2 116 121
-0.0365874 0.0796188 -0.0528854 123 138 121
0.183121 0.0394658 0.215647 151 133 155
-0.882871 0.0987773 -0.199358 15 140 102
-0.98052 -0.0999388 -0.0528854 2 115 121
0.638812 0.0470558 -0.0284734 209 133 124
-0.0365874 0.0789682 -0.0447481 123 138 122
-0.987669 -0.0935495 -0.0447481 2 116 122
-0.0365874 0.0784993 -0.0366107 123 138 123
0.0769627 0.0285107 0.109861 137 131 142
-0.98052 -0.0998951 -0.0447481 2 115 122
0.638812 0.0464522 -0.020336 209 133 125
0.0773354 0.0280956 0.109861 137 131 142
-0.987495 -0.0935495 -0.0366107 2 116 123
-0.0365874 0.0779252 -0.0284734 123 137 124
0.0773354 0.0285107 0.109503 137 131 141
-0.0365874 0.0774467 -0.020336 123 137 125
-0.98052 -0.100158 -0.0366107 2 115 123
0.638812 0.0453825 -0.0121987 209 133 126
-0.987662 -0.0935495 -0.0284734 2 116 124
-0.98052 -0.100208 -0.0284734 2 115 124
-0.882871 0.105302 -0.321418 15 141 87
-0.987782 -0.0935495 -0.020336 2 116 125
0.0717385 0.036648 0.109861 137 132 142
-0.98052 -0.100188 -0.020336 2 115 125
0.0773354 0.036648 0.104738 137 132 141
-0.987688 -0.0935495 -0.0121987 2 116 126
-0.858459 -0.0975099 -0.321418 18 115 87
-0.98052 -0.100293 -0.0121987 2 115 126
-0.861629 -0.0935495 -0.166808 18 116 106
-0.987698 -0.0935495 -0.00406139 2 116 127
-0.858459 -0.0935495 -0.170625 18 116 106
-0.98052 -0.100317 -0.00406139 2 115 127
-0.862282 -0.0935495 -0.158671 18 116 107
-0.98793 -0.0935495 0.004076 2 116 128
-0.862148 -0.0935495 -0.150534 18 116 108
-0.98052 -0.100302 0.004076 2 115 128
-0.861755 -0.0935495 -0.142396 18 116 109
0.0773354 0.0424685 -0.215632 137 133 100
0.180822 0.0529228 -0.101709 151 134 115
-0.862363 -0.0935495 -0.134259 18 116 110
0.0773354 0.0447854 -0.220645 137 133 99
-0.987756 -0.0935495 0.0122133 2 116 129
-0.98052 -0.100483 0.0122133 2 115 129
-0.858459 -0.0948913 -0.126122 18 115 111
0.0773354 0.0447854 -0.211175 137 133 101
-0.98786 -0.0935495 0.0203506 2 116 130
-0.858459 -0.0935495 -0.12791 18 116 111
0.0773354 0.0421285 0.004076 137 133 128
-0.98052 -0.100284 0.0203506 2 115 130
-0.711987 0.0565219 -0.337693 37 135 84
-0.858459 -0.100102 -0.117984 18 115 112
0.183121 0.0465776 0.0203506 151 133 130
-0.988041 -0.0935495 0.028488 2 116 131
-0.711987 0.06106 -0.332422 37 135 85
-0.98052 -0.10046 0.028488 2 115 131
0.0773354 0.0389336 0.0122133 137 132 129
0.183121 0.0465938 0.028488 151 133 131
-0.988151 -0.0935495 0.0366253 2 116 132
-0.98052 -0.10032 0.0366253 2 115 132
0.0773354 0.0444579 0.0203506 137 133 130
-0.987969 -0.0935495 0.0447627 2 116 133
0.183121 0.0462639 0.0366253 151 133 132
-0.711987 0.0543603 -0.101709 37 134 115
-0.98052 -0.10029 0.0447627 2 115 133
0.0773354 0.0442997 0.028488 137 133 131
0.183121 0.0460096 0.0447627 151 133 133
-0.98798 -0.0935495 0.0529001 2 116 134
-0.98052 -0.100368 0.0529001 2 115 134
0.0773354 0.0440729 0.0366253 137 133 132
0.183121 0.0457021 0.0529001 151 133 134
-0.874734 -0.105913 0.313295 16 114 167
-0.711987 0.06106 0.00754083 37 135 128
-0.874734 -0.101687 0.316899 16 115 168
-0.98052 -0.100309 0.0610374 2 115 135
0.0773354 0.0438939 0.0447627 137 133 133
0.183121 0.0453865 0.0610374 151 133 135
-0.988026 -0.0935495 0.0691747 2 116 136
-0.98052 -0.100249 0.0691747 2 115 136
0.0773354 0.0435375 0.0529001 137 133 134
-0.988161 -0.0935495 0.0773121 2 116 137
0.183121 0.0451689 0.0691747 151 133 136
-0.98052 -0.100404 0.0773121 2 115 137
0.638812 0.0582633 -0.353967 209 135 82
0.0773354 0.0433061 0.0610374 137 133 135
0.183121 0.0450895 0.0773121 151 133 137
-0.988245 -0.0935495 0.0854494 1 116 138
-0.0365874 0.101542 -0.272594 123 140 93
-0.0365874 0.101747 -0.275261 123 140 92
-0.98052 -0.100339 0.0854494 2 115 138
-0.0365874 0.100317 -0.264456 123 140 94
0.0773354 0.0431756 0.0691747 137 133 136
0.183121 0.0451124 0.0854494 151 133 138
-0.988275 -0.0935495 0.0935868 1 116 139
-0.711987 0.0598282 0.240059 37 135 158
0.631676 0.06106 -0.329555 208 135 85
-0.98052 -0.100405 0.0935868 2 115 139
-0.711987 0.0608004 0.248196 37 135 159
0.638812 0.0552854 -0.329555 209 135 85
0.0773354 0.0429524 0.0773121 137 133 137
-0.988373 -0.0935495 0.101724 1 116 140
0.638812 0.06106 -0.322282 209 135 86
-0.874734 -0.100947 -0.313281 16 115 88
-0.98052 -0.10059 0.101724 2 115 140
-0.0365874 0.0963376 -0.199358 123 140 102
-0.711987 0.06106 0.249997 37 135 159
-0.988532 -0.0935495 0.109861 1 116 142
0.801559 0.104044 -0.321418 230 141 87
0.638812 0.0609332 -0.240044 209 135 97
0.0773354 0.0425907 0.0854494 137 133 138
-0.98052 -0.100616 0.109861 2 115 142
-0.874734 -0.100676 -0.288868 16 115 91
0.0773354 0.0422069 0.0935868 137 133 139
-0.874734 -0.101636 -0.280731 16 115 92
-0.988442 -0.0935495 0.117999 1 116 143
0.638812 0.06106 -0.240914 209 135 97
0.183121 0.0520111 0.223784 151 134 156
-0.98052 -0.10042 0.117999 2 115 143
0.638812 0.0547125 -0.231907 209 134 98
0.0773354 0.0384037 0.101724 137 132 140
-0.98845 -0.0935495 0.126136 1 116 144
-0.98052 -0.100683 0.126136 2 115 144
-0.0365874 0.105589 -0.313281 123 141 88
0.0773354 0.0403668 0.215647 137 133 155
-0.988527 -0.0935495 0.134273 1 116 145
-0.0365874 0.105287 -0.305143 123 141 89
-0.874734 -0.100918 -0.248182 16 115 96
-0.98052 -0.100519 0.134273 2 115 145
-0.0365874 0.10406 -0.297006 123 141 90
-0.874734 -0.101085 -0.240044 16 115 97
-0.988517 -0.0935495 0.142411 1 116 146
-0.0365874 0.103287 -0.288868 123 141 91
0.809696 -0.10481 -0.313281 231 114 88
0.638812 0.0564126 -0.174946 209 135 105
-0.98052 -0.100546 0.142411 2 115 146
-0.0365874 0.102072 -0.280731 123 141 92
-0.711987 0.0655998 0.0122133 37 136 129
-0.988591 -0.0935495 0.150548 1 116 147
0.638812 0.0582385 -0.166808 209 135 106
-0.98052 -0.100849 0.150548 2 115 147
-0.98052 -0.100438 0.158686 2 115 148
0.638812 0.05738 -0.158671 209 135 107
0.183121 0.0538629 -0.101709 151 134 115
-0.98052 -0.100591 0.166823 2 115 149
-0.874734 -0.100938 -0.183083 16 115 104
-0.98052 -0.10068 0.17496 2 115 150
0.638812 0.0566271 -0.150534 209 135 108
-0.98052 -0.10092 0.183098 2 115 151
-0.98052 -0.10067 0.191235 2 115 152
0.638812 0.0549087 -0.142396 209 135 109
-0.98052 -0.100975 0.199372 2 115 153
-0.98052 -0.10077 0.20751 2 115 154
0.638812 0.0552133 -0.134259 209 135 110
-0.98052 -0.100914 0.215647 2 115 155
-0.98052 -0.100991 0.223784 2 115 156
-0.711987 0.0658949 0.101724 37 136 140
0.638812 0.0550106 -0.126122 209 135 111
-0.98052 -0.100979 0.231922 2 115 157
-0.711987 0.0619217 0.256334 37 135 160
-0.98052 -0.100948 0.240059 2 115 158
-0.711987 0.0630545 0.264471 37 136 161
0.638812 0.0549146 -0.117984 209 135 112
-0.98052 -0.10089 0.248196 2 115 159
-0.711987 0.0644306 0.272608 37 136 162
-0.98052 -0.100963 0.256334 2 115 160
-0.711987 0.0646055 0.280746 37 136 163
-0.98052 -0.100809 0.264471 2 115 161
-0.711987 0.0657783 0.288883 37 136 164
-0.98052 -0.100967 0.272608 2 115 162
-0.858459 -0.0960857 0.321432 18 115 168
-0.711987 0.0668595 0.29702 37 136 165
-0.98052 -0.101099 0.280746 2 115 163
-0.858459 -0.0999903 0.345844 18 115 172
-0.711987 0.0659618 0.305158 37 136 166
-0.98052 -0.10126 0.288883 2 115 164
-0.858459 -0.0935495 0.351932 18 116 172
-0.98052 -0.101128 0.29702 2 115 165
-0.98052 -0.101421 0.305158 2 115 166
-0.98052 -0.101219 0.313295 2 115 167
-0.858459 -0.0854122 -0.17491 18 117 105
-0.98052 -0.101376 0.321432 2 115 168
-0.98052 -0.101313 0.32957 2 115 170
-0.711987 0.0703641 -0.00406139 37 136 127
0.0773354 0.0559727 -0.337693 137 135 84
-0.98052 -0.101235 0.337707 2 115 171
0.809696 -0.109156 0.272608 231 114 162
0.0773354 0.06106 -0.331848 137 135 85
-0.711987 0.0773348 -0.0104813 37 137 126
-0.98753 -0.0935495 0.345844 2 116 172
-0.858873 -0.0854122 -0.134259 18 117 110
-0.858459 -0.0854122 -0.133847 18 117 110
-0.98052 -0.0854122 -0.357495 2 117 82
0.0773354 0.0568715 -0.101709 137 135 115
-0.142373 0.0096695 0.32957 109 129 170
-0.858459 -0.0853747 -0.174946 18 117 105
-0.858459 -0.0772748 -0.179223 18 118 105
-0.711987 0.0829085 -0.0854348 37 138 117
-0.711987 0.0829677 -0.0772975 37 138 118
0.427241 0.0112567 0.321432 182 129 168
-0.711987 0.0823275 -0.0691601 37 138 119
0.427241 0.0122359 0.320447 182 129 168
-0.86072 -0.0772748 -0.150534 18 118 108
-0.711987 0.0820217 -0.0610228 37 138 120
0.427241 0.00674238 0.32957 182 128 170
0.809696 -0.0988 -0.34583 231 115 83
-0.711987 0.0815902 -0.0528854 37 138 121
-0.860717 -0.0772748 -0.142396 18 118 109
0.638812 0.0628569 -0.321418 209 136 87
-0.858459 -0.0848799 -0.134259 18 117 110
-0.711987 0.0810616 -0.0447481 37 138 122
0.809696 -0.100383 -0.337693 231 115 84
0.638812 0.0691974 -0.313899 209 136 87
-0.711987 0.0804268 -0.0366107 37 138 123
-0.858459 -0.0772748 -0.139972 18 118 110
0.638656 0.0691974 -0.305143 209 136 89
-0.711987 0.0801333 -0.0284734 37 138 124
0.638812 0.0689702 -0.305143 209 136 89
0.809696 -0.0935495 -0.170702 231 116 106
-0.711987 0.0795399 -0.020336 37 138 125
0.638812 0.0691974 -0.309316 209 136 88
0.426396 0.0203733 0.223784 182 130 156
0.809696 -0.0989102 -0.117984 231 115 112
0.427241 0.019357 0.223784 182 130 156
0.638812 0.0691974 -0.304936 209 136 89
-0.858459 -0.072304 -0.174946 18 118 105
-0.711987 0.0782835 -0.0121987 37 137 126
0.427241 0.0203733 0.222899 182 130 156
-0.858459 -0.0718091 -0.166808 18 118 106
0.637136 0.0691974 -0.256319 209 136 95
0.427241 0.0203733 0.226051 182 130 156
-0.142373 0.0423146 -0.215632 109 133 100
-0.858459 -0.0720948 -0.158671 18 118 107
0.638812 0.066765 -0.256319 209 136 95
0.638812 0.0691974 -0.259464 209 136 94
-0.142373 0.0447854 -0.219795 109 133 99
-0.858459 -0.0712269 -0.150534 18 118 108
0.427241 0.019587 0.313295 182 130 167
-0.98052 -0.0772748 -0.358287 2 118 82
-0.142373 0.0447854 -0.210689 109 133 101
-0.858459 -0.0741133 -0.142396 18 118 109
0.427241 0.0203733 0.309762 182 130 167
-0.142654 0.0447854 0.004076 109 133 128
0.638812 0.0632839 -0.248182 209 136 96
0.183121 0.0671556 0.199372 151 136 153
-0.142373 0.03676 0.109861 109 132 142
-0.142373 0.0447854 0.105946 109 133 141
0.422099 0.0285107 0.223784 181 131 156
0.427241 0.0285107 0.218937 182 131 155
-0.142373 0.0430676 0.215647 109 133 155
-0.98634 -0.0691374 -0.353967 2 119 82
-0.98052 -0.0691374 -0.358607 2 119 82
-0.988553 -0.0691374 -0.0854348 1 119 117
0.427241 0.0243468 0.231922 182 131 157
-0.711987 0.101747 -0.325577 37 140 86
0.427241 0.0244329 0.240059 182 131 158
0.427241 0.0239748 0.248196 182 131 159
0.427241 0.0236185 0.256334 182 131 160
-0.142373 0.0449224 0.004076 109 133 128
-0.98052 -0.0610001 -0.359059 2 120 82
-0.875038 -0.0935495 0.321432 16 116 168
-0.874734 -0.0935495 0.321106 16 116 168
0.427241 0.0232281 0.264471 182 130 161
-0.711987 0.0981931 -0.199358 37 140 102
-0.142373 0.0529228 0.0121407 109 134 129
-0.874734 -0.101614 0.32957 16 115 170
0.427241 0.0223798 0.272608 182 130 162
-0.874734 -0.0935495 0.321605 16 116 169
-0.874734 -0.0999267 0.345844 16 115 172
-0.329532 0.00956125 0.32957 85 129 170
0.427241 0.0220893 0.280746 182 130 163
0.427241 0.0216496 0.288883 182 130 164
-0.981238 -0.0610001 -0.0610228 2 120 120
-0.874734 -0.0924487 0.321432 16 116 168
-0.98052 -0.0610001 -0.063074 2 120 119
0.427241 0.0224315 0.29702 182 130 165
0.0773354 0.0667846 0.199372 137 136 153
-0.711987 0.105316 -0.321418 37 141 87
-0.858459 0.00919987 0.32957 18 129 170
0.427241 0.0216096 0.305158 182 130 166
-0.981766 -0.0528627 -0.109847 2 121 113
-0.142373 0.0561283 -0.337693 109 135 84
0.638812 0.0697116 -0.313281 209 136 88
-0.98052 -0.0528627 -0.109114 2 121 114
0.427241 0.036648 0.215991 182 132 155
-0.98052 -0.0592155 -0.0610228 2 120 120
-0.33563 0.036648 0.109861 85 132 142
-0.142373 0.06106 -0.331008 109 135 85
0.636683 0.0773348 -0.297006 209 137 90
0.638812 0.07528 -0.297006 209 137 90
0.638812 0.0773348 -0.291378 209 137 90
-0.988625 -0.0447254 -0.109847 1 122 113
-0.329532 0.0422191 -0.215632 85 133 100
-0.98052 -0.0447254 -0.104141 2 122 114
-0.329532 0.0447854 -0.220447 85 133 99
-0.142373 0.0554044 -0.101709 109 135 115
0.638812 0.0767593 -0.272594 209 137 93
-0.983011 -0.0447254 -0.0610228 2 122 120
0.638812 0.0773348 -0.274417 209 137 93
-0.329532 0.0447854 -0.210262 85 133 101
-0.98052 -0.046908 -0.0610228 2 122 120
-0.329532 0.0416666 0.004076 85 133 128
0.635339 0.0773348 -0.264456 209 137 94
0.638812 0.0727297 -0.264456 209 137 94
-0.142373 0.06106 -0.100151 109 135 115
-0.98052 -0.0447254 -0.0683338 2 122 119
0.183121 0.097218 -0.199358 151 140 102
-0.329532 0.0447854 0.00512693 85 133 128
-0.329532 0.0433451 0.109861 85 133 142
-0.858459 0.0447854 -0.222054 18 133 99
-0.98052 -0.0435089 -0.101709 2 122 115
-0.858459 0.0447854 -0.212816 18 133 100
-0.98052 -0.0437406 -0.0935722 2 122 116
-0.858459 0.0391346 0.109861 18 132 142
0.427241 0.0403181 -0.22377 182 133 99
0.809696 -0.0895406 -0.321418 231 116 87
0.427241 0.0447854 -0.230156 182 133 98
-0.858459 0.038781 0.215647 18 132 155
-0.98052 -0.0446582 -0.0691601 2 122 119
0.420988 0.0447854 -0.207495 181 133 101
0.0773354 0.0763726 -0.0121987 137 137 126
0.427241 0.0421081 -0.207495 182 133 101
0.427241 0.0447854 -0.199965 182 133 102
0.427241 0.042847 -0.109847 182 133 113
-0.858459 0.0452258 -0.22377 18 133 99
0.427241 0.0447854 -0.113712 182 133 113
-0.874734 0.00937514 0.32957 16 129 170
0.427241 0.0447854 -0.105057 182 133 114
-0.861705 0.0529228 -0.207495 18 134 101
-0.329532 0.0529228 0.00793602 85 134 129
0.427241 0.0423614 0.109861 182 133 142
-0.858459 0.0485469 -0.207495 18 134 101
-0.858459 0.0516061 0.004076 18 134 128
0.427241 0.037832 0.215647 182 132 155
-0.329532 0.0465499 0.215647 85 133 155
0.638812 0.0785194 -0.288868 209 138 91
0.809696 -0.0691374 -0.183927 231 119 104
-0.98052 -0.00403872 0.364889 2 127 174
0.638812 0.0794689 -0.280731 209 138 92
0.809696 -0.0719044 -0.142396 231 118 109
-0.541103 0.0447854 -0.211653 59 133 101
-0.329532 0.0561757 -0.337693 85 135 84
-0.874734 0.0446467 -0.215632 16 133 100
-0.329532 0.06106 -0.330158 85 135 85
-0.874734 0.0447854 -0.216016 16 133 100
-0.329532 0.06106 -0.205427 85 135 101
-0.874734 0.039002 0.109861 16 132 142
-0.862989 0.06106 -0.329555 17 135 85
-0.329532 0.0601198 -0.101709 85 135 115
-0.858459 0.0578212 -0.329555 18 135 85
-0.329532 0.06106 -0.101961 85 135 114
0.427241 0.0479316 -0.231907 182 134 98
0.427241 0.0529228 -0.239505 182 134 97
-0.874734 0.0385722 0.215647 16 132 155
0.427241 0.0456846 -0.199358 182 133 102
0.427241 0.0529228 -0.192015 182 134 103
-0.859435 0.06106 -0.109847 18 135 113
-0.858459 0.0593608 -0.109847 18 135 113
0.427241 0.0528622 -0.183083 182 134 104
0.427241 0.0529228 -0.183733 182 134 104
0.0773354 0.101408 -0.264456 137 140 94
-0.858459 0.06106 -0.105771 18 135 114
-0.874734 0.0517169 0.004076 16 134 128
0.427241 0.0514154 -0.174946 182 134 105
0.0773354 0.100491 -0.256319 137 140 95
-0.0284502 0.0118649 0.32957 124 129 170
-0.858459 0.06106 0.00646657 18 135 128
0.427241 0.0515078 -0.166808 182 134 106
-0.858459 0.0578964 0.117999 18 135 143
0.427241 0.0529228 -0.158886 182 134 107
0.0773354 0.0968246 -0.199358 137 140 102
0.809696 -0.00403872 0.367385 231 127 174
0.427241 0.0497771 -0.150534 182 134 108
0.427241 0.0529228 -0.158581 182 134 107
0.807406 0.00409867 0.337707 230 128 171
0.427241 0.0494083 -0.142396 182 134 109
0.809696 0.00400597 0.362119 231 128 174
-0.874734 0.0571133 -0.337693 16 135 84
-0.0318668 0.036648 0.109861 123 132 142
0.427241 0.0475256 -0.134259 182 134 110
0.0773354 0.105121 -0.321418 137 141 87
-0.874734 0.06106 -0.33178 16 135 85
-0.0284502 0.0291554 0.109861 124 131 142
0.0773354 0.107716 -0.313281 137 141 88
-0.0284502 0.036648 0.104448 124 132 141
0.427241 0.0477133 -0.126122 182 134 111
0.809696 0.00435828 0.337707 231 128 171
0.0773354 0.106785 -0.305143 137 141 89
-0.858459 0.06106 0.312475 18 135 167
0.427241 0.0477141 -0.117984 182 134 112
0.423391 0.0529228 -0.109847 181 134 113
-0.874734 0.06106 0.00619353 16 135 128
-0.0284502 0.0420202 -0.215632 124 133 100
0.427241 0.0483303 -0.101709 182 134 115
-0.0284502 0.0447854 -0.22073 124 133 99
-0.874734 0.05847 0.117999 16 135 143
-0.0284502 0.0447854 -0.21129 124 133 101
0.427241 0.046715 0.004076 182 133 128
-0.0318972 0.0447854 0.004076 123 133 128
-0.863791 0.0691974 -0.109847 17 136 113
-0.0317188 0.0447854 0.0122133 123 133 129
-0.0284502 0.0384455 0.0122133 124 132 129
-0.329532 0.0691974 -0.203266 85 136 102
-0.858459 0.0669657 -0.101709 18 136 115
0.427241 0.0529228 0.113617 182 134 142
-0.329532 0.0691974 -0.106723 85 136 114
-0.0284502 0.0447854 0.00441783 124 133 128
-0.329532 0.0691974 -0.100529 85 136 115
-0.0284502 0.0443206 0.0203506 124 133 130
0.809696 0.0471477 -0.215632 231 134 100
-0.0284502 0.0446531 0.028488 124 133 131
0.809696 0.0529228 -0.222786 231 134 99
-0.142373 0.0650415 0.20751 109 136 154
-0.858459 0.0661646 0.0122133 18 136 129
-0.329532 0.0682859 0.0203506 85 136 130
-0.0284502 0.0440362 0.0366253 124 133 132
0.427241 0.0539958 -0.329555 182 134 85
0.809696 0.0529228 -0.210735 231 134 101
0.809696 0.0479881 0.004076 231 134 128
0.425474 0.06106 -0.321418 182 135 87
-0.329532 0.0690571 0.028488 85 136 131
0.427241 0.0566795 -0.337693 182 135 84
-0.0284502 0.0435528 0.0447627 124 133 133
0.427241 0.0553966 -0.321418 182 135 87
-0.329532 0.0691974 0.032577 85 136 132
-0.0284502 0.0433408 0.0529001 124 133 134
