ply
format ascii 1.0
comment Created by Open3D
element vertex 1189
property double x
property double y
property double z
property uchar red
property uchar green
property uchar blue
end_header
-0.0642777 0.0736341 0.635909 119 137 209
-0.145283 0.180041 -0.649956 109 150 45
-0.0915046 0.128954 0.153617 116 144 147
-0.0317314 0.134814 0.895771 123 145 242
-0.0792077 0.183916 -0.967462 117 151 4
-0.019926 0.525581 -0.278293 125 195 92
-0.0698302 -0.0585019 -0.176177 119 120 105
-0.0162561 0.134512 -0.180296 125 145 105
0.0328946 -0.277753 -0.880592 132 92 15
-0.129398 0.155245 0.400627 111 147 179
0.0918116 0.39445 0.226033 139 178 156
0.120495 0.292467 0.684848 143 165 215
-0.0339714 0.0207962 -0.230335 123 130 98
-0.026573 0.0845191 0.469142 124 138 187
-0.144065 0.22618 -0.477787 109 156 67
0.00840829 0.0818655 0.303075 129 138 166
0.124892 0.41622 -0.259673 143 181 94
0.00849734 -0.120119 -0.808765 129 112 24
-0.0702643 -0.216489 -0.442048 119 100 71
0.0203789 0.113023 -0.306629 130 142 88
0.131353 0.263141 -0.133229 144 161 111
-0.123167 0.205437 -0.878501 112 154 15
0.105415 0.39088 0.0869245 141 177 139
-0.139539 0.211726 -0.326026 110 154 86
-0.148784 0.282718 0.399723 109 164 178
-0.132924 -0.00412742 -0.358438 111 127 82
0.119413 0.423107 -0.186427 143 181 104
0.132266 0.409268 -0.609577 144 180 50
-0.0435877 0.358428 -0.829482 122 173 22
0.084512 0.496061 0.0981235 138 191 140
-0.0156196 0.0872861 0.534218 126 139 196
0.0761861 0.457193 0.135694 137 186 145
0.123694 0.209883 -0.653038 143 154 44
0.112033 -0.562617 -0.5129 142 56 62
-0.005566 -0.190362 -0.844545 127 103 20
0.125879 0.263236 0.443159 144 161 184
0.117021 -0.464888 -0.512196 142 68 62
0.132397 0.448518 -0.5691 144 185 55
-0.0381762 -0.56127 -0.704474 123 56 38
-0.100025 0.465385 0.082206 115 187 138
0.00968814 0.46841 0.150992 129 187 147
-0.149667 -0.199954 -0.629974 108 102 47
0.144342 0.105274 -0.630437 146 141 47
-0.122751 -0.273999 -0.838701 112 93 21
0.124923 0.237919 -0.840396 143 158 20
-0.10315 0.419592 0.144285 114 181 146
-0.118356 0.495572 -0.477834 112 191 67
-0.106931 0.188328 -0.920159 114 152 10
-0.136624 0.275999 -0.0345029 110 163 123
-0.138738 0.177413 0.742627 110 150 222
0.119921 0.159427 -0.207721 143 148 101
-0.135996 0.275346 -0.711658 110 163 37
0.123215 0.392316 -0.145622 143 178 109
-0.150842 0.296448 0.90246 108 165 243
-0.0498555 0.514132 0.0218625 121 193 130
-0.130419 -0.556556 -0.492225 111 57 65
0.0926277 0.389024 0.339807 139 177 171
0.129892 -0.130223 -0.75635 144 111 31
0.128529 0.424893 -0.717459 144 182 36
-0.148725 -0.239075 -0.652068 109 97 44
0.00315965 0.481476 0.408548 128 189 180
0.0946867 0.376733 0.52097 140 176 194
-0.103204 0.411279 0.873725 114 180 239
0.0207776 0.113907 -0.0966813 130 142 115
-0.092651 0.110654 0.672434 116 142 213
0.0813366 0.417171 0.374931 138 181 175
-0.021187 -0.00475068 -0.20508 125 127 101
-0.10018 0.514098 -0.0541445 115 193 121
0.0723272 0.451018 0.857141 137 185 237
-0.00656695 0.490897 0.832968 127 190 234
0.128043 -0.522818 -0.493087 144 61 65
0.0678097 0.430896 0.773065 136 182 226
0.141664 -0.0391443 -0.685427 146 123 40
-0.124802 0.477347 -0.257793 112 188 95
0.0696303 0.436141 0.901637 136 183 242
0.0410184 -0.506665 -0.896579 133 63 13
-0.0929931 0.547749 -0.664784 116 197 43
0.0706587 0.104458 0.40831 137 141 180
0.0685925 0.111491 0.454985 136 142 186
-0.0936548 0.114046 0.360309 116 142 173
0.0259017 -0.0828245 -0.353205 131 117 82
-0.146385 0.297015 0.656916 109 165 211
0.0694078 0.30709 -0.836373 136 167 21
-0.034473 0.119818 -0.233973 123 143 98
0.0200405 -0.146897 -0.821629 130 109 23
0.116986 0.143882 -0.178324 142 146 105
-0.00190582 0.189319 -0.998035 127 152 0
-0.134806 0.42947 -0.300495 110 182 89
0.0441525 0.476309 0.67977 133 188 214
-0.0647016 -0.513695 -0.455773 119 62 69
-0.0368654 0.155507 -0.874552 123 147 16
0.0881536 -0.107687 -0.421235 139 114 74
-0.146472 0.29266 0.169765 109 165 149
0.13804 -0.481973 -0.669655 145 66 42
-0.0698639 -0.0740606 -0.168867 119 118 106
0.116379 0.422117 -0.0811022 142 181 117
-0.11557 0.455144 -0.159866 113 186 107
-0.14111 -0.507258 -0.510939 110 63 62
0.120289 -0.123667 -0.766719 143 112 30
-0.102829 -0.56069 -0.664223 114 56 43
-0.129972 -0.548252 -0.777769 111 58 28
0.0748942 0.166372 -0.889626 137 149 14
-0.0963033 0.448398 0.258918 115 185 161
0.143318 -0.303592 -0.654089 146 89 44
-0.0567069 0.22753 0.952246 120 157 249
-0.132803 0.345134 0.722237 111 172 220
-0.0777596 0.234941 -0.925041 118 157 10
0.123922 0.206201 0.0817461 143 154 138
-0.144022 0.214482 -0.274805 109 155 92
-0.14482 -0.227917 -0.58147 109 98 53
0.0652807 0.109864 0.673609 136 142 213
-0.00312237 -0.0899923 -0.151322 127 116 108
0.137158 0.234431 -0.803081 145 157 25
0.0836619 0.510452 0.0656115 138 193 136
-0.0324508 0.0861732 0.517499 123 138 193
-0.110144 -0.0514765 -0.753332 113 121 31
0.0793673 0.116876 0.685588 138 142 215
0.0705613 0.116656 0.342242 136 142 171
0.137416 -0.208311 -0.571913 145 101 55
0.122056 0.380082 0.0291949 143 176 131
-0.116284 0.134429 0.842213 113 145 235
0.0688295 0.127735 0.398205 136 144 178
-0.145157 0.414146 -0.691012 109 180 39
-0.141079 0.311383 0.332413 110 167 170
0.00895739 0.156995 -0.901022 129 148 13
-0.150493 0.251992 0.550024 108 160 198
-0.0723487 0.0936596 0.660467 118 139 212
-0.140369 0.0490562 -0.695178 110 134 39
-0.150363 0.259844 0.529824 108 161 195
-0.0693757 -0.0463854 -0.077962 119 122 118
-0.125374 0.44992 -0.717996 112 185 36
-0.0975964 0.198743 -0.959885 115 153 5
-0.0945324 0.111375 0.566187 115 142 200
-0.149451 0.0258553 -0.622602 108 131 48
0.0362456 0.362355 0.977524 132 174 252
0.0443497 -0.0435586 -0.115583 133 122 113
-0.143356 0.213259 -0.227597 109 155 98
-0.0967887 0.128395 0.139634 115 144 145
-0.0326647 -0.460823 -0.464284 123 69 68
0.106554 -0.210429 -0.822672 141 101 23
-0.102684 0.506598 -0.603796 114 192 51
-0.0349731 -0.315041 -0.894745 123 87 13
0.0562694 0.0956428 -0.777295 135 140 28
-0.101901 0.512078 -0.00442355 115 193 127
-0.108747 0.408804 0.598149 114 180 204
0.0323096 0.0815531 0.410016 132 138 180
-0.138166 0.194277 0.22145 110 152 156
0.122244 0.385102 0.00687361 143 177 128
0.130376 0.325455 -0.39967 144 169 77
0.0580825 0.518639 -0.251789 135 194 95
-0.138799 -0.498473 -0.790235 110 64 27
0.0758757 -0.101944 -0.408745 137 115 75
-0.145146 -0.0332849 -0.52135 109 123 61
0.131088 0.226399 -0.372076 144 156 80
-0.101534 0.510915 -0.409694 115 193 75
-0.0228775 0.160325 -0.916546 125 148 11
-0.0359719 0.527754 -0.418848 123 195 74
-0.0682246 0.507104 -0.560317 119 192 56
-0.132879 0.0040489 -0.380062 111 128 79
-0.141502 -0.24856 -0.555031 109 96 57
-0.133363 0.122754 0.0188427 110 143 130
0.112789 0.239451 0.94639 142 158 248
0.0880592 0.144416 0.844233 139 146 235
0.126024 0.240599 0.51383 144 158 193
-0.133586 0.335458 -0.101657 110 170 115
-0.129891 0.452867 -0.356955 111 185 82
-0.125571 0.0261954 -0.353112 111 131 82
-0.0779797 0.521497 -0.202957 118 194 102
0.0255712 0.0810903 0.347309 131 138 172
-0.00606606 0.459431 0.694494 127 186 216
0.0153725 0.521462 -0.0649958 129 194 119
-0.15234 0.197948 0.752075 108 153 223
0.131987 0.440346 -0.697153 144 184 39
0.100392 0.00342399 -0.320733 140 128 87
0.0751109 -0.474882 -0.900873 137 67 13
-0.0079091 0.341108 0.930466 126 171 246
-0.152613 0.290485 0.944401 108 165 248
0.114903 0.480505 -0.672666 142 189 42
0.0683063 0.116014 0.322634 136 142 169
-0.0590651 0.03213 -0.0677736 120 132 119
0.109341 0.32844 0.794321 141 169 229
0.030516 0.458677 -0.872548 131 186 16
0.00908994 -0.0460047 -0.778459 129 122 28
0.127409 -0.0682578 -0.471755 144 119 67
-0.134047 0.327004 -0.754385 110 169 31
-0.0870107 0.485319 -0.737108 116 189 34
0.132002 0.289777 -0.180327 144 164 105
-0.0198248 -0.331112 -0.901021 125 85 13
0.103825 0.342393 0.788121 141 171 228
0.109648 0.335521 0.488289 141 170 190
-0.0850788 0.541153 -0.617402 117 196 49
-0.110219 0.157143 0.842258 113 148 235
0.0993041 0.507313 -0.380382 140 192 79
-0.120923 -0.0165595 -0.733053 112 125 34
-0.153925 0.38042 -0.533792 108 176 59
0.106993 0.0864741 -0.0653243 141 139 119
0.0386452 0.0957839 0.331492 132 140 170
0.0775395 -0.0412364 -0.764054 137 122 30
0.0541703 -0.065413 -0.0278689 134 119 124
0.00886463 0.398164 0.962003 129 178 250
-0.083473 0.464318 0.469459 117 187 187
0.147858 -0.375105 -0.712909 146 80 37
0.0475341 0.0749436 -0.0697351 134 137 119
-0.135627 0.368008 -0.719488 110 174 36
0.0640544 -0.446808 -0.478683 136 71 66
0.0671996 0.448116 0.789636 136 185 228
0.127378 0.392667 -0.30036 144 178 89
-0.0157166 0.4859 0.280014 125 189 163
-0.0878653 0.472494 0.666956 116 188 213
-0.111913 0.504444 -0.299489 113 192 89
-0.0890152 0.0948358 0.41636 116 140 181
-0.0289044 0.0823795 0.405452 124 138 179
0.0606249 -0.251254 -0.863919 135 95 17
-0.135562 0.426839 -0.278923 110 182 92
-0.139571 -0.0649606 -0.721926 110 119 35
-0.149519 0.221498 0.432842 108 156 183
-0.0679695 0.021262 -0.0215119 119 130 125
0.0010111 0.483993 0.128296 128 189 144
0.131621 0.136812 -0.32123 144 145 87
-0.0772449 -0.0865023 -0.782619 118 116 28
0.129617 0.352523 -0.314566 144 172 87
-0.139705 0.393439 -0.700578 110 178 38
-0.0467927 0.233974 -0.940354 122 157 8
-0.149195 0.263002 0.406792 108 161 179
-0.150148 -0.216893 -0.737083 108 100 34
-0.138321 0.273115 -0.632775 110 162 47
-0.150592 0.298048 0.728572 108 166 220
0.0527294 -0.564406 -0.506478 134 56 63
0.040876 0.416413 -0.807328 133 181 25
-0.129609 -0.557246 -0.592964 111 56 52
0.113544 0.485371 -0.53277 142 189 60
-0.149569 0.282267 0.501338 108 163 191
-0.125201 0.146073 0.478174 112 146 188
0.146261 0.137581 -0.578731 146 145 54
-0.0654994 -0.556195 -0.786457 119 57 27
-0.148108 0.231449 0.244668 109 157 159
0.0659526 0.46087 0.957442 136 186 250
-0.100683 0.426171 0.222844 115 182 156
0.0934713 0.22747 -0.9419 139 157 7
0.035319 0.0902621 0.727879 132 139 220
0.0695999 0.520011 -0.470414 136 194 68
-0.017623 0.135295 -0.252681 125 145 95
-0.149864 -0.209223 -0.63769 108 101 46
-0.0193157 0.467432 0.980817 125 187 253
-0.145285 0.262699 -0.345633 109 161 83
0.147937 -0.295339 -0.766372 146 90 30
0.111318 0.494477 -0.540615 142 191 59
-0.138613 0.413667 -0.246025 110 180 96
0.11779 0.46846 -0.628688 143 187 47
-0.133483 0.165055 0.236762 110 149 158
0.00313029 0.472408 0.556358 128 188 198
0.119783 0.191465 0.712703 143 152 218
-0.150259 -0.024166 -0.614188 108 124 49
0.00160013 -0.0875176 -0.265038 128 116 94
-0.013006 0.132767 -0.156497 126 144 108
0.129181 0.295328 -0.635882 144 165 46
0.119961 -0.0188178 -0.322181 143 125 86
0.144054 -0.150492 -0.664541 146 108 43
-0.149351 0.270894 0.424323 108 162 182
-0.131024 -0.350372 -0.56997 111 83 55
0.142988 0.167274 -0.443351 146 149 71
0.123333 0.130382 -0.341062 143 144 84
-0.014121 0.477632 0.981637 126 188 253
-0.128409 -0.446529 -0.540595 111 71 59
-0.116111 -0.0379137 -0.30883 113 123 88
-0.145936 0.312504 -0.172686 109 167 105
-0.0101033 -0.0849489 -0.0151749 126 117 126
-0.132326 0.340174 0.28384 111 171 164
0.0195164 -0.161623 -0.419711 130 107 74
-0.13942 -0.508428 -0.688626 110 63 40
0.137299 -0.396317 -0.584749 145 77 53
0.0717969 0.506558 -0.560985 137 192 56
0.0797917 0.415472 0.535112 138 180 196
-0.122253 0.475927 -0.520167 112 188 61
0.138474 0.170437 -0.390513 145 149 78
0.136831 -0.280386 -0.814633 145 92 24
0.0683703 0.519617 -0.432248 136 194 72
0.12382 0.206049 0.694635 143 154 216
-0.106173 0.0793911 -0.0272488 114 138 124
0.0228025 0.503658 0.112206 130 192 142
0.0161376 0.0670139 -0.00172161 130 136 127
-0.131823 0.33679 0.0188923 111 170 130
0.068266 0.113721 0.835037 136 142 234
0.0177338 0.527381 -0.371623 130 195 80
0.0697771 0.418534 0.923882 136 181 245
0.0197583 0.0958017 0.523316 130 140 194
0.128924 0.225935 0.0327912 144 156 132
-0.024553 0.488066 0.187792 124 190 151
-0.141406 0.396944 -0.246357 109 178 96
-0.127885 0.433364 -0.107716 111 183 114
0.131419 0.407539 -0.771985 144 179 29
0.0434345 0.486684 -0.735643 133 190 34
0.0143267 0.561846 -0.690498 129 199 39
-0.15163 0.263706 0.664817 108 161 212
0.0546895 0.0507519 -0.0585956 134 134 120
-0.0577857 0.50055 -0.722001 120 191 35
-0.0164754 0.492117 0.112568 125 190 142
-0.147416 0.224513 0.155303 109 156 147
-0.0418746 -0.56041 -0.747499 122 56 32
-0.13829 0.389775 0.0300782 110 177 131
-0.134518 0.345201 0.00675577 110 172 128
-0.101292 0.0785015 -0.0451932 115 138 122
-0.03463 -0.0138993 -0.219213 123 126 100
-0.00606851 -0.0856873 -0.291495 127 117 90
-0.104676 0.409302 0.762002 114 180 225
0.0548188 -0.0845552 -0.786438 134 117 27
0.0180966 0.474517 0.133697 130 188 145
0.155034 0.148682 -0.501546 147 146 64
-0.0457479 -0.0776427 -0.333138 122 118 85
0.00131663 0.477569 -0.747536 128 188 32
0.126284 0.252238 0.823324 144 160 232
0.0112011 -0.00359854 -0.261385 129 127 94
0.0238115 0.0464482 -0.230967 131 133 98
-0.123026 0.127473 0.076496 112 144 137
-0.151112 -0.237308 -0.720913 108 97 36
-0.0933 0.0941491 0.669831 116 140 213
0.0764741 0.170016 -0.916157 137 149 11
-0.0421766 0.0194582 -0.0130944 122 130 126
-0.145702 -0.0526508 -0.530294 109 121 60
-0.111834 -0.316638 -0.865092 113 87 17
0.111804 0.181283 0.748295 142 151 223
0.072542 0.129452 -0.255248 137 144 95
-0.0487348 -0.561591 -0.675034 121 56 41
-0.0834066 0.326848 -0.831537 117 169 21
0.129197 0.297253 -0.669839 144 165 42
0.13535 0.252196 -0.828556 145 160 22
-0.131508 0.176021 -0.524242 111 150 61
-0.117848 0.382744 0.901795 112 176 242
-0.109031 0.461644 0.0120584 114 186 129
-0.11084 -0.0107527 -0.31175 113 126 88
-0.149123 -0.280478 -0.691895 108 92 39
0.10028 0.506529 -0.614953 140 192 49
-0.0948191 0.471487 0.245576 115 188 159
0.125771 0.205787 0.174571 144 154 150
-0.0897927 0.0722934 -0.757364 116 137 31
-0.0332501 0.514697 -0.695697 123 193 39
-0.130833 -0.529172 -0.825386 111 60 22
-0.152259 -0.443893 -0.819331 108 71 23
-0.0517833 0.228009 -0.959358 121 157 5
-0.133992 0.336025 -0.584216 110 170 53
0.0167787 0.376858 0.935847 130 176 247
0.0464808 0.466775 0.143815 133 187 146
0.0739768 -0.376796 -0.480709 137 79 66
0.124554 0.105634 -0.690393 143 141 39
0.107133 -0.147335 -0.791208 141 109 27
0.0297132 0.529908 -0.605432 131 195 50
0.108226 0.141163 0.0764808 141 145 137
-0.148476 0.287852 0.422651 109 164 181
0.0102102 0.48286 0.328702 129 189 169
0.0697689 0.521715 -0.120993 136 194 112
0.019896 -0.221616 -0.431621 130 99 72
-0.128107 0.450631 -0.191043 111 185 103
-0.143568 -0.256531 -0.575088 109 95 54
-0.0381461 -0.135423 -0.814193 123 110 24
-0.0223032 0.514965 -0.0115671 125 193 126
-0.031917 0.409649 0.976703 123 180 252
-0.024374 0.0698495 0.704788 124 136 217
0.119668 0.302442 0.483082 143 166 189
-0.138006 0.337819 -0.551196 110 171 57
-0.143021 -0.276913 -0.575868 109 92 54
-0.148367 -0.445693 -0.621309 109 71 48
0.0643814 0.244359 0.958087 136 159 250
-0.0146531 0.0293051 -0.274958 126 131 92
0.146775 0.367878 -0.550793 146 174 57
0.113018 0.177692 0.459447 142 150 186
-0.139313 0.377132 -0.0274837 110 176 124
0.133243 0.269172 -0.472866 144 162 67
-0.0946929 -0.0645401 -0.767249 115 119 30
-0.0993838 0.457204 0.328104 115 186 169
0.124736 0.298026 0.258556 143 165 160
-0.073207 0.0453275 -0.0423918 118 133 122
-0.14666 0.30923 0.781487 109 167 227
-0.028559 0.528191 -0.482991 124 195 66
0.127817 0.23815 0.198725 144 158 153
0.0574839 0.11405 0.0381975 135 142 132
0.0830835 0.506556 -0.710038 138 192 37
-0.0430024 0.496366 0.867594 122 191 238
-0.0195808 0.470023 0.148573 125 187 146
-0.0201903 0.468956 0.632106 125 187 208
0.0391537 0.0309343 -0.0122889 132 131 126
0.0248938 -0.565982 -0.467687 131 55 68
0.121303 0.393604 0.0196338 143 178 130
0.120782 0.175274 -0.269318 143 150 93
0.128849 0.226059 -0.771935 144 156 29
0.128266 0.244247 0.148631 144 159 146
0.117915 -0.114847 -0.460035 143 113 69
0.131501 0.342432 -0.284037 144 171 91
-0.0458064 -0.0406839 -0.188801 122 122 103
0.146543 0.191267 -0.556781 146 152 57
-0.135414 0.354714 0.0821807 110 173 138
0.0820894 0.174014 -0.934333 138 150 8
0.121419 0.116277 -0.3617 143 142 81
-0.147778 -0.252855 -0.643445 109 95 45
-0.0321159 0.0969041 0.523617 123 140 194
0.120861 0.193372 0.836631 143 152 234
0.0410154 0.521199 -0.21083 133 194 101
0.0959085 -0.36985 -0.491833 140 80 65
-0.0146418 0.0938168 -0.783944 126 139 28
-0.0290218 -0.560829 -0.729314 124 56 35
-0.137298 0.199581 -0.140369 110 153 110
-0.101924 0.492659 0.0548019 115 190 134
-0.0818058 0.392768 -0.813625 117 178 24
0.127257 0.316324 -0.313632 144 168 88
-0.148569 -0.272614 -0.784316 109 93 27
0.120452 0.00379212 -0.406176 143 128 76
0.0701471 -0.0645307 -0.302769 136 119 89
0.128454 0.240432 0.118987 144 158 143
-0.110901 0.49172 -0.627562 113 190 47
0.133169 0.428842 -0.698128 144 182 38
-0.0929797 -0.561749 -0.620072 116 56 48
0.104374 0.500138 -0.222464 141 191 99
0.117703 0.176392 -0.0584158 143 150 120
-0.00919016 -0.0265036 -0.240865 126 124 97
0.0767697 -0.53368 -0.821026 137 59 23
-0.0259039 0.090721 0.587979 124 139 202
0.0159572 -0.0542251 -0.780939 130 121 28
0.0751316 0.460472 0.44427 137 186 184
-0.136711 0.444704 -0.612206 110 184 49
-0.0471492 -0.539217 -0.810844 121 59 24
-0.147874 0.277256 -0.240567 109 163 97
0.0689627 0.105111 0.638668 136 141 209
0.103837 0.502877 -0.328425 141 192 86
0.119001 0.45276 -0.350365 143 185 83
-0.131274 0.153458 -0.540381 111 147 59
-0.140198 0.12698 -0.442829 110 144 71
-0.147471 0.244547 -0.40301 109 159 76
0.0940643 -0.275185 -0.860063 139 92 18
0.0264392 0.0873282 0.656767 131 139 211
0.0196356 0.224942 -0.973138 130 156 3
-0.0296986 0.481375 0.571225 124 189 200
0.0516398 0.144111 0.867296 134 146 238
0.105081 0.13363 -0.154906 141 145 108
0.137131 -0.0311574 -0.530459 145 124 60
-0.105884 0.193952 -0.940518 114 152 8
-0.0596245 0.481586 0.510065 120 189 193
0.133414 0.25875 -0.390305 145 160 78
-0.0863825 0.173974 -0.913053 116 150 11
-0.137531 0.347919 -0.792829 110 172 26
-0.116354 -0.130918 -0.779461 113 111 28
0.124441 0.202333 0.1965 143 153 153
-0.137253 0.19101 0.31064 110 152 167
0.13408 0.278267 -0.499306 145 163 64
0.123406 0.385646 -0.127333 143 177 111
-0.0912693 0.467983 0.80223 116 187 230
-0.0959612 0.455005 0.219757 115 186 156
-0.135513 0.196196 -0.273841 110 153 93
0.10738 -0.271522 -0.848998 141 93 19
-0.0711065 0.479735 0.844822 118 189 235
-0.103373 0.366661 0.984627 114 174 253
0.130348 0.262627 -0.718215 144 161 36
0.0561872 0.088519 0.150062 135 139 147
-0.0417203 -0.298068 -0.450004 122 89 70
0.0929304 0.415195 0.0980015 139 180 140
-0.150439 -0.237725 -0.670902 108 97 42
-0.145832 0.0745862 -0.679159 109 137 41
-0.0459316 -0.0217621 -0.00921639 122 125 126
-0.0492793 -0.0852476 -0.28811 121 117 91
0.0802733 0.0577099 -0.333728 138 135 85
0.130225 0.393186 -0.465903 144 178 68
0.129786 0.279286 -0.487388 144 163 65
-0.0951239 0.491371 -0.106339 115 190 114
-0.148408 0.0660366 -0.581895 109 136 53
-0.142133 0.305614 -0.470159 109 166 68
-0.0882617 0.179534 -0.943042 116 150 7
0.128648 0.28073 0.109538 144 163 141
0.0953379 -0.563312 -0.514423 140 56 62
0.086475 0.394136 0.607721 139 178 205
0.137892 -0.0194019 -0.531277 145 125 60
0.0911397 0.436166 0.0771844 139 183 137
0.134515 -0.505977 -0.525988 145 63 60
-0.13529 0.453923 -0.666505 110 185 43
-0.016 0.5287 -0.402911 125 195 76
0.11741 0.0829207 -0.36391 142 138 81
0.0852494 0.113432 0.821979 138 142 232
0.141675 -0.253911 -0.630592 146 95 47
0.128771 -0.532701 -0.761359 144 60 30
-0.135397 -0.171189 -0.493404 110 106 65
0.142765 0.0916925 -0.493239 146 139 65
0.0700672 0.0765752 -0.00410158 136 137 127
-0.0649236 -0.0488665 -0.0313119 119 121 124
-0.048856 -0.0870489 -0.221155 121 116 99
-0.104169 0.416999 0.711211 114 181 218
0.123777 0.266318 0.699958 143 161 217
-0.12668 -0.426886 -0.871387 111 73 16
-0.147532 0.268161 -0.0818068 109 162 117
0.00347875 -0.134217 -0.815727 128 110 23
0.0241603 0.527566 -0.407011 131 195 76
0.128317 0.34368 -0.701454 144 171 38
0.110709 0.18002 0.820333 142 150 232
0.116932 0.154055 -0.0118168 142 147 126
-0.134802 0.0812642 -0.436093 110 138 72
0.121898 0.196563 0.50825 143 153 192
0.134211 0.235773 -0.479571 145 158 66
0.110364 0.156695 0.517848 142 147 194
-0.146639 0.299542 -0.144884 109 166 109
0.0780661 0.406677 0.739032 137 179 222
-0.0527561 -0.0790966 -0.342211 121 117 84
-0.0244532 0.466597 0.306295 124 187 167
0.0818821 0.477023 -0.144154 138 188 109
0.133206 -0.529341 -0.619451 144 60 49
-0.0977303 0.0235909 -0.74716 115 131 32
0.100866 0.364155 0.440824 140 174 184
-0.0457322 0.0808992 0.443842 122 138 184
0.109793 0.156301 0.392286 141 147 178
0.0779972 0.423299 0.451985 137 181 185
-0.0818414 0.525788 -0.694702 117 195 39
0.0872779 0.125529 0.158805 139 144 148
-0.142444 -0.17272 -0.51947 109 105 61
0.040981 -0.0893078 -0.165067 133 116 106
0.122846 -0.501622 -0.859851 143 64 18
0.102937 -0.502629 -0.881558 141 63 15
0.14695 -0.267322 -0.776111 146 93 29
0.127498 0.2652 0.73799 144 161 222
-0.118439 -0.560427 -0.64287 112 56 46
0.063007 0.455455 0.712369 136 186 218
-0.147305 0.255615 -0.283237 109 160 91
0.120623 0.195841 -0.263375 143 152 94
-0.135069 0.138338 -0.395659 110 145 77
-0.0542459 -0.0927241 -0.791137 121 116 27
-0.127025 -0.296068 -0.507434 111 90 63
0.124453 0.27242 0.618292 143 162 206
-0.149714 -0.384779 -0.686697 108 78 40
-0.0748299 -0.547343 -0.791629 118 58 27
0.0772618 0.473681 0.0834683 137 188 138
-0.0345405 0.0622064 -0.239597 123 135 97
-0.0943633 0.0935722 0.64876 115 139 210
0.0179438 0.0560577 -0.227756 130 135 98
0.0105118 0.0489426 -0.292513 129 134 90
0.109729 -0.347144 -0.872224 141 83 16
-0.0120044 -0.563882 -0.563919 126 56 56
-0.148887 -0.121396 -0.601506 109 112 51
-0.12884 0.172807 0.874186 111 150 239
0.0126365 -0.483013 -0.909386 129 66 12
0.130881 0.337697 -0.745943 144 171 32
-0.138963 -0.513381 -0.765548 110 62 30
-0.146046 0.262767 -0.436653 109 161 72
-0.0852721 -0.0126685 -0.306223 117 126 88
0.112112 0.178598 0.613962 142 150 206
-0.106779 0.409552 0.157776 114 180 148
-0.141501 0.331534 -0.17716 109 170 105
-0.128865 0.456506 -0.312254 111 186 88
-0.132047 0.336367 0.0447911 111 170 133
0.0262256 0.121501 0.843235 131 143 235
0.118623 0.0578735 -0.370297 143 135 80
0.133482 0.307201 -0.411443 145 167 75
0.129651 0.317348 -0.815744 144 168 23
0.098806 0.357769 0.686263 140 173 215
0.136237 -0.504844 -0.704502 145 63 38
0.134938 0.456273 -0.52698 145 186 60
0.0631421 0.149868 0.897374 136 147 242
-0.0100714 -0.560994 -0.835946 126 56 21
-0.137896 0.332294 0.766517 110 170 225
0.131396 0.264076 -0.67596 144 161 41
0.0626074 0.0963968 0.403994 135 140 179
-0.126588 0.134577 0.762283 111 145 225
0.124946 0.188169 -0.354413 143 151 82
-0.00561864 0.175765 -0.985228 127 150 2
-0.0194216 0.527207 -0.346437 125 195 83
0.0775249 0.435988 0.14511 137 183 146
0.110661 0.161709 0.7036 142 148 217
0.00963012 -0.0811272 -0.330293 129 117 85
-0.029206 0.529536 -0.459485 124 195 69
-0.144239 -0.248713 -0.584711 109 96 53
-0.0144482 0.307185 0.974798 126 167 252
0.0851519 0.119983 0.438298 138 143 183
0.0983621 0.495088 -0.659841 140 191 43
-0.121669 0.375102 0.592942 112 175 203
-0.00377238 -0.219143 -0.429899 127 100 73
-0.0527672 0.131028 -0.266767 121 144 93
-0.122002 -0.0919411 -0.428094 112 116 73
-0.0905898 0.118732 0.472128 116 143 188
0.103786 0.362131 0.286628 141 174 164
-0.140307 -0.35717 -0.544745 110 82 58
-0.134261 0.329879 0.337488 110 170 171
-0.0663712 -0.536471 -0.795896 119 59 26
-0.129814 0.344108 -0.517819 111 171 61
0.00946826 0.480681 0.239782 129 189 158
0.0217123 -0.565616 -0.479941 130 55 66
0.0501158 0.0649343 -0.333308 134 136 85
-0.139596 0.206785 -0.125317 110 154 112
-0.0334276 0.454327 -0.832804 123 185 21
-0.105792 0.415632 0.313032 114 180 167
0.139177 -0.26651 -0.803491 145 94 25
-0.136176 0.222017 -0.603702 110 156 51
0.122718 0.364699 -0.141814 143 174 109
0.119026 0.277803 0.958213 143 163 250
0.0701139 0.1413 -0.815453 136 146 24
0.0222853 -0.561848 -0.692527 130 56 39
-0.132852 0.438298 -0.322827 111 183 86
0.124079 0.203142 -0.757867 143 153 31
-0.131819 0.46092 -0.64192 111 186 46
0.138761 -0.416621 -0.594226 145 74 52
0.129425 0.279861 0.0461088 144 163 133
0.144265 -0.165178 -0.725507 146 106 35
-0.141883 0.0976173 -0.680421 109 140 41
0.103515 0.212077 -0.95288 141 155 6
0.00163851 -0.498666 -0.449859 128 64 70
0.00627105 -0.429319 -0.469207 128 73 68
0.0407343 0.109988 -0.091165 133 142 116
0.0568164 0.0929283 -0.322882 135 139 86
-0.0762955 0.0966838 0.316632 118 140 168
0.0670229 -0.145317 -0.428867 136 109 73
0.0103358 -0.541333 -0.440125 129 58 71
-0.137337 0.306001 -0.60788 110 167 50
0.0279411 0.0164149 -0.239743 131 130 97
-0.0836246 0.517205 -0.41137 117 193 75
-0.0349698 -0.363616 -0.462763 123 81 68
0.0643728 0.124701 -0.113962 136 143 113
-0.142335 0.0274024 -0.473577 109 131 67
0.0696131 0.478976 0.116002 136 189 142
-0.0753534 0.112088 -0.783255 118 142 28
-0.0695571 -0.0549879 -0.200401 119 120 102
-0.0301023 -0.040494 -0.160251 124 122 107
0.0700971 -0.30977 -0.464515 136 88 68
0.0913617 0.397661 0.175698 139 178 150
-0.142374 0.266079 -0.549369 109 161 57
0.0274056 0.307742 0.996414 131 167 255
0.110199 0.434774 -0.020724 142 183 125
0.116761 -0.365816 -0.515575 142 81 62
0.119915 0.449624 -0.432325 143 185 72
-0.000177216 0.0868091 -0.779606 127 139 28
-0.124281 0.196913 -0.702321 112 153 38
-0.147277 0.276682 0.0452046 109 163 133
-0.13989 -0.215204 -0.515057 110 100 62
0.133613 0.275534 -0.575483 145 163 54
-0.149055 -0.16255 -0.68875 108 107 40
-0.00248677 0.0186599 -0.0694753 127 130 119
-0.137636 0.173167 0.54638 110 150 197
-0.140561 0.220503 0.856747 110 156 237
0.0735116 0.457172 0.64799 137 186 210
-0.136757 0.351816 -0.755288 110 172 31
0.0762062 0.452003 0.25109 137 185 160
-0.135069 0.172534 -0.191143 110 149 103
0.0851189 0.528698 -0.602619 138 195 51
-0.148079 0.241711 0.221349 109 158 156
-0.0506718 0.0778867 0.506168 121 137 192
0.0553724 0.0963808 0.249578 135 140 159
0.126837 0.244128 0.340952 144 159 171
0.134809 0.306603 -0.73084 145 167 34
-0.14573 0.0464584 -0.522754 109 133 61
-0.0551727 0.0676275 0.760994 120 136 225
0.102215 0.364355 0.339702 141 174 171
0.121196 0.289623 0.934829 143 164 247
-0.00381258 0.0839975 0.206805 127 138 154
0.0579709 -0.565213 -0.467026 135 55 68
0.127772 -0.0153204 -0.365478 144 126 81
-0.0850397 0.515004 0.103101 117 193 141
0.0517752 -0.084331 -0.0825863 134 117 117
0.0745591 0.444082 0.152723 137 184 147
0.0902403 0.512124 -0.428306 139 193 73
-0.15211 0.265834 0.699634 108 161 217
-0.0731374 0.431229 0.97879 118 182 252
-0.0882043 0.1201 -0.0997725 116 143 115
0.10101 0.142098 0.467443 140 146 187
-0.00744385 0.0943217 0.598387 127 140 204
-0.0557556 -0.0244765 -0.293045 120 124 90
0.147708 -0.320734 -0.773796 146 87 29
-0.0987749 0.125149 0.416314 115 143 181
0.109401 0.493063 -0.323233 141 190 86
0.0147446 -0.172353 -0.421403 129 106 74
0.0458571 -0.214128 -0.850966 133 100 19
-0.147569 0.285095 -0.153931 109 164 108
0.0680455 0.305992 0.977644 136 167 252
0.124164 0.255223 0.713238 143 160 218
-0.0856502 0.519824 -0.01565 117 194 126
0.0758172 0.012242 -0.753992 137 129 31
0.0436296 0.324139 0.997738 133 169 255
-0.138046 0.168435 -0.118513 110 149 112
-0.0681515 0.515821 -0.510029 119 193 62
-0.072947 -0.403008 -0.482632 118 76 66
0.0964547 -0.561975 -0.595655 140 56 52
-0.135171 0.142453 -0.383571 110 146 79
0.0263214 0.507711 -0.713106 131 192 37
0.122898 -0.414823 -0.538279 143 75 59
-0.0472865 0.479346 0.670548 121 189 213
-0.0775833 0.418915 0.991466 118 181 254
0.063548 0.124405 0.314773 136 143 168
-0.112962 0.396959 0.638309 113 178 209
-0.14562 0.298192 0.341311 109 166 171
-0.0130538 0.0806086 0.302265 126 138 166
0.0704959 0.440588 0.725265 136 184 220
-0.0622101 -0.365973 -0.901683 120 81 13
-0.128358 0.376248 0.0852297 111 175 138
-0.133749 0.229179 -0.665849 110 157 43
0.0315852 0.566174 -0.665274 132 200 43
-0.123216 0.172083 0.910175 112 149 244
-0.0155214 0.549044 -0.694043 126 198 39
-0.0287535 0.0958241 0.0634944 124 140 136
-0.0840982 0.135442 -0.169708 117 145 106
-0.0862074 -0.410103 -0.899692 117 75 13
-0.150972 0.226901 0.59652 108 156 204
-0.127365 0.466752 -0.214859 111 187 100
-0.0845084 -0.20261 -0.835578 117 102 21
0.0730775 0.1056 0.0860939 137 141 138
0.0737223 0.43006 0.559967 137 182 199
-0.135497 0.167202 -0.268509 110 149 93
-0.0464179 -0.0908647 -0.0476185 122 116 121
0.132862 0.333616 -0.715526 144 170 36
-0.0928401 -0.0769321 -0.772574 116 118 29
-0.13601 0.185289 0.287804 110 151 164
-0.132832 -0.146269 -0.766454 111 109 30
0.0676675 0.114963 0.395486 136 142 178
0.0586269 -0.552602 -0.449989 135 57 70
-0.0704149 -0.477461 -0.469332 119 67 68
-0.141123 -0.182357 -0.766188 110 104 30
-0.145861 -0.428822 -0.838499 109 73 21
-0.118327 -0.560897 -0.616965 112 56 49
-0.0109447 -0.00320309 -0.765322 126 127 30
-0.150233 0.1095 -0.597965 108 141 51
0.0972533 0.401867 0.101327 140 179 140
0.102252 0.508616 -0.508998 141 192 63
-0.126788 0.0328435 -0.717816 111 132 36
0.12693 0.287749 0.262736 144 164 161
0.100538 0.369538 0.309565 140 175 167
-0.132284 0.116514 0.00245164 111 142 128
0.131323 -0.231867 -0.80366 144 98 25
0.124841 0.246956 0.586264 143 159 202
-0.112384 -0.0287214 -0.744801 113 124 33
0.0352863 0.082405 0.226132 132 138 156
-0.0180314 0.526762 -0.327128 125 195 86
-0.139369 0.402801 -0.391556 110 179 78
-0.134311 0.345061 -0.0175554 110 171 125
-0.02065 -0.308787 -0.448844 125 88 70
-0.0138373 -0.561708 -0.690923 126 56 39
0.0424652 0.483261 0.203582 133 189 153
0.120867 0.30902 0.251052 143 167 160
-0.0836976 0.480778 0.258553 117 189 160
-0.138921 0.116307 -0.0400239 110 142 122
-0.154275 -0.451638 -0.725372 108 70 35
-0.144132 -0.395703 -0.836475 109 77 21
0.016174 0.465587 0.455525 130 187 186
0.113247 0.0136569 -0.732965 142 129 34
-0.0586088 0.341346 0.946528 120 171 248
0.133764 -0.145575 -0.516053 145 109 62
0.0724684 0.180086 -0.969824 137 150 4
-0.0392586 0.480813 0.209117 122 189 154
0.0764413 0.418726 0.636694 137 181 209
0.119017 0.301358 0.560841 143 166 199
-0.147099 -0.365944 -0.648581 109 81 45
-0.134804 0.154563 -0.0953307 110 147 115
0.058234 0.523135 -0.483386 135 194 66
-0.119591 0.133039 0.0933215 112 144 139
0.0538188 -0.382377 -0.904412 134 79 12
-0.0238977 0.0675285 0.752204 124 136 223
-0.0116239 0.133472 -0.170227 126 145 106
-0.0114693 -0.483268 -0.909796 126 66 12
0.130984 0.323229 -0.748651 144 169 32
0.0104262 -0.0410021 -0.187564 129 122 104
0.0728759 0.444288 0.66739 137 184 213
-0.133729 -0.539499 -0.580699 110 59 53
0.099134 0.139765 0.684102 140 145 215
-0.133697 0.331605 0.084573 110 170 138
0.0463095 0.525538 -0.472375 133 195 67
-0.127882 0.450906 -0.491627 111 185 65
0.100306 0.351516 0.75831 140 172 224
-0.143595 -0.436416 -0.588731 109 72 52
0.0816065 0.123126 0.345252 138 143 172
-0.106702 0.411741 0.267242 114 180 162
0.129125 0.301637 -0.594973 144 166 52
-0.00210128 -0.480778 -0.45539 127 66 69
-0.0459012 0.00926575 -0.0133594 122 129 126
-0.0776818 -0.56278 -0.583664 118 56 53
0.102707 0.150003 0.562578 141 147 199
0.026354 0.459445 0.693687 131 186 216
0.144289 -0.334415 -0.663842 146 85 43
-0.131227 0.347904 0.948068 111 172 248
-0.101393 0.13506 -0.223203 115 145 99
-0.133203 0.432572 -0.408789 111 183 75
-0.113755 0.417577 0.0809068 113 181 138
0.149017 -0.414146 -0.729149 146 75 35
0.0971159 0.359202 0.793163 140 173 229
-0.0103995 0.5643 -0.674089 126 199 42
-0.0988262 0.44384 0.520188 115 184 194
-0.149768 0.267849 0.467886 108 162 187
0.0596396 0.465086 0.966829 135 187 251
0.134309 -0.0145281 -0.500308 145 126 64
-0.0873243 -0.22604 -0.452001 116 99 70
-0.136374 0.169926 0.370226 110 149 175
-0.123485 0.0843055 -0.35357 112 138 82
-0.117536 0.385602 0.377627 113 177 176
0.0382716 -0.560896 -0.732404 132 56 34
0.0449103 0.0824434 0.0839186 133 138 138
0.0322058 0.460258 -0.851535 132 186 19
-0.138232 0.161416 0.774214 110 148 226
0.13303 0.242048 -0.274051 144 158 93
-0.135535 0.188333 -0.359169 110 152 82
-0.071081 0.184888 -0.974934 118 151 3
0.0452029 0.481078 0.242549 133 189 158
0.131746 0.362143 -0.68468 144 174 40
-0.15019 0.267389 0.518846 108 162 194
0.0518794 0.565869 -0.658085 134 200 44
0.131436 -0.00441408 -0.465291 144 127 68
-0.147549 0.403927 -0.575292 109 179 54
0.104481 0.500993 -0.265965 141 191 94
-0.0103311 -0.358471 -0.907673 126 82 12
0.129119 0.254671 -0.368109 144 160 81
0.135991 -0.226101 -0.562768 145 99 56
0.014166 0.425486 0.00616246 129 182 128
-0.0374683 0.294558 -0.846932 123 165 20
-0.123868 0.479652 -0.335913 112 189 85
0.055446 0.476196 0.579408 135 188 201
-0.13882 -0.517591 -0.801066 110 62 25
-0.134293 -0.097023 -0.743016 110 115 33
0.101369 0.134222 0.404858 140 145 179
-0.130377 0.132653 -0.288865 111 144 91
-0.141445 0.341075 -0.358499 109 171 82
-0.0985342 0.15418 -0.816718 115 147 23
-0.108856 0.50036 -0.717774 114 191 36
-0.00132644 0.526922 -0.33661 127 195 85
-0.0572494 0.0856765 0.133138 120 138 144
0.0102998 -0.476362 -0.45749 129 67 69
0.124247 0.167185 -0.721079 143 149 36
-0.133798 0.341413 0.555839 110 171 198
-0.0912073 0.430245 0.747651 116 182 223
-0.141146 -0.367067 -0.840291 110 81 20
0.00219751 -0.563023 -0.623114 128 56 48
-0.134393 0.187809 0.0625506 110 151 135
0.117341 0.304918 0.574359 142 166 201
0.139609 0.0379351 -0.524522 145 132 61
-0.140165 0.354366 -0.474316 110 173 67
-0.0501463 0.0965172 0.781185 121 140 227
0.113846 -0.54139 -0.478274 142 58 67
0.144811 -0.372131 -0.666069 146 80 43
0.0636866 0.456433 0.622492 136 186 207
-0.118409 0.382633 0.129892 112 176 144
-0.147428 0.251995 -0.0028802 109 160 127
0.123983 0.291171 0.447508 143 165 185
0.108656 0.354515 0.176681 141 173 150
-0.12422 0.367477 0.841339 112 174 235
-0.147138 0.227058 0.0824149 109 156 138
-0.14238 0.398199 -0.208473 109 178 101
0.0707259 0.515534 -0.270551 137 193 93
-0.0261751 -0.565052 -0.50038 124 55 64
0.0947053 0.0852963 -0.0680755 140 138 119
0.132716 0.249332 -0.320356 144 159 87
0.116694 0.149905 -0.00143518 142 147 127
-0.0417457 0.080701 0.777981 122 138 227
0.0922679 -0.563936 -0.493628 139 56 65
0.0369008 0.222515 -0.978546 132 156 3
-0.11502 0.499726 -0.602509 113 191 51
0.115809 0.187919 0.334693 142 151 170
-0.149847 0.20309 0.581502 108 153 202
0.0266213 0.457569 0.0353033 131 186 132
0.105124 -0.172202 -0.805128 141 106 25
0.0961547 0.455398 0.0270179 140 186 131
0.103248 0.1506 0.119323 141 147 143
-0.0792132 0.523119 -0.167348 117 194 106
-0.0924385 0.476166 0.117317 116 188 142
0.11896 0.396705 -0.799324 143 178 26
-0.137375 0.332302 0.918769 110 170 245
0.107954 0.439652 -0.0363089 141 184 123
-0.118735 0.450194 -0.125464 112 185 112
-0.154138 -0.435826 -0.736228 108 72 34
0.128604 0.256059 0.116416 144 160 142
0.097466 -0.453745 -0.892421 140 70 14
-0.137617 0.22679 -0.569676 110 156 55
0.00723437 0.425645 -0.885572 128 182 15
0.0788293 0.41111 0.648323 138 180 210
-0.134641 0.158854 -0.0674734 110 148 119
-0.0316362 0.398845 -0.864185 123 178 17
-0.0736837 0.51889 0.0738674 118 194 137
0.137701 0.158992 -0.338703 145 148 84
-0.132708 -0.0178021 -0.331129 111 125 85
0.0018966 -0.083053 -0.350559 128 117 83
0.0986227 0.50881 -0.676666 140 192 41
-0.0509784 0.487205 0.847851 121 190 236
0.133072 0.17058 -0.360342 144 149 82
-0.0426386 0.513127 0.00503271 122 193 128
0.0122107 0.526013 -0.280127 129 195 92
0.132723 0.317077 -0.239662 144 168 97
0.00138448 0.455149 0.0599481 128 186 135
-0.134816 -0.47786 -0.544918 110 67 58
0.0745658 0.449574 0.391287 137 185 177
0.062006 0.101524 0.389121 135 140 177
0.1211 0.235056 0.939829 143 157 247
0.0852177 0.0932876 -0.324422 138 139 86
0.115675 0.188935 0.120799 142 152 143
0.0706157 0.518273 -0.400116 137 194 76
-0.0185318 -0.561975 -0.67259 125 56 42
-0.143396 0.283651 -0.506152 109 164 63
0.120724 0.193743 0.689911 143 152 215
-0.0305406 0.0896501 0.129983 124 139 144
-0.151342 0.242071 0.629729 108 158 208
0.115975 0.184438 0.0786725 142 151 138
-0.146649 0.204727 -0.56194 109 154 56
-0.0965926 -0.210076 -0.453831 115 101 70
0.104804 0.446058 -0.0568675 141 184 120
-0.103285 0.503919 -0.139478 114 192 110
0.128235 0.270918 -0.403053 144 162 76
-0.143603 0.356433 -0.448122 109 173 70
-0.0309795 0.522293 -0.0455474 124 194 122
-0.0631314 0.0714998 0.743639 119 137 222
0.0259323 0.149246 -0.853985 131 147 19
-0.098082 0.453996 0.277373 115 185 163
0.123726 0.427381 -0.362864 143 182 81
-0.147676 -0.0336129 -0.550262 109 123 57
-0.15636 0.251447 0.925398 108 160 245
-0.0515868 0.486052 0.246913 121 189 159
-0.0339611 0.084961 -0.245708 123 138 96
0.0216308 0.197542 -0.999006 130 153 0
-0.121462 0.405177 0.0712528 112 179 137
0.140075 -0.0872789 -0.576724 145 116 54
-0.138307 0.0609996 -0.693013 110 135 39
0.0997872 0.127887 0.590117 140 144 203
0.0387129 0.174057 -0.977824 132 150 3
0.0662469 0.127755 0.358501 136 144 173
-0.137443 0.281688 -0.808249 110 163 24
-0.140708 -0.296727 -0.54124 110 90 58
-0.121118 0.120347 0.708134 112 143 218
-0.0746728 -0.39257 -0.902127 118 77 12
-0.147553 0.237229 -0.0638429 109 158 119
-0.084186 -0.554039 -0.458634 117 57 69
0.116816 0.307223 0.838476 142 167 234
0.146821 -0.470778 -0.740663 146 67 33
0.0220851 0.320659 0.979782 130 168 252
0.0372041 -0.00200573 -0.316697 132 127 87
0.128081 0.341575 -0.659113 144 171 43
0.074334 0.44748 0.580531 137 185 202
-0.123836 0.181236 -0.801585 112 151 25
-0.117079 0.452333 -0.0711216 113 185 118
-0.145944 -0.322869 -0.809417 109 86 24
-0.148392 0.184292 -0.62298 109 151 48
-0.147051 0.104713 -0.499749 109 141 64
0.119562 0.409875 -0.0539571 143 180 121
-0.140756 -0.163709 -0.758637 110 107 31
-0.133109 0.0127987 -0.37224 111 129 80
-0.139273 -0.530043 -0.556461 110 60 57
-0.139239 0.259528 -0.490738 110 161 65
-0.12382 0.211588 -0.732499 112 154 34
0.149224 0.101049 -0.489647 147 140 65
-0.0980352 0.454977 0.372 115 186 175
-0.144704 -0.409657 -0.600295 109 75 51
-0.0407051 0.525664 -0.3526 122 195 83
0.113252 0.314345 0.600005 142 168 204
0.1326 0.257854 -0.225354 144 160 99
0.125342 0.260759 0.550967 143 161 198
0.150651 -0.453776 -0.699313 147 70 38
-0.0959138 0.424629 0.833326 115 182 234
-0.123941 0.193372 -0.676578 112 152 41
-0.148773 0.443908 -0.561024 109 184 56
-0.115077 0.389711 0.695311 113 177 216
-0.147227 0.335773 -0.229655 109 170 98
-0.122747 0.145414 0.18842 112 146 152
-0.0671485 -0.0835421 -0.0742359 119 117 118
-0.0872529 0.520829 -0.090829 116 194 116
-0.13216 0.33502 0.206312 111 170 154
-0.127437 0.369725 0.101044 111 175 140
0.056108 0.444423 -0.778553 135 184 28
-0.0940996 0.458928 0.921974 116 186 245
0.118901 -0.293587 -0.846547 143 90 20
0.130509 -0.513492 -0.84385 144 62 20
0.12473 0.257806 0.597322 143 160 204
-0.149034 0.0520772 -0.617113 108 134 49
-0.132804 0.00959136 -0.407802 111 129 76
0.125138 0.300567 0.173706 143 166 150
0.130838 0.294212 -0.124361 144 165 112
0.143513 -0.105252 -0.695902 146 114 39
-0.0133686 0.0266315 -0.304053 126 131 89
-0.147358 0.288223 0.279022 109 164 163
-0.0871825 0.135586 -0.181011 116 145 104
-0.108344 0.218029 0.941258 114 155 248
0.0121323 0.458754 0.624111 129 186 207
-0.13545 0.366076 -0.646295 110 174 45
0.139603 -0.273449 -0.610433 145 93 50
0.0328716 0.0664015 -0.335076 132 136 85
0.143635 -0.257886 -0.660451 146 95 43
0.00816266 0.24619 0.963598 129 159 250
-0.0395422 0.459825 -0.766307 122 186 30
-0.110496 -0.458022 -0.497668 113 69 64
0.0907398 0.133844 -0.202303 139 145 102
-0.136995 0.186385 0.358397 110 151 173
-0.145036 0.196214 0.462662 109 153 186
0.0258401 0.0768687 0.576648 131 137 201
-0.0997996 0.449608 0.541316 115 185 197
-0.147511 0.286609 0.253514 109 164 160
-0.0255216 0.478115 0.0593136 124 188 135
0.109657 0.33184 0.464403 141 170 187
-0.0792409 0.100031 0.385956 117 140 177
0.073807 0.428349 0.594538 137 182 203
-0.142009 -0.0122592 -0.476424 109 126 67
-0.0888335 -0.562911 -0.559875 116 56 56
-0.144832 0.300094 0.221881 109 166 156
0.0455552 0.485179 0.183134 133 189 151
-0.148006 0.225698 0.254055 109 156 160
-0.0232111 0.0790727 0.365727 125 138 174
-0.067261 0.0825282 0.34216 119 138 171
-0.0279637 0.458264 0.0526644 124 186 134
0.00381327 0.471826 0.372216 128 188 175
0.126108 0.215723 0.399456 144 155 178
-0.136358 0.441837 -0.646234 110 184 45
-0.139032 0.317841 0.0408034 110 168 133
-0.149241 -0.294458 -0.6983 108 90 38
-0.145554 0.375898 -0.246879 109 175 96
0.101106 0.346844 0.86965 140 172 238
0.103417 -0.427381 -0.504489 141 73 63
-0.149449 0.185997 -0.598455 108 151 51
-0.0895187 -0.00151399 -0.316061 116 127 87
-0.113015 -0.371839 -0.878172 113 80 16
-0.0998312 0.121819 0.597548 115 143 204
-0.0295422 0.0772899 0.54359 124 137 197
0.151625 0.156756 -0.473205 147 147 67
0.0922659 0.463164 -0.0550393 139 187 120
0.140958 -0.34858 -0.625529 145 83 48
-0.0429796 0.504436 0.878405 122 192 239
0.092383 0.392419 0.239274 139 178 158
-0.0751145 0.0878709 0.53579 118 139 196
0.136948 0.196243 -0.503955 145 153 63
-0.0897601 0.16011 -0.83799 116 148 21
-0.13892 0.38974 -0.0921341 110 177 116
0.12641 0.26919 0.39694 144 162 178
0.115986 0.399018 0.0505705 142 178 134
-0.150164 0.222251 0.508006 108 156 192
0.02678 -0.0414438 -0.193311 131 122 103
0.133976 0.278519 -0.704989 145 163 38
0.0297275 0.0373567 -0.343222 131 132 84
0.0495071 0.0961165 0.597592 134 140 204
0.0533655 0.0849518 0.542292 134 138 197
0.00482936 -0.56168 -0.719398 128 56 36
0.0306633 -0.119129 -0.806546 131 112 25
-0.0165254 0.0912776 0.264493 125 139 161
0.0941247 0.508391 -0.329992 140 192 85
0.124618 0.153629 -0.763387 143 147 30
-0.0573104 0.0716739 0.712529 120 137 218
0.126589 0.211869 0.27031 144 155 162
-0.135395 -0.518861 -0.496601 110 61 64
-0.135473 0.144759 -0.30377 110 146 89
-0.0340845 -0.0540097 -0.00193421 123 121 127
0.143555 -0.162923 -0.644441 146 107 45
-0.12979 0.154828 0.455883 111 147 186
-0.149857 -0.0909954 -0.638324 108 116 46
0.00693801 0.0259428 -0.267269 128 131 93
-0.11445 0.502649 -0.347657 113 192 83
0.061812 0.500235 -0.720454 135 191 36
0.143948 -0.217545 -0.632231 146 100 47
-0.0365018 0.436244 -0.796055 123 183 26
0.0606844 0.538769 -0.621882 135 196 48
0.0538731 0.0249589 -0.0541417 134 131 121
-0.0975149 0.429018 0.732361 115 182 221
-0.103922 0.122868 0.460502 114 143 186
-0.0569438 0.101593 0.253414 120 140 160
0.122269 0.210098 -0.375737 143 154 80
0.0251694 0.479465 0.287589 131 189 164
0.154427 0.14278 -0.491565 147 146 65
0.125347 -0.300166 -0.841325 143 89 20
0.0504823 -0.431494 -0.909293 134 72 12
0.124278 0.230082 0.671133 143 157 213
-0.123448 0.224359 -0.855376 112 156 18
-0.113931 0.115766 -0.307688 113 142 88
0.134462 0.261957 -0.749156 145 161 32
-0.137972 0.262734 0.954201 110 161 249
0.119142 -0.060534 -0.382952 143 120 79
-0.148328 0.0771739 -0.584485 109 137 53
0.0764138 0.454848 0.422913 137 185 181
-0.135122 0.198495 -0.196242 110 153 102
0.123725 0.0357505 -0.718624 143 132 36
-0.13805 0.32047 0.697366 110 168 216
-0.0568734 0.466546 0.296044 120 187 165
-0.147518 -0.389359 -0.651381 109 78 44
0.0864255 0.508216 -0.522416 139 192 61
-0.0681783 0.113129 0.0588456 119 142 135
0.0542929 -0.00215824 -0.0468444 134 127 122
0.0094779 -0.562552 -0.646025 129 56 45
0.0666326 0.455245 0.820108 136 186 232
0.0291367 0.0854619 0.0692657 131 138 136
-0.0108209 0.449532 -0.79706 126 185 26
-0.13327 0.15557 -0.48674 111 147 65
-0.0578969 -0.561245 -0.685239 120 56 40
-0.117937 0.413915 -0.798915 112 180 26
0.124181 -0.41168 -0.869334 143 75 17
0.0973662 0.362834 0.66043 140 174 212
-0.136483 0.174216 0.390457 110 150 177
-0.0747531 -0.527325 -0.840224 118 60 20
0.0264159 0.443838 -0.787102 131 184 27
-0.116734 0.367722 0.974086 113 174 252
-0.10227 0.121784 0.584929 114 143 202
-0.0614273 0.518364 0.101098 120 194 140
-0.135153 -0.281698 -0.824612 110 92 22
0.0396574 -0.564359 -0.51297 133 56 62
0.136819 -0.418648 -0.580232 145 74 54
-0.139442 0.391434 -0.335861 110 177 85
0.140807 -0.200469 -0.589458 145 102 52
0.124188 0.256425 0.659276 143 160 212
-0.119549 0.487952 -0.542601 112 190 58
0.0300038 0.0815284 0.513432 131 138 193
-0.080011 0.0895658 0.28015 117 139 163
0.1304 0.284742 -0.514425 144 164 62
-0.130699 0.349973 0.331271 111 172 170
-0.139759 -0.0784171 -0.725928 110 118 35
0.113883 0.189266 -0.898523 142 152 13
-0.131318 0.192938 -0.544477 111 152 58
-0.0187066 0.0808523 0.0761831 125 138 137
-0.0884316 0.518458 0.0275781 116 194 131
0.124798 0.219928 0.592565 143 156 203
0.0470226 -0.257927 -0.870138 133 95 17
0.0881414 0.502158 0.0430218 139 192 133
0.118539 0.458696 -0.48541 143 186 66
0.145144 0.353858 -0.562885 146 173 56
-0.144281 0.265889 -0.303817 109 161 89
-0.146452 0.290471 0.100157 109 165 140
0.145812 -0.447019 -0.638396 146 71 46
-0.130058 0.404381 -0.75311 111 179 31
-0.0846004 0.253698 0.960415 117 160 250
-0.0738418 0.458425 0.69585 118 186 216
0.127817 0.107557 -0.0434281 144 141 122
-0.0982477 0.46041 0.752146 115 186 223
0.139411 -0.456093 -0.583399 145 69 53
-0.12559 0.43792 -0.0603822 111 183 120
0.12537 0.216049 -0.875614 143 155 16
-0.151569 -0.420361 -0.721271 108 74 36
-0.0774282 0.0853316 0.583011 118 138 202
-0.0960517 0.13596 0.84288 115 145 235
0.0149875 -0.550052 -0.805452 129 57 25
-0.135023 0.120705 -0.355856 110 143 82
0.114653 0.186307 0.841445 142 151 235
0.0470217 -0.564841 -0.495443 133 55 64
-0.0884057 0.471152 0.729472 116 188 221
-0.13143 -0.538688 -0.7561 111 59 31
0.0691308 0.29694 -0.839289 136 165 20
-0.101393 0.457533 0.67894 115 186 214
-0.142465 0.380177 -0.407496 109 176 76
-0.0193455 0.114207 0.0413146 125 142 133
-0.146433 0.294156 0.00303347 109 165 128
0.139949 -0.028217 -0.554978 145 124 57
0.0206444 0.0430453 -0.343555 130 133 84
-0.120993 0.49368 -0.199137 112 190 102
-0.130414 0.115221 -0.681829 111 142 41
0.0359083 -0.0807385 -0.346808 132 117 83
0.133418 0.293309 -0.531113 145 165 60
0.0226977 0.486266 0.124225 130 189 143
0.076783 0.432603 0.240597 137 183 158
0.145642 0.142582 -0.607127 146 146 50
-0.0943398 0.470514 0.437584 115 187 183
-0.135667 0.316986 -0.722001 110 168 35
0.0571935 0.471955 0.236399 135 188 158
-0.0469693 -0.524992 -0.847411 122 61 19
-0.129423 -0.105215 -0.464746 111 114 68
-0.141803 -0.116549 -0.492357 109 113 65
0.131255 0.218123 -0.208832 144 155 101
0.10824 0.345798 0.416207 141 172 181
0.128249 0.29224 0.0916032 144 165 139
0.113457 0.481282 -0.40953 142 189 75
0.0740439 0.415389 0.856714 137 180 237
-0.137328 0.402628 -0.0497212 110 179 121
-0.137654 0.326273 -0.644359 110 169 45
-0.122056 0.489242 -0.269102 112 190 93
0.0831093 0.408559 0.490706 138 180 190
-0.156092 0.267858 0.768385 108 162 225
-0.150484 0.224916 0.542023 108 156 197
-0.147819 -0.413895 -0.642944 109 75 46
0.143701 -0.0618448 -0.638301 146 120 46
-0.0779561 -0.287541 -0.874936 118 91 16
0.035825 0.417484 -0.81933 132 181 23
-0.0787413 -0.472319 -0.902861 117 67 12
-0.10463 0.468003 -0.123099 114 187 112
0.145721 0.118907 -0.595655 146 143 52
0.0517508 0.0781236 0.683493 134 137 215
-0.149086 -0.0515407 -0.579218 108 121 54
-0.147295 -0.0673627 -0.694703 109 119 39
-0.105436 0.50244 0.0727701 114 192 137
0.128195 0.279662 0.177021 144 163 150
0.114103 0.171369 0.303588 142 149 166
-0.129709 0.163133 0.147538 111 148 146
0.0105087 -0.0895014 -0.188242 129 116 103
0.0776216 0.400387 0.873224 137 179 239
0.124571 0.206577 0.138811 143 154 145
0.132024 0.248348 -0.187928 144 159 104
-0.0957585 -0.100233 -0.412359 115 115 75
-0.146978 0.281876 -0.309295 109 163 88
0.127277 0.252184 0.273529 144 160 162
0.136668 0.29945 -0.789537 145 166 27
-0.0124957 -0.116125 -0.806769 126 113 25
0.0733243 0.435192 0.47346 137 183 188
-0.145202 0.300067 0.51585 109 166 193
-0.0182134 0.0728428 0.621875 125 137 207
0.129459 0.392809 -0.225682 144 178 99
0.129575 0.34382 -0.183304 144 171 104
0.13268 -0.329509 -0.538991 144 85 59
0.0270547 0.47743 0.601199 131 188 204
-0.137147 0.176092 0.471687 110 150 188
0.00240925 0.131056 -0.154587 128 144 108
0.128678 -0.0920373 -0.47957 144 116 66
-0.137055 0.322606 0.468223 110 169 187
-0.0724603 0.479236 0.810541 118 189 231
0.149639 -0.443109 -0.686167 147 71 40
0.124577 0.0624512 -0.695863 143 135 39
0.112306 -0.476288 -0.499192 142 67 64
-0.0337766 0.0990037 0.388897 123 140 177
0.0663425 0.248078 -0.866372 136 159 17
0.13914 -0.363413 -0.604992 145 81 50
