ply
format ascii 1.0
comment Created by Open3D
element vertex 1188
property double x
property double y
property double z
property uchar red
property uchar green
property uchar blue
end_header
0.132136 0.347688 -0.540404 144 172 59
0.0835198 0.41442 0.259129 138 180 161
0.030555 0.0992689 0.396297 131 140 178
0.115401 0.142928 0.0313154 142 146 131
-0.0396479 0.49179 0.112817 122 190 142
-0.138853 0.32719 -0.470846 110 169 67
-0.144714 0.387052 -0.22821 109 177 98
0.056524 0.440912 0.98022 135 184 252
-0.0901339 0.471335 0.651084 116 188 211
-0.143412 0.304371 0.144024 109 166 146
-0.135397 -0.171189 -0.493404 110 106 65
0.0796415 0.157759 0.850491 138 148 236
0.146257 0.185678 -0.607501 146 151 50
-0.124926 0.00456403 -0.723861 112 128 35
0.000470805 0.310578 0.961536 128 167 250
0.143972 0.166634 -0.64012 146 149 46
-0.0277504 0.460613 0.980579 124 186 253
0.0831524 0.115737 0.699426 138 142 217
-0.136261 0.208536 -0.35818 110 154 82
0.0935032 0.367624 0.831458 139 174 234
-0.0744633 0.475174 0.682088 118 188 214
-0.0630054 0.093994 0.780371 119 139 227
0.135866 0.325634 -0.805432 145 169 25
0.0409219 -0.499353 -0.455064 133 64 69
-0.136855 0.173823 0.437747 110 150 183
-0.141883 0.239501 -0.42389 109 158 73
-0.098631 -0.562472 -0.56392 115 56 56
-0.139185 0.374878 -0.0151515 110 175 126
0.0939737 0.374799 0.600383 139 175 204
-0.134719 0.414456 -0.109901 110 180 113
0.11401 0.182308 0.325672 142 151 169
0.00312995 0.0945377 0.114629 128 140 142
0.108305 0.156947 0.203334 141 148 153
0.110113 0.501554 -0.692195 142 191 39
0.0814243 0.123446 0.357895 138 143 173
-0.139011 0.379109 0.0340927 110 176 132
-0.139503 0.359499 -0.457444 110 173 69
-0.0674634 -0.177545 -0.433208 119 105 72
0.0538413 -0.561759 -0.667707 134 56 42
0.146264 -0.290494 -0.791495 146 90 27
0.124458 0.244505 0.887266 143 159 241
-0.0762122 0.545925 -0.622655 118 197 48
-0.0679695 0.021262 -0.0215119 119 130 125
-0.00038695 0.52908 -0.606019 127 195 50
-0.14094 -0.344735 -0.547311 110 84 58
-0.0173202 0.083319 0.00574366 125 138 128
-0.131758 -0.538818 -0.733212 111 59 34
-0.133586 0.335458 -0.101657 110 170 115
-0.147155 -0.32837 -0.659823 109 86 43
0.0957056 0.509231 -0.644313 140 192 45
0.034658 0.48666 0.121229 132 190 143
0.137784 -0.344229 -0.598224 145 84 51
-0.14185 0.275571 -0.405941 109 163 76
0.0369718 0.52397 -0.296634 132 194 90
-0.0581408 0.0864557 0.401056 120 139 179
-0.0916629 0.547596 -0.68663 116 197 40
-0.0407042 -0.374527 -0.907649 122 80 12
-0.14645 -0.430691 -0.61816 109 73 49
-0.0880972 0.473917 0.586297 116 188 202
0.0991842 0.138062 0.673559 140 145 213
0.0488055 -0.0867609 -0.129011 134 116 111
0.14583 -0.204625 -0.664834 146 101 43
0.053975 0.088109 0.238901 134 139 158
0.0542196 -0.428075 -0.478308 134 73 67
-0.0167563 0.0937064 -0.296143 125 139 90
0.0698579 -0.0824433 -0.369052 136 117 80
0.0741634 0.518265 -0.451557 137 194 70
0.134218 0.313362 -0.452431 145 167 70
-0.136374 0.169926 0.370226 110 149 175
-0.150958 -0.248708 -0.726019 108 96 35
0.00364873 0.522 -0.112763 128 194 113
-0.132372 0.346226 0.673192 111 172 213
0.142306 -0.41323 -0.629197 146 75 47
0.0819469 0.415104 0.39708 138 180 178
-0.137889 0.400145 -0.377971 110 179 79
-0.138679 0.446945 -0.513103 110 184 62
0.146135 -0.45055 -0.834259 146 70 21
-0.123273 0.484718 -0.249104 112 189 96
0.127356 0.296868 -0.362001 144 165 81
0.0751776 0.454058 0.320256 137 185 168
0.125447 0.271182 0.527933 143 162 195
-0.0260656 0.523552 0.888212 124 194 241
0.128318 -0.0396153 -0.40174 144 122 76
-0.0222086 0.483687 0.430543 125 189 182
0.125117 0.202245 0.825296 143 153 233
-0.114765 0.389058 0.163002 113 177 148
-0.00695821 0.52719 -0.346992 127 195 83
0.111261 0.242746 -0.85582 142 158 18
0.117778 0.459585 -0.411303 143 186 75
0.103856 0.354748 0.487195 141 173 190
-0.017623 0.135295 -0.252681 125 145 95
0.0849393 0.507944 0.0894536 138 192 139
-0.0697612 0.0863954 0.468667 119 139 187
-0.0214495 -0.232511 -0.864654 125 98 17
0.0624155 0.148943 0.867076 135 146 238
0.048233 0.524544 -0.435398 134 194 72
-0.114718 0.398396 -0.804174 113 178 25
0.0304555 0.0963523 -0.321217 131 140 87
0.121112 0.356113 -0.12201 143 173 112
0.138876 -0.217001 -0.779429 145 100 28
-0.146665 0.222952 -0.32534 109 156 86
0.134211 0.235773 -0.479571 145 158 66
-0.12049 0.486106 -0.485347 112 189 66
0.06278 0.518557 -0.303524 136 194 89
-0.143338 0.305404 0.599931 109 166 204
0.115729 0.186673 0.776457 142 151 226
0.128983 0.25399 0.076136 144 160 137
-0.0644418 0.0810815 -0.769021 119 138 29
-0.150475 0.221031 0.551917 108 156 198
-0.139272 0.377235 -0.0918331 110 176 116
0.148128 -0.352935 -0.734935 146 83 34
-0.0867131 0.514214 -0.282796 116 193 91
-0.0742446 0.447604 0.978619 118 185 252
-0.0244887 0.0929938 0.531385 124 139 195
-0.133246 -0.536636 -0.685451 111 59 40
-0.101999 0.454371 0.663121 114 185 212
0.0909418 0.241551 -0.887103 139 158 14
-0.149006 0.20811 -0.113609 109 154 113
0.128347 0.216308 0.0252348 144 155 131
-0.0144087 0.422736 0.0259642 126 181 131
0.0744978 0.362021 0.980604 137 174 253
0.0702657 0.518124 0.0285794 136 194 131
-0.13473 0.414215 -0.145725 110 180 109
0.00858911 -0.0979313 -0.798451 129 115 26
0.0748322 -0.137383 -0.804908 137 110 25
0.07649 0.122025 -0.291155 137 143 90
0.11753 -0.20888 -0.811555 142 101 24
0.0478761 0.465003 0.225872 134 187 156
-0.134728 0.154396 0.678446 110 147 214
-0.0323236 -0.530289 -0.442341 123 60 71
0.0541131 -0.0532018 -0.0226796 134 121 125
0.0155509 0.519206 0.0660413 129 194 136
0.116827 0.341877 -0.0278474 142 171 124
0.132271 0.277686 -0.198637 144 163 102
0.137069 -0.492948 -0.775674 145 65 29
-0.150877 -0.264211 -0.751244 108 94 32
-0.148707 0.39847 -0.671657 109 178 42
-0.145761 0.239957 -0.393125 109 158 77
-0.13897 0.389645 -0.0294256 110 177 124
0.141358 0.020974 -0.676428 146 130 41
0.101953 0.348116 0.736298 140 172 221
0.0913055 0.46633 -0.125691 139 187 111
0.0714368 0.40866 0.875361 137 180 239
-0.0760131 0.522921 -0.145228 118 194 109
-0.118683 0.381128 0.68535 112 176 215
-0.135623 0.185548 -0.310514 110 151 88
0.0311003 -0.0411567 -0.21892 131 122 100
-0.0621647 0.135282 -0.205827 120 145 101
0.0659609 0.124442 0.790079 136 143 228
-0.0144821 -0.0407104 -0.100847 126 122 115
-0.150281 -0.332096 -0.737708 108 85 33
0.108466 0.154342 0.635935 141 147 209
-0.123478 0.211531 -0.862563 112 154 18
-0.114161 0.45727 -0.170466 113 186 106
0.0748207 0.132668 -0.169397 137 144 106
-0.128733 -0.108569 -0.755504 111 114 31
0.116816 0.307223 0.838476 142 167 234
-0.0285037 0.22537 0.952875 124 156 249
0.0930578 0.507467 -0.587933 139 192 53
0.133809 0.0132678 -0.481771 145 129 66
-0.0672736 -0.0805182 -0.323099 119 117 86
0.146631 0.432894 -0.539797 146 183 59
-0.14693 0.255182 0.018653 109 160 130
0.049627 -0.213474 -0.436884 134 100 72
0.110393 0.132053 -0.12227 142 144 112
0.135322 -0.519437 -0.618387 145 61 49
0.109409 0.159845 0.147631 141 148 146
0.0107652 0.0569488 -0.280328 129 135 92
0.135169 -0.201795 -0.549517 145 102 57
0.0928412 0.118947 0.500875 139 143 191
-0.143217 0.00409997 -0.697709 109 128 39
0.123826 0.210323 -0.329797 143 154 85
0.112609 0.492123 -0.606475 142 190 50
-0.141113 -0.483657 -0.569405 110 66 55
0.131074 -0.0444123 -0.47758 144 122 67
0.00619336 0.445206 -0.784282 128 184 28
-0.135959 0.325313 0.386537 110 169 177
0.128432 0.266595 0.134344 144 161 145
0.0506127 0.0940166 0.66401 134 139 212
0.143225 0.341818 -0.578957 146 171 54
-0.152542 0.291132 0.913817 108 165 244
0.130493 0.215393 -0.221486 144 155 99
-0.147362 0.293876 -0.160058 109 165 107
-0.136296 0.323105 0.178807 110 169 150
0.0372246 0.082722 0.165458 132 138 149
0.0518794 0.565869 -0.658085 134 200 44
-0.136728 0.333811 0.931541 110 170 246
0.0443765 0.475674 0.734609 133 188 221
-0.0479392 0.422027 -0.80461 121 181 25
-0.0421728 0.484998 0.341346 122 189 171
-0.145901 -0.0421774 -0.527576 109 122 60
0.0043683 0.45989 0.631471 128 186 208
-0.0785428 0.113473 0.0609529 117 142 135
0.00146959 -0.250304 -0.436261 128 96 72
0.11659 0.187739 0.0222761 142 151 130
-0.0170892 0.0560404 -0.301916 125 135 89
-0.144381 0.188092 0.772355 109 151 226
0.0774813 0.425583 0.433042 137 182 183
-0.0231114 -0.0823398 -0.013204 125 117 126
-0.0342066 0.502774 -0.00074689 123 192 127
-0.00348456 0.457879 -0.00617751 127 186 127
0.00272245 -0.0866558 -0.0174552 128 116 125
-0.134433 0.458127 -0.65746 110 186 44
-0.125904 0.111414 -0.701591 111 142 38
0.0999385 0.129382 0.540804 140 144 196
0.0481697 0.114661 0.044153 134 142 133
0.141903 0.118435 -0.660836 146 143 43
-0.0926743 0.110432 0.0881544 116 142 139
0.0534792 0.244528 -0.893293 134 159 14
0.12462 0.0765726 -0.711492 143 137 37
0.119017 0.301358 0.560841 143 166 199
0.135648 -0.507048 -0.82824 145 63 22
-0.13942 -0.508428 -0.688626 110 63 40
-0.148569 0.0294001 -0.63949 109 131 46
-0.0720197 -0.342683 -0.469439 118 84 68
-0.148378 0.220522 0.280553 109 156 163
-0.0368308 -0.564967 -0.500326 123 55 64
0.142685 -0.19996 -0.61077 146 102 50
0.0975904 -0.543184 -0.467408 140 58 68
-0.11969 0.379199 0.865756 112 176 238
-0.0903612 0.047456 -0.33437 116 134 85
-0.0870691 0.481143 0.109582 116 189 141
-0.115856 0.49565 -0.705175 113 191 38
-0.0446362 0.520768 -0.0102319 122 194 126
-0.14238 0.398199 -0.208473 109 178 101
-0.123132 0.387606 0.0887005 112 177 139
-0.0398077 0.0710333 0.772532 122 137 226
0.0247985 -0.0915489 -0.0775773 131 116 118
-0.0618327 0.479642 0.31809 120 189 168
-0.150341 0.369766 -0.565988 108 175 55
-0.0513326 0.484341 0.282943 121 189 164
-0.143371 0.305503 0.507557 109 166 192
0.128442 0.230205 0.108827 144 157 141
-0.149286 0.422494 -0.565055 108 181 55
0.0906558 0.391544 0.421597 139 177 181
-0.149322 0.0837626 -0.6354 108 138 46
-0.132223 0.431365 -0.476371 111 182 67
-0.0680854 -0.4478 -0.477829 119 70 67
0.114457 0.177541 0.265425 142 150 161
-0.118793 0.448545 0.0146736 112 185 129
0.124612 0.109994 -0.723763 143 142 35
0.157452 0.123613 -0.514125 148 143 62
-0.00246659 0.158447 -0.909967 127 148 11
-0.0690694 0.150625 0.908367 119 147 243
-0.0210244 0.529419 -0.427415 125 195 73
0.150311 -0.442461 -0.696667 147 71 39
-0.0236748 0.128936 -0.118866 124 144 112
0.0542387 0.126966 -0.264632 134 144 94
0.0950915 0.117351 -0.302616 140 142 89
0.129591 0.277198 0.026362 144 163 131
-0.136915 0.426816 -0.633371 110 182 47
0.112603 0.172081 0.517347 142 149 193
0.0543351 0.521117 -0.0665845 134 194 119
0.126266 0.22658 0.401256 144 156 179
0.136237 0.0714504 -0.460734 145 137 69
0.0333582 -0.00722347 -0.765435 132 127 30
-0.147906 0.2729 -0.257098 109 162 95
0.0819854 0.514345 -0.204145 138 193 101
-0.1172 -0.560006 -0.669522 113 56 42
0.117946 0.182818 -0.0772178 143 151 118
-0.0270935 -0.0251675 -0.292847 124 124 90
0.0447863 0.472898 0.829087 133 188 233
-0.0448406 -0.162306 -0.82676 122 107 22
0.123902 0.200618 0.479316 143 153 189
0.125972 0.262946 0.493382 144 161 190
-0.0677529 -0.0195464 -0.0183238 119 125 125
0.0432142 0.47547 0.370104 133 188 175
-0.1274 0.460641 -0.402427 111 186 76
-0.133362 0.225689 -0.751881 110 156 32
0.0681103 0.458794 0.77059 136 186 226
-0.080712 0.47261 0.782211 117 188 227
0.116587 0.273692 -0.833801 142 162 21
0.0981302 0.0536401 -0.341867 140 134 84
-0.131522 0.338502 0.124589 111 171 143
0.0113627 -0.00424601 -0.293215 129 127 90
0.143307 -0.353719 -0.649275 146 82 45
0.117821 -0.374735 -0.520477 143 80 61
0.0516433 0.0997528 0.461043 134 140 186
-0.0745155 -0.157292 -0.431787 118 107 72
-0.100579 0.43138 0.54829 115 183 197
0.0276659 0.472611 0.23544 131 188 158
0.148631 -0.365458 -0.750948 146 81 32
0.134492 0.233439 -0.83405 145 157 21
-0.114798 0.116175 0.778371 113 142 227
0.130488 0.266601 -0.301984 144 161 89
0.0758745 0.453038 0.241453 137 185 158
0.111836 -0.0883068 -0.424003 142 116 73
0.126599 0.218211 0.333022 144 155 170
0.112371 -0.319525 -0.861932 142 87 18
-0.103285 0.503919 -0.139478 114 192 110
-0.118088 0.381949 0.261304 112 176 161
-0.136466 0.40212 -0.452098 110 179 70
0.00499478 -0.0550237 -0.00123137 128 120 127
-0.132914 0.0163847 -0.399641 111 130 77
-0.145882 -0.112907 -0.548615 109 113 58
0.0623766 0.0670849 -0.332407 135 136 85
0.0307085 0.0864557 0.669405 131 139 213
-0.0636115 0.483666 0.802012 119 189 230
-0.148411 -0.14133 -0.604192 109 109 50
0.134961 0.264485 -0.826685 145 161 22
0.0805819 0.458641 0.110398 138 186 142
-0.150765 -0.205617 -0.70931 108 101 37
0.0344749 0.508336 -0.582109 132 192 53
0.109973 0.437339 -0.0764605 142 183 118
-0.0208668 0.164599 -0.948551 125 148 7
-0.129808 0.458348 -0.688235 111 186 40
0.10709 0.502124 -0.518882 141 192 61
0.0509554 -0.558154 -0.448579 134 56 70
-0.125185 0.148516 -0.69326 112 146 39
-0.00159279 0.0682558 0.762134 127 136 225
0.102459 0.133465 -0.16982 141 145 106
-0.0124129 -0.0936723 -0.377878 126 116 79
0.00116562 0.447731 -0.886164 128 185 15
-0.0828826 0.516509 -0.356661 117 193 82
-0.147786 -0.132567 -0.584266 109 111 53
-0.121146 0.23529 -0.855342 112 157 18
-0.00414205 -0.0825709 -0.316799 127 117 87
-0.0118115 0.0812491 0.100093 126 138 140
-0.149382 0.424679 -0.505373 108 182 63
-0.097388 0.463353 0.445562 115 187 184
-0.146754 0.269865 -0.0109725 109 162 126
0.0955529 0.101543 -0.0790517 140 140 117
-0.0383169 0.442172 -0.872107 123 184 16
0.147858 -0.375105 -0.712909 146 80 37
0.126731 0.350117 -0.264975 144 172 94
-0.103103 0.469809 -0.1353 114 187 110
-0.119415 0.381326 0.516831 112 176 193
-0.0827237 -0.553917 -0.788346 117 57 27
-0.0180987 0.0967279 0.063881 125 140 136
-0.0423359 0.524005 -0.194308 122 194 103
-0.150667 0.252229 0.579218 108 160 201
-0.106044 0.510367 -0.498973 114 193 64
-0.08381 0.517647 -0.433717 117 193 72
0.123108 0.198767 0.291846 143 153 165
0.122724 0.30063 0.330513 143 166 170
0.0956396 0.376946 0.461616 140 176 186
0.0339247 0.562241 -0.690675 132 199 39
0.0107276 -0.0354365 -0.202823 129 123 102
-0.13273 0.225998 -0.827966 111 156 22
-0.0259084 0.47902 0.478776 124 189 189
0.0788144 0.165096 0.913807 138 149 244
-0.124764 0.151956 -0.726838 112 147 35
-0.111215 0.399565 0.696213 113 178 216
-0.134415 0.351034 0.0916594 110 172 139
0.106936 0.350936 0.374658 141 172 175
0.133545 0.339854 -0.678785 145 171 41
0.124799 0.250422 0.604954 143 159 205
0.0660642 0.093713 0.72228 136 139 220
-0.127609 0.359047 0.335739 111 173 170
0.126982 0.135638 -0.404109 144 145 76
-0.0438643 0.515028 0.917804 122 193 245
0.145348 0.400319 -0.675307 146 179 41
0.041258 0.0150057 -0.761719 133 129 30
0.136081 0.304105 -0.772962 145 166 29
-0.148481 -0.471047 -0.631078 109 67 47
0.110549 0.157138 0.600732 142 148 204
0.0153142 0.4802 0.738906 129 189 222
-0.133092 0.208448 -0.474576 111 154 67
-0.0165383 0.0748463 0.560636 125 137 199
-0.0277431 0.0903569 -0.25383 124 139 95
-0.0472308 0.0984491 0.810048 121 140 231
0.134626 -0.515458 -0.53734 145 62 59
-0.0156741 0.0335398 -0.291148 126 132 90
0.0307924 0.483414 0.796791 131 189 229
-0.110091 0.406346 0.525417 113 179 194
-0.0701111 -0.125826 -0.420252 119 111 74
0.0701471 -0.0645307 -0.302769 136 119 89
0.135452 0.0471833 -0.469356 145 134 68
-0.133047 0.00794635 -0.360924 111 129 81
-0.123941 0.193372 -0.676578 112 152 41
0.0884442 0.376951 0.918756 139 176 245
0.126894 0.279198 0.75538 144 163 224
-0.136603 0.208067 -0.169656 110 154 106
0.0829367 0.466028 0.0714754 138 187 137
-0.118815 0.382607 0.58444 112 176 202
-0.125911 0.363249 0.852129 111 174 236
0.133491 -0.0994299 -0.517251 145 115 62
0.0697867 0.106351 0.558233 136 141 199
0.136262 -0.485448 -0.702391 145 66 38
0.12435 0.287803 0.466721 143 164 187
0.0145688 0.490015 0.858512 129 190 237
-0.0899733 0.51376 -0.320826 116 193 87
0.0806776 0.120327 0.474656 138 143 188
-0.139168 -0.0489655 -0.717826 110 121 36
-0.128291 -0.282015 -0.83515 111 92 21
-0.00481129 0.519107 -0.0233385 127 194 125
-0.111809 -0.162173 -0.798487 113 107 26
0.0341366 -0.527768 -0.810889 132 60 24
0.0988881 -0.562363 -0.558438 140 56 56
-0.141613 -0.330419 -0.58792 109 85 53
-0.00976351 0.49259 0.76759 126 190 225
0.100808 -0.189355 -0.81702 140 103 23
-0.148274 -0.275104 -0.673185 109 92 42
0.100324 0.185056 -0.943889 140 151 7
-0.144013 0.194045 0.49705 109 152 191
0.121454 0.198066 -0.367424 143 153 81
0.131925 0.236395 -0.181511 144 158 104
-0.037829 0.0706471 0.69073 123 137 216
0.0241603 0.527566 -0.407011 131 195 76
-0.0699551 -0.070669 -0.21366 119 118 100
0.121041 0.128907 -0.315656 143 144 87
0.104252 0.22365 -0.939017 141 156 8
0.124283 0.201927 0.432428 143 153 183
-0.146366 0.296256 -0.0473022 109 165 121
0.0799097 0.487111 -0.151581 138 190 108
0.152047 -0.451999 -0.72817 147 70 35
-0.147774 0.0494392 -0.551107 109 134 57
0.0750214 0.449354 0.527241 137 185 195
-0.111685 -0.399797 -0.883687 113 77 15
-0.103637 0.494988 0.0849415 114 191 138
-0.148068 0.238353 -0.233021 109 158 98
-0.0427288 0.440251 -0.786315 122 184 27
0.0308917 -0.0385783 -0.261779 131 123 94
0.132301 0.252174 -0.200822 144 160 102
0.0411197 0.0840317 0.779564 133 138 227
0.0521442 0.381205 0.999358 134 176 255
0.0190636 -0.0877713 -0.25146 130 116 95
-0.12306 0.443196 -0.128293 112 184 111
-0.132131 -0.0482935 -0.345983 111 121 83
0.142123 -0.443943 -0.605198 146 71 50
0.139558 -0.16953 -0.566844 145 106 55
-0.0875869 -0.514863 -0.464651 116 62 68
0.145271 -0.252773 -0.679118 146 95 41
0.132104 0.376342 -0.316356 144 175 87
-0.14814 0.251074 -0.264843 109 160 94
-0.0149901 -0.0870368 -0.243203 126 116 96
-0.062489 0.0795172 0.671314 120 138 213
0.106347 0.461274 -0.757579 141 186 31
-0.147282 0.330846 -0.21691 109 170 100
-0.136237 0.182161 -0.656418 110 151 44
-0.0437465 0.526137 -0.392076 122 195 78
-0.0573104 0.0716739 0.712529 120 137 218
-0.0160363 0.134977 -0.199139 125 145 102
-0.142558 -0.0154943 -0.495554 109 126 64
0.0935529 0.396161 0.137995 139 178 145
0.0841031 0.28097 0.968545 138 163 251
-0.0445245 0.519699 0.0701332 122 194 136
0.132862 0.333616 -0.715526 144 170 36
0.137051 -0.506615 -0.757499 145 63 31
-0.145936 0.312504 -0.172686 109 167 105
-0.150363 0.10866 -0.587282 108 141 53
0.138761 -0.416621 -0.594226 145 74 52
-0.0182079 0.477438 0.605159 125 188 205
-0.132149 0.188082 -0.503541 111 151 63
-0.0698284 -0.0559601 -0.248436 119 120 96
-0.115667 0.388763 0.828073 113 177 233
-0.0277493 0.089897 -0.325749 124 139 86
-0.031523 -0.0255505 -0.223833 123 124 99
0.143188 0.00626259 -0.600345 146 128 51
-0.150093 -0.0767947 -0.625132 108 118 48
0.0394701 0.238029 -0.925042 133 158 10
-0.0440545 -0.332839 -0.8983 122 85 13
-0.147765 -0.164238 -0.571254 109 107 55
-0.0316401 -0.257177 -0.874292 123 95 16
0.0363399 0.41263 -0.832854 132 180 21
0.113719 0.317441 0.493937 142 168 190
0.134462 0.261957 -0.749156 145 161 32
0.11267 0.182232 0.535304 142 151 196
0.1476 0.396659 -0.541529 146 178 58
0.110661 0.161709 0.7036 142 148 217
-0.138503 -0.0993534 -0.480885 110 115 66
-0.0436721 0.257232 -0.85561 122 160 18
-0.132459 0.421376 -0.0533768 111 181 121
-0.138938 -0.485636 -0.768073 110 66 30
0.0466435 0.476396 0.667183 133 188 213
0.0445508 0.0551151 -0.763903 133 135 30
-0.149693 -0.0720822 -0.646532 108 118 45
0.131479 -0.30038 -0.832526 144 89 21
-0.0877445 0.104695 0.260269 116 141 161
0.0346835 0.297132 0.99571 132 165 254
-0.0420558 0.0882804 0.586685 122 139 202
-0.123153 0.148646 0.229178 112 146 157
-0.141709 -0.198872 -0.525269 109 102 61
0.125201 0.212386 0.541521 143 155 197
-0.0981303 0.516434 -0.09492 115 193 115
0.0747683 -0.534006 -0.455791 137 59 69
0.0469801 0.142944 0.856897 133 146 237
-0.142009 0.0384886 -0.485494 109 132 66
0.102232 0.23884 0.948936 141 158 248
-0.13748 0.269704 -0.786031 110 162 27
-0.0351084 0.470946 0.137081 123 188 145
-0.0880961 0.118577 0.838631 116 143 234
-0.08791 0.126724 0.42865 116 144 182
0.0720311 0.129581 0.0929744 137 144 139
-0.00367304 0.522468 -0.147324 127 194 109
-0.0327843 0.00960906 -0.221669 123 129 99
0.0390843 0.0800963 0.541452 132 138 197
-0.14314 0.190009 0.614237 109 152 206
-0.14519 -0.151777 -0.536435 109 108 59
-0.0136746 0.086805 0.587289 126 139 202
-0.147587 0.222253 0.182346 109 156 151
-0.146589 0.359991 -0.203389 109 173 102
-0.138716 -0.511506 -0.795918 110 62 26
-0.154805 -0.458984 -0.744723 108 69 33
0.0743475 0.516469 0.0524664 137 193 134
-0.106157 0.208568 0.936969 114 154 247
0.0787484 0.419557 0.504122 138 181 192
0.132926 0.278723 -0.259069 144 163 94
-0.00434105 0.0857279 0.336072 127 138 170
0.0768513 -0.11259 -0.418942 137 113 74
0.0158727 0.247638 -0.884091 130 159 15
0.122282 0.197175 0.498726 143 153 191
-0.122899 0.147204 0.205463 112 146 154
0.00324732 0.525686 -0.274393 128 195 93
-0.13328 0.437931 -0.272768 111 183 93
0.0255371 -0.274862 -0.443595 131 92 71
0.00635101 -0.205286 -0.851575 128 101 19
-0.0703341 -0.0662158 -0.123688 119 119 112
0.094838 0.175404 -0.903314 140 150 12
-0.0945326 0.109163 0.294579 115 141 165
0.0869781 -0.368154 -0.486004 139 81 66
0.0568129 -0.139915 -0.811556 135 110 24
-0.106133 0.405084 0.905581 114 179 243
-0.124018 -0.466295 -0.512555 112 68 62
-0.0106504 0.415683 -0.881612 126 180 15
0.01058 -0.341134 -0.902759 129 84 12
0.124146 0.249069 0.673638 143 159 213
-0.0803897 0.517942 -0.400157 117 194 76
0.142666 -0.229256 -0.631718 146 98 47
0.028644 0.226665 0.95447 131 156 249
0.104298 0.033723 -0.740573 141 132 33
0.0488706 0.0772621 0.635079 134 137 208
0.133749 -0.389056 -0.853656 145 78 19
-0.0173844 0.082495 0.40483 125 138 179
0.122235 0.285579 0.945618 143 164 248
-0.134531 0.160223 0.414856 110 148 180
0.0564398 0.0988793 0.0117094 135 140 129
-0.0802533 0.0895454 0.299146 117 139 166
0.0913862 0.162877 -0.84456 139 148 20
-0.148326 0.209051 0.854806 109 154 236
0.124761 0.215973 -0.640745 143 155 46
0.138644 0.17279 -0.435085 145 150 72
0.117078 0.197785 -0.00921593 142 153 126
0.124453 0.187842 -0.332209 143 151 85
-0.0350032 -0.0968609 -0.384734 123 115 78
-0.0676728 0.0740648 0.623577 119 137 207
-0.150059 0.11479 -0.556891 108 142 56
-0.0537845 0.082048 0.207901 121 138 154
0.037149 -0.0898579 -0.0296832 132 116 124
-0.149195 0.263002 0.406792 108 161 179
0.0359926 0.145666 -0.838997 132 146 21
-0.148434 0.205634 0.874494 109 154 239
0.141161 0.171687 -0.513742 145 149 62
0.113731 0.318165 0.754333 142 168 224
0.0330703 0.0724793 -0.000424199 132 137 127
-0.143073 0.301263 -0.49885 109 166 64
-0.0673291 -0.0797732 -0.287394 119 117 91
-0.131311 0.340794 -0.701063 111 171 38
0.127206 0.222347 -0.346334 144 156 83
-0.0827249 0.467345 0.294384 117 187 165
0.144612 -0.15682 -0.685535 146 108 40
-0.00971378 0.167378 0.924187 126 149 245
0.0577327 -0.563089 -0.605278 135 56 50
-0.143634 0.192987 0.516341 109 152 193
-0.134214 0.341854 0.783858 110 171 227
-0.134016 0.377198 -0.739928 110 176 33
-0.141263 0.135667 -0.528639 109 145 60
-0.059482 0.524583 -0.454192 120 194 70
-0.137972 0.262734 0.954201 110 161 249
0.0516071 0.0893105 0.404774 134 139 179
-0.143308 -0.0710097 -0.505508 109 118 63
-0.00419835 0.439599 0.0561145 127 184 135
0.117707 0.157796 -0.0634325 143 148 119
0.144051 -0.327667 -0.808528 146 86 24
0.13511 -0.298808 -0.569231 145 89 55
0.0449549 0.508426 -0.525453 133 192 61
0.0950759 0.384993 0.249975 140 177 159
0.117967 0.308014 0.4612 143 167 186
-0.0993956 0.135367 -0.209894 115 145 101
-0.086963 -0.279415 -0.86804 116 92 17
0.0900773 -0.341061 -0.883554 139 84 15
-0.0504952 0.515292 -0.512082 121 193 62
-0.0948191 0.471487 0.245576 115 188 159
-0.0202623 -0.0982791 -0.798254 125 115 26
-0.0221772 -0.0905491 -0.0936877 125 116 116
0.0382754 -0.0905262 -0.112937 132 116 113
-0.147211 0.0243917 -0.539025 109 131 59
0.00311432 0.119643 -0.803459 128 143 25
0.0720943 0.443838 0.946 137 184 248
-0.0381762 -0.56127 -0.704474 123 56 38
0.100538 0.369538 0.309565 140 175 167
-0.124867 0.133111 0.477478 112 144 188
0.0737907 0.43967 0.415119 137 184 180
0.131453 0.339079 -0.64015 144 171 46
-0.0390204 0.248421 -0.881811 123 159 15
-0.054961 0.523113 -0.134844 120 194 110
-0.142039 0.254929 -0.375589 109 160 80
-0.0876694 0.08298 0.696022 116 138 216
-0.0647016 -0.513695 -0.455773 119 62 69
0.0705095 0.517778 -0.372602 136 194 80
0.0429673 -0.0998774 -0.393065 133 115 77
-0.116364 -0.466976 -0.881681 113 68 15
0.0865512 -0.311996 -0.877074 139 88 16
-0.13932 0.383644 -0.050704 110 176 121
0.12851 0.376758 -0.520366 144 176 61
-0.145953 0.334345 -0.557649 109 170 56
-0.136548 -0.469783 -0.557084 110 68 56
-0.133785 0.311761 -0.598395 110 167 51
0.0482717 0.474779 0.79084 134 188 228
0.0746794 0.449917 0.37892 137 185 176
-0.132852 0.438298 -0.322827 111 183 86
-0.137325 0.164037 0.563576 110 148 199
0.0860596 0.118122 0.534073 138 143 196
0.122497 0.297872 0.409868 143 165 180
0.141436 -0.181455 -0.591109 146 104 52
-0.12943 0.357981 0.117131 111 173 142
0.103837 0.502877 -0.328425 141 192 86
0.0566289 0.478362 0.432749 135 188 183
-0.0912217 0.113593 0.46272 116 142 186
-0.00874694 0.448595 0.98473 126 185 253
-0.141345 0.314673 -0.0770316 109 168 118
-0.14374 0.087066 -0.681017 109 139 41
0.114859 0.186019 0.582303 142 151 202
0.00536783 -0.564885 -0.505047 128 55 63
0.0156844 -0.0410234 -0.167576 129 122 106
-0.142649 0.184828 0.881661 109 151 240
0.127948 0.213397 -0.0793541 144 155 117
-0.0429796 0.504436 0.878405 122 192 239
0.14972 -0.406163 -0.765877 147 76 30
-0.0798459 0.438485 0.184538 117 183 151
0.0802631 0.420783 0.34031 138 181 171
0.0542565 -0.0222181 -0.0300775 134 125 124
0.126538 0.278431 0.794826 144 163 229
0.0485467 -0.527134 -0.841553 134 60 20
0.008942 0.509358 -0.524388 129 192 61
0.136727 0.287714 -0.79129 145 164 27
-0.147648 -0.316404 -0.799947 109 87 26
0.0258894 0.0823929 0.217934 131 138 155
0.0875169 0.550031 -0.655298 139 198 44
0.0308732 -0.311912 -0.452476 131 88 70
0.151677 -0.431253 -0.749542 147 73 32
-0.1249 0.474827 -0.308832 112 188 88
0.0979298 0.378152 -0.810598 140 176 24
-0.147813 0.219968 0.222844 109 156 156
0.00452611 -0.0416949 -0.101616 128 122 115
-0.154138 -0.435826 -0.736228 108 72 34
-0.131893 0.338595 -0.00148715 111 171 127
0.0785835 0.39646 0.910924 138 178 244
-0.12163 0.486488 -0.392165 112 190 77
0.134642 -0.0882159 -0.729876 145 116 34
0.0300439 0.522734 -0.134486 131 194 110
0.0232748 0.0808524 0.365372 130 138 174
0.0597221 0.0862748 0.616029 135 139 206
-0.0406541 -0.555479 -0.795546 122 57 26
0.071771 0.432972 0.604799 137 183 205
0.0716361 -0.336599 -0.471089 137 85 67
-0.0682769 -0.560325 -0.728418 119 56 35
0.0506306 0.523573 -0.180542 134 194 104
-0.102419 0.42509 0.336312 114 182 170
0.123164 0.284353 0.634019 143 164 208
-0.0912538 0.475904 0.172213 116 188 149
0.0993204 0.126469 0.622082 140 144 207
0.0925751 0.370375 0.766107 139 175 225
0.0759027 0.0828336 -0.0693153 137 138 119
-0.141374 -0.506255 -0.540122 109 63 59
0.079692 0.0770291 -0.0119163 138 137 126
0.000550718 -0.36292 -0.459643 128 81 69
-0.0874378 0.0769653 -0.00767483 116 137 127
-0.134253 0.102594 -0.0277398 110 141 124
0.0101948 0.183022 -0.995221 129 151 1
-0.148553 -0.0192363 -0.666568 109 125 43
0.131525 0.267282 -0.144745 144 162 109
0.081321 0.291775 -0.838264 138 165 21
0.118753 0.347714 0.0237863 143 172 131
-0.132209 0.422364 -0.0899947 111 181 116
0.0396397 -0.417309 -0.91096 133 74 11
-0.138612 -0.405671 -0.852554 110 76 19
0.0760007 0.410394 0.75034 137 180 223
-0.0727789 0.522371 -0.594788 118 194 52
-0.10295 0.510769 -0.432798 114 193 72
0.0701139 0.1413 -0.815453 136 146 24
0.0490125 0.473981 0.479557 134 188 189
0.0546414 0.477781 0.515936 134 188 193
0.0942663 0.102286 -0.319483 140 141 87
0.0473931 -0.563627 -0.542237 134 56 58
0.00526816 0.129759 -0.143098 128 144 109
-0.0714404 -0.564541 -0.480567 118 56 66
0.0971455 0.371938 0.482863 140 175 189
-0.136178 0.426002 -0.226911 110 182 99
-0.135069 0.138338 -0.395659 110 145 77
-0.125419 0.128263 0.623502 112 144 207
0.134797 0.256332 -0.591829 145 160 52
-0.148467 -0.233214 -0.637996 109 98 46
0.0132763 0.271597 -0.85208 129 162 19
0.0606811 0.218004 -0.979345 135 155 3
0.131509 -0.532109 -0.5027 144 60 63
0.0254395 0.0782887 0.495334 131 137 191
0.111335 0.171877 0.655863 142 149 211
-0.0945707 0.463749 0.811584 115 187 231
0.101278 0.362894 0.448286 140 174 185
-0.0336334 0.471505 0.553696 123 188 198
0.0821811 0.489523 0.0418611 138 190 133
-0.00954135 0.481497 0.508203 126 189 192
-0.109225 -0.0781086 -0.76317 114 118 30
-0.0185318 -0.561975 -0.67259 125 56 42
0.0113173 0.516961 0.895247 129 193 242
0.136168 -0.394943 -0.564331 145 77 56
-0.0374491 0.408731 -0.840645 123 180 20
0.123534 0.383102 -0.137509 143 176 110
-0.145743 0.217791 -0.283857 109 155 91
0.143971 -0.207194 -0.748656 146 101 32
0.0202288 0.458873 0.711569 130 186 218
-0.122448 -0.56171 -0.529779 112 56 60
-0.150815 -0.372381 -0.738947 108 80 33
-0.093094 0.260505 -0.846735 116 161 20
-0.144947 -0.104134 -0.715831 109 114 36
-0.13495 0.191261 0.16652 110 152 149
0.0930918 0.374927 0.642251 139 175 209
0.10311 -0.444183 -0.889119 141 71 14
-0.143267 -0.081409 -0.71641 109 117 36
0.0391528 -0.532983 -0.444629 132 60 71
-0.133765 0.318624 -0.635529 110 168 46
0.121999 0.196375 0.601521 143 153 204
-0.106896 0.119076 0.648862 114 143 210
-0.139975 0.331466 -0.354114 110 170 82
0.0177514 0.488236 0.761268 130 190 225
-0.106702 0.411741 0.267242 114 180 162
-0.110398 0.0146415 -0.739799 113 129 33
-0.0903908 -0.0397883 -0.30005 116 122 89
-0.0696234 0.299676 0.99503 119 166 254
0.131907 0.313826 -0.182045 144 168 104
0.112183 0.313859 0.929237 142 168 246
0.124221 0.190984 -0.7601 143 152 31
-0.0387115 0.0824813 0.337909 123 138 171
0.127435 0.216857 0.178097 144 155 150
-0.148003 -0.454732 -0.615312 109 70 49
0.0269194 0.401928 0.996687 131 179 255
0.00334524 -0.560629 -0.781524 128 56 28
0.13411 -0.134327 -0.515783 145 110 62
-0.0781696 0.0895663 0.376987 118 139 176
-0.136076 0.188806 0.27013 110 152 162
-0.00966939 0.082737 0.515045 126 138 193
-0.0855649 -0.336015 -0.887219 117 85 14
-0.0909212 0.128182 0.318135 116 144 168
0.131601 0.258955 -0.421793 144 161 74
-0.0604124 0.138717 -0.817113 120 145 23
0.112664 0.317008 0.569229 142 168 200
0.123751 0.0213223 -0.715904 143 130 36
-0.0163882 -0.0389447 -0.250154 125 123 96
0.128146 -0.198447 -0.792587 144 102 26
-0.1374 0.171431 0.494662 110 149 191
-0.0931034 -0.0955658 -0.404744 116 115 76
0.0870297 -0.47666 -0.479813 139 67 66
-0.024047 0.466285 -0.867307 124 187 17
0.111719 0.439778 -0.182165 142 184 104
-0.0217422 0.486637 0.271005 125 190 162
0.0824197 0.490867 -0.0334751 138 190 123
-0.134407 0.338913 0.586933 110 171 202
0.122279 0.436518 -0.341593 143 183 84
-0.14921 -0.177149 -0.597167 108 105 51
-0.00347542 0.0784713 0.673042 127 138 213
-0.0916618 0.418363 0.825802 116 181 233
0.0737995 0.468168 0.208593 137 187 154
-0.140883 -0.316795 -0.553738 110 87 57
0.0274413 0.525734 -0.32366 131 195 86
0.134511 0.275067 -0.656426 145 163 44
0.00405082 0.237921 -0.926837 128 158 9
0.0183526 0.116934 -0.247622 130 142 96
-0.0260705 -0.56391 -0.562472 124 56 56
0.111318 0.494477 -0.540615 142 191 59
0.00824573 -0.373824 -0.909646 129 80 12
-0.0193455 0.114207 0.0413146 125 142 133
0.138357 -0.478539 -0.592784 145 66 52
-0.110219 0.157143 0.842258 113 148 235
-0.141049 0.323414 0.729386 110 169 220
-0.150824 0.266813 0.607898 108 162 205
0.101245 0.372175 0.188407 140 175 152
-0.00332425 0.524187 -0.220608 127 194 99
-0.150356 -0.228625 -0.665118 108 98 43
-0.10041 -0.517906 -0.865183 115 61 17
0.120485 0.192877 0.650103 143 152 210
0.122781 0.431963 -0.303289 143 183 89
0.0495976 -0.559596 -0.775371 134 56 29
-0.140943 -0.522361 -0.57783 110 61 54
-0.138668 0.392949 -0.0773185 110 178 118
0.129014 -0.433982 -0.864765 144 72 17
-0.145697 -0.00793412 -0.524004 109 126 61
-0.127882 0.450906 -0.491627 111 185 65
0.0303227 -0.52169 -0.85757 131 61 18
0.000748747 0.323422 -0.839801 128 169 20
-0.0343304 -0.203268 -0.429429 123 102 73
0.154289 0.141765 -0.52051 147 146 61
0.109431 0.339964 0.470019 141 171 187
0.12611 0.410238 -0.267993 144 180 93
-0.0743243 0.386585 -0.816706 118 177 23
-0.149456 -0.434224 -0.646606 108 72 45
-0.0445909 0.318928 -0.840068 122 168 20
-0.132774 0.417167 0.0249912 111 181 131
-0.101665 0.4225 0.183559 115 181 151
-0.0220377 0.471143 0.372623 125 188 175
0.115958 0.191868 0.0871536 142 152 139
-0.123595 0.210915 -0.801325 112 154 25
0.0728329 0.454537 0.683141 137 185 215
-0.11887 0.488815 -0.588178 112 190 53
-0.0116472 -0.0626519 -0.78338 126 120 28
0.00375166 -0.562416 -0.655952 128 56 44
0.0566393 0.0884938 0.367827 135 139 174
0.133428 0.178584 -0.396193 145 150 77
0.0940643 -0.275185 -0.860063 139 92 18
0.0704714 -0.0913352 -0.78494 136 116 27
0.0767643 -0.417309 -0.901511 137 74 13
0.133169 0.428842 -0.698128 144 182 38
0.0100465 0.114177 0.0564047 129 142 135
-0.155403 0.271792 0.868262 108 162 238
0.12796 0.27786 0.187412 144 163 151
-0.0616483 0.099563 0.319279 120 140 168
0.143457 0.0923015 -0.51339 146 139 62
-0.0796815 -0.412129 -0.486512 117 75 65
-0.0519206 0.0931135 0.660896 121 139 212
-0.149485 -0.354898 -0.800409 108 82 25
0.0359551 0.445154 0.980711 132 184 253
0.00574242 -0.0926247 -0.0452762 128 116 122
0.0617587 0.443624 0.783509 135 184 227
-0.148644 0.303594 0.81614 109 166 232
-0.0459584 -0.274634 -0.878921 122 92 15
-0.13545 0.366076 -0.646295 110 174 45
0.148696 -0.415746 -0.717152 146 74 36
0.0337803 0.520037 -0.020927 132 194 125
0.0717645 0.104951 0.138906 137 141 145
0.108954 -0.128953 -0.450294 141 111 70
-0.13661 0.237429 -0.572552 110 158 54
0.131581 0.25443 -0.521358 144 160 61
-0.156092 0.267858 0.768385 108 162 225
-0.133483 0.165055 0.236762 110 149 158
-0.00170124 0.46072 -0.835791 127 186 21
-0.0892251 0.0804744 -0.330866 116 138 85
0.124586 0.42484 -0.393339 143 182 77
0.137416 -0.208311 -0.571913 145 101 55
-0.107435 0.18175 -0.882704 114 151 15
0.131139 0.302265 -0.626138 144 166 48
0.0595094 -0.0578688 -0.280446 135 120 92
-0.0837584 -0.561304 -0.659093 117 56 43
-0.0130471 0.530504 -0.460424 126 195 69
-0.0161177 0.0799809 -0.0719652 125 138 118
-0.0229761 -0.238412 -0.434935 125 97 72
0.036858 0.100913 0.185913 132 140 151
0.119697 -0.0303478 -0.320366 143 124 87
-0.138461 0.169949 0.735799 110 149 221
-0.144137 0.176099 -0.112399 109 150 113
-0.116484 0.204571 -0.920178 113 154 10
-0.125351 0.139237 0.502349 112 145 192
-0.0969885 -0.559064 -0.749989 115 56 32
-0.136272 0.323744 0.271739 110 169 162
0.0297132 0.529908 -0.605432 131 195 50
-0.136728 0.35411 -0.0282656 110 173 124
-0.0974934 0.517594 -0.172288 115 193 106
0.118862 -0.0706075 -0.423467 143 118 74
0.00875676 -0.10527 -0.391931 129 114 78
0.118671 0.318826 0.150199 143 168 147
0.0455278 0.472793 0.863528 133 188 238
0.136414 -0.0638257 -0.53409 145 119 59
0.0117327 0.0702107 -0.771687 129 136 29
-0.00346523 0.402776 0.945494 127 179 248
-0.141645 -0.486019 -0.596897 109 66 51
0.00517744 0.149032 -0.856451 128 147 18
-0.137039 0.180717 0.458669 110 151 186
-0.146548 -0.261451 -0.788114 109 94 27
0.120067 -0.321889 -0.51699 143 86 62
-0.138098 0.158253 0.762236 110 148 225
0.103676 -0.220557 -0.46594 141 99 68
-0.033307 -0.111806 -0.803282 123 113 25
0.114294 0.0864908 -0.0233386 142 139 125
-0.0758962 -0.0665571 -0.775121 118 119 29
0.121957 0.396593 -0.0575186 143 178 120
0.108547 0.102317 0.00144816 141 141 128
-0.00771253 -0.0339798 -0.266187 127 123 94
-0.0286994 -0.130329 -0.812875 124 111 24
0.141507 -0.146661 -0.596587 146 109 51
0.00613805 0.0504166 -0.225387 128 134 99
-0.0908086 0.119811 0.664772 116 143 212
-0.0604718 0.481893 0.490149 120 189 190
-0.138993 0.360862 -0.387268 110 174 78
0.0876418 0.125099 0.18298 139 143 151
-0.0256158 0.299718 0.991427 124 166 254
-0.0992273 0.126784 0.258777 115 144 160
-0.148545 0.287315 0.442005 109 164 184
0.0187436 -0.412311 -0.470365 130 75 68
0.128258 0.2939 0.0766249 144 165 137
0.137447 -0.517717 -0.792173 145 61 26
-0.135266 0.157871 0.532686 110 148 195
0.124508 0.0579593 -0.716003 143 135 36
0.119895 0.191618 -0.204799 143 152 101
-0.135667 0.316986 -0.722001 110 168 35
-0.00278154 0.491016 0.806343 127 190 230
0.0273735 0.0513985 -0.341925 131 134 84
0.147776 -0.249747 -0.717014 146 96 36
-0.138128 -0.169338 -0.767261 110 106 30
0.0280959 0.00361718 -0.0128862 131 128 126
0.0216308 0.197542 -0.999006 130 153 0
0.108775 0.338215 0.54249 141 171 197
0.144821 0.0965494 -0.443887 146 140 71
-0.0125807 0.0414435 -0.224068 126 133 99
0.0351425 0.0850625 0.380232 132 138 176
-0.108779 0.436814 -0.786265 114 183 27
0.131044 0.408118 -0.714481 144 180 36
-0.106173 0.0793911 -0.0272488 114 138 124
-0.140714 0.367227 -0.26326 110 174 94
-0.0231267 0.527377 -0.358479 125 195 82
-0.123862 0.242305 0.949218 112 158 249
0.13967 0.0569399 -0.682634 145 135 40
-0.141322 0.322205 0.890776 109 169 241
-0.143169 0.318734 -0.311149 109 168 88
0.0989144 0.129284 0.689959 140 144 215
0.101889 0.148076 0.541717 140 146 197
-0.0782134 0.231221 -0.939174 118 157 8
0.0572853 -0.445771 -0.907651 135 71 12
0.130314 0.284705 -0.448685 144 164 70
0.010944 0.0373664 -0.29571 129 132 90
-0.138963 -0.513381 -0.765548 110 62 30
0.0216272 0.467326 0.393491 130 187 178
0.128529 0.315123 -0.27011 144 168 93
-0.115955 -0.475763 -0.496748 113 67 64
0.123865 0.28116 0.564094 143 163 199
-0.0705402 -0.0372179 -0.280009 119 123 92
-0.144123 -0.365564 -0.829718 109 81 22
-0.119122 0.482979 -0.684728 112 189 40
-0.106661 0.414297 0.608245 114 180 205
-0.132315 0.440843 -0.302877 111 184 89
0.144481 -0.459314 -0.624698 146 69 48
-0.104021 0.133982 -0.235687 114 145 97
0.0369353 -0.565017 -0.490453 132 55 65
0.147686 -0.440848 -0.661166 146 71 43
0.148155 -0.331638 -0.771263 146 85 29
0.0560517 -0.0534912 -0.23317 135 121 98
0.119807 0.406293 -0.0216567 143 179 125
-0.0988588 0.432603 0.691203 115 183 216
-0.0195215 0.234553 -0.943014 125 157 7
0.124293 0.437858 -0.742173 143 183 33
0.123726 0.427381 -0.362864 143 182 81
0.0619943 0.11493 0.0600664 135 142 135
-0.0779034 0.10415 0.013209 118 141 129
-0.116449 0.0652337 -0.349395 113 136 83
0.101394 0.148835 0.407934 140 146 180
0.0168367 -0.0386192 -0.0861733 130 123 117
0.0721015 0.414058 0.816676 137 180 232
-0.154497 -0.437307 -0.776206 108 72 29
0.0990108 0.357925 0.673398 140 173 213
0.0416179 0.0892429 0.601782 133 139 204
-0.0122463 0.142498 0.907783 126 146 243
-0.050896 -0.429127 -0.475495 121 73 67
-0.139225 0.383527 -0.128095 110 176 111
0.0990024 0.365507 0.523405 140 174 194
-0.105792 0.415632 0.313032 114 180 167
-0.135505 0.366711 -0.624718 110 174 48
0.0113775 0.129155 0.846789 129 144 235
0.133251 0.317891 -0.65495 144 168 44
-0.142274 -0.252422 -0.56517 109 95 55
0.0500102 0.0197693 -0.327593 134 130 86
0.0410309 0.507535 -0.564093 133 192 56
-0.0876799 0.116841 0.625606 116 142 207
0.11822 0.182147 -0.0978259 143 151 115
-0.147947 0.0745946 -0.559875 109 137 56
-0.140077 0.32666 0.775047 110 169 226
0.102205 0.137342 0.247968 141 145 159
0.0114291 0.466415 0.220027 129 187 156
-0.0228614 -0.0227267 -0.00741364 125 125 127
-0.0167379 -0.562771 -0.799342 125 56 26
-0.0286171 0.512107 -0.519792 124 193 61
0.0733098 0.113234 0.824793 137 142 233
-0.0880516 -0.56053 -0.693055 116 56 39
0.0196524 -0.0807083 -0.334534 130 117 85
0.0554362 0.303032 0.97933 135 166 252
0.037224 -0.244926 -0.439861 132 96 71
-0.0273752 0.520558 -0.590896 124 194 52
0.137241 0.00348714 -0.51702 145 128 62
0.00480285 0.416822 -0.00186254 128 181 127
-0.150738 0.269637 0.586764 108 162 202
0.063007 0.455455 0.712369 136 186 218
0.0482597 -0.140678 -0.421042 134 110 74
0.131884 0.270414 -0.167507 144 162 106
-0.146286 0.216969 0.0244685 109 155 131
0.0324382 -0.0890133 -0.194232 132 116 103
0.0994482 0.349887 0.88554 140 172 240
-0.0962073 0.448617 0.751874 115 185 223
0.127272 0.237773 0.278272 144 158 163
-0.0992106 0.527364 -0.646659 115 195 45
-0.108735 0.134909 -0.162154 114 145 107
-0.133563 0.28564 -0.675635 110 164 41
0.0411541 -0.117839 -0.804297 133 112 25
0.053691 0.179379 0.927325 134 150 246
0.117458 0.188731 0.62269 142 152 207
-0.0265792 -0.493124 -0.45293 124 65 70
0.139549 -0.113673 -0.577114 145 113 54
0.132211 0.401887 -0.601527 144 179 51
-0.125847 0.213835 0.9355 111 155 247
-0.0926459 0.441333 0.731963 116 184 221
-0.0631455 0.290106 -0.844965 119 164 20
-0.139336 0.317608 0.0223485 110 168 130
-0.107998 -0.0770454 -0.369147 114 118 80
0.12481 0.201035 -0.817232 143 153 23
0.0972911 0.490173 -0.72836 140 190 35
0.00138648 -0.231742 -0.864276 128 98 17
-0.147665 0.239872 -0.113885 109 158 113
0.118034 0.330227 -0.0447157 143 170 122
0.119918 0.410387 -0.0965076 143 180 115
-0.126597 -0.10866 -0.454493 111 114 70
0.131779 0.37557 -0.697524 144 175 39
-0.137393 0.248936 -0.811556 110 159 24
0.126054 0.233933 0.488239 144 157 190
-0.136843 -0.299557 -0.828528 110 89 22
-0.131476 -0.0333261 -0.442224 111 123 71
-0.066355 0.474708 0.527359 119 188 195
-0.0984712 0.43183 0.213757 115 183 155
-0.0237459 0.0793971 0.670859 124 138 213
0.0701277 0.450809 0.837591 136 185 234
0.122844 -0.097921 -0.752571 143 115 32
0.131611 -0.190446 -0.509438 144 103 63
-0.0782648 0.0890076 0.216756 118 139 155
0.136614 -0.483026 -0.614364 145 66 49
0.0955038 0.458878 -0.0374085 140 186 123
0.0582713 0.0518608 -0.0339301 135 134 123
-0.149363 0.251301 0.423997 108 160 182
-0.146238 0.270576 -0.321819 109 162 86
0.0904274 0.123845 0.227183 139 143 156
0.0773694 0.405566 0.94363 137 179 248
0.13018 0.276929 -0.0560143 144 163 120
0.0369317 0.437711 -0.785934 132 183 27
0.133153 0.305625 -0.337163 144 166 85
0.00441526 0.0814197 0.296093 128 138 165
0.14151 0.361694 -0.532987 146 174 60
-0.126127 0.145603 0.645518 111 146 210
0.136986 0.203169 -0.492651 145 153 65
-0.0343819 0.478858 0.727836 123 189 220
-0.0627538 -0.226966 -0.854501 119 99 19
0.0638099 0.102224 -0.316968 136 141 87
0.129033 0.29962 -0.0565556 144 166 120
-0.143234 0.350934 -0.319243 109 172 87
0.0259323 0.149246 -0.853985 131 147 19
-0.0632026 -0.0184138 -0.300885 119 125 89
-0.087427 0.121177 0.195148 116 143 152
-0.132493 0.294093 0.966503 111 165 251
-0.149419 0.162431 -0.60478 108 148 50
0.133989 0.259901 -0.695627 145 161 39
-0.135408 0.188603 -0.263738 110 152 94
0.0762689 0.452995 0.357624 137 185 173
-0.028412 0.462485 -0.840999 124 186 20
-0.135652 0.322994 -0.532911 110 169 60
-0.138912 0.375199 -0.159769 110 175 107
0.127061 0.231583 0.301023 144 157 166
0.11545 0.0257697 -0.355601 142 131 82
0.125034 0.189248 -0.408591 143 152 75
0.0891744 0.393868 0.45556 139 178 186
0.148977 -0.393011 -0.734012 146 77 34
0.0502321 0.468286 0.718829 134 187 219
-0.0111499 0.485323 0.978347 126 189 252
-0.0657449 0.467223 0.373623 119 187 175
-0.104233 0.123942 0.337451 114 143 171
-0.0249656 -0.452845 -0.465698 124 70 68
-0.0289466 0.0729374 0.628679 124 137 208
-0.131783 -0.0470567 -0.417287 111 122 74
-0.0569508 0.138243 0.854267 120 145 236
-0.0478408 0.116695 -0.0957724 121 142 115
0.0182262 0.485986 0.949352 130 189 249
0.0314087 0.160533 -0.921478 132 148 10
0.00490532 0.0743024 0.620204 128 137 207
0.0827908 -0.548496 -0.789643 138 58 27
-0.0485536 0.548476 -0.628345 121 197 47
-0.0904294 0.107251 0.328853 116 141 169
0.0351571 -0.562914 -0.631332 132 56 47
-0.138381 0.161087 0.798307 110 148 229
-0.0176547 -0.0887047 -0.185945 125 116 104
0.148414 -0.355125 -0.787369 146 82 27
0.0491301 -0.174481 -0.428631 134 105 73
-0.147234 0.205911 -0.59726 109 154 51
0.0720466 0.447369 0.742272 137 185 222
0.0869466 0.400696 0.438549 139 179 183
-0.14913 0.242957 0.382866 108 158 176
0.110355 0.332062 0.408871 142 170 180
0.111991 0.476582 -0.198459 142 188 102
0.134497 0.289954 -0.501897 145 164 64
-0.0409038 -0.0827242 -0.30515 122 117 89
0.109429 -0.527013 -0.837633 141 60 21
-0.1259 -0.0154361 -0.72602 111 126 35
-0.0993006 0.509498 -0.695836 115 192 39
-0.024553 0.488066 0.187792 124 190 151
0.0867444 0.397222 0.534145 139 178 196
-0.137887 0.231604 -0.643418 110 157 45
-0.132289 0.346137 0.410549 111 172 180
-0.102272 -0.562895 -0.480288 114 56 66
-0.13287 0.344689 0.869586 111 171 238
-0.0131994 -0.28922 -0.888465 126 91 14
0.126538 0.409033 -0.329166 144 180 86
0.0282551 0.387437 -0.858608 131 177 18
0.136044 0.183762 -0.466793 145 151 68
0.019317 0.0828827 0.0753287 130 138 137
-0.149536 0.103427 -0.540923 108 141 59
0.0889767 0.0791286 -0.04814 139 138 121
-0.104988 0.416401 0.68217 114 181 214
-0.137274 -0.433415 -0.552312 110 72 57
0.0664044 0.529867 -0.605319 136 195 50
0.0625229 0.4756 0.131414 135 188 144
0.106666 0.444475 -0.101231 141 184 115
-0.150242 0.21824 0.521565 108 155 194
-0.0265478 -0.563451 -0.599587 124 56 51
0.0515115 0.470738 0.962844 134 188 250
-0.0323695 -0.302523 -0.891178 123 89 14
-0.131101 -0.13826 -0.480267 111 110 66
0.0673955 -0.0556089 -0.771993 136 120 29
0.0666792 0.432147 -0.790418 136 183 27
-0.136479 0.241109 -0.666227 110 158 43
0.121515 0.205232 -0.268558 143 154 93
0.122307 0.310755 0.129203 143 167 144
0.108808 0.500849 -0.476379 141 191 67
-0.0700013 -0.0640504 -0.26502 119 119 94
0.0550271 0.550613 -0.693383 135 198 39
0.0773819 -0.199911 -0.445014 137 102 71
-0.00658813 0.461893 0.711803 127 186 218
-0.146384 -0.461618 -0.596949 109 69 51
0.0600194 0.114402 -0.789523 135 142 27
-0.147122 0.190528 0.803609 109 152 230
0.125621 0.219345 0.451706 144 155 185
-0.0723487 0.0936596 0.660467 118 139 212
-0.0501097 0.0552116 -0.0683644 121 135 119
-0.12498 0.365812 0.83084 112 174 233
-0.0209791 0.465737 -0.0035363 125 187 127
-0.148614 0.0145995 -0.650451 109 129 45
0.0780053 0.131516 -0.237619 137 144 97
0.122422 -0.425155 -0.539678 143 73 59
-0.0572185 0.521275 -0.265876 120 194 94
-0.0164754 0.492117 0.112568 125 190 142
-0.03502 -0.521461 -0.856562 123 61 18
0.129602 0.28601 0.0103629 144 164 129
-0.134899 0.397797 -0.710022 110 178 37
0.0362839 -0.0869606 -0.791227 132 116 27
-0.00185326 -0.563558 -0.594006 127 56 52
-0.134891 0.171327 -0.17122 110 149 106
-0.115737 0.484675 -0.647658 113 189 45
0.127944 0.249828 0.198966 144 159 153
-0.0705317 -0.377579 -0.476271 119 79 67
-0.133015 0.425938 -0.189287 111 182 103
-0.123548 -0.0511383 -0.741098 112 121 33
0.0931041 0.125315 0.151796 139 143 147
-0.130749 -0.216557 -0.499322 111 100 64
0.126222 0.23558 0.417124 144 158 181
-0.111407 0.120845 0.476408 113 143 188
0.129143 0.27773 -0.563746 144 163 56
-0.0819469 -0.266024 -0.457783 117 94 69
-0.04352 0.480704 0.588182 122 189 202
0.0716757 -0.249209 -0.859681 137 96 18
-0.0451589 -0.0704748 -0.78353 122 119 28
-0.15086 0.234823 0.589329 108 157 203
0.0807669 0.110591 0.0576215 138 142 135
-0.10843 0.120274 0.522932 114 143 194
-0.154927 0.426762 -0.532115 108 182 60
0.131399 0.35355 -0.453079 144 173 70
-0.0418772 0.484086 0.158808 122 189 148
0.00862867 0.135641 -0.824237 129 145 22
-0.101528 0.198243 -0.662376 115 153 43
-0.0719205 0.478232 0.929168 118 188 246
0.126606 0.219532 -0.782954 144 155 28
-0.133587 0.34104 0.475262 110 171 188
-0.0507651 0.515243 0.0326835 121 193 132
-0.0562669 0.209429 -0.987193 120 154 2
-0.0649373 -0.0473675 -0.134268 119 121 110
0.127852 0.213511 -0.0432461 144 155 122
-0.150705 -0.359029 -0.760772 108 82 31
-0.142846 -0.332212 -0.824604 109 85 22
-0.156002 0.253655 0.906832 108 160 243
-0.134375 0.154628 -0.0206234 110 147 125
-0.10332 0.122344 0.545652 114 143 197
0.0151031 0.528503 -0.433712 129 195 72
-0.00631409 0.0940257 0.249701 127 139 159
0.133901 -0.0412135 -0.507516 145 122 63
-0.0118926 -0.0195482 -0.193994 126 125 103
-0.137764 0.416718 -0.275126 110 181 92
-0.148816 -0.0477215 -0.569388 109 121 55
-0.106146 0.506878 -0.250382 114 192 96
0.0538947 0.0891145 0.339484 134 139 171
-0.134977 0.174096 -0.415207 110 150 75
0.149449 -0.384572 -0.779453 147 78 28
-0.146423 0.36902 -0.229511 109 175 98
-0.155839 0.214701 0.758147 108 155 224
0.000233263 -0.563848 -0.571693 128 56 55
0.0244155 0.521077 -0.0492578 131 194 121
0.141591 -0.371279 -0.833613 146 80 21
0.145601 -0.350238 -0.683021 146 83 40
0.0103288 0.52257 -0.131416 129 194 111
-0.0098426 0.226712 -0.968358 126 156 4
0.100485 -0.0824641 -0.393835 140 117 77
-0.0993965 0.252982 0.958084 115 160 250
-0.0568448 0.482317 0.207146 120 189 154
0.142716 0.412611 -0.569432 146 180 55
0.123667 0.15439 -0.775906 143 147 29
-0.120028 0.0458163 -0.353499 112 133 82
0.0472307 0.522781 -0.201457 134 194 102
-0.153657 -0.453737 -0.703086 108 70 38
-0.0250455 0.0938439 0.248695 124 139 159
-0.139868 -0.518025 -0.65054 110 61 45
