ply
format ascii 1.0
comment Created by Open3D
element vertex 1203
property double x
property double y
property double z
property uchar red
property uchar green
property uchar blue
end_header
-0.00679296 0.0539021 -0.422015 127 134 74
-0.713344 -0.414009 0.127131 37 75 144
-0.437046 -0.511195 -0.376638 72 62 79
-0.072874 -0.722345 -0.510967 118 35 62
0.389243 -0.419443 0.307215 177 74 167
0.301452 -0.43214 0.332543 166 72 170
0.290934 0.0438524 -0.00652425 165 133 127
-0.105921 -0.765211 0.288021 114 30 164
-0.0139751 0.689885 -0.52333 126 215 61
0.219125 0.664574 -0.229123 155 212 98
0.161245 0.464283 -0.482245 148 187 66
-0.13729 0.591523 -0.0815932 110 203 117
0.775241 -0.531399 0.0907908 226 60 139
-0.193921 -0.332674 0.156036 103 85 147
-0.244443 0.318031 -0.220213 96 168 99
-0.74281 -0.183695 0.037095 33 104 132
-0.239369 0.459847 -0.152358 97 186 108
0.162068 0.706513 -0.308073 148 218 88
-0.778586 -0.371597 0.109699 28 80 141
-0.302755 -0.703694 0.22479 89 38 156
-0.200665 0.497927 -0.338036 102 191 84
0.212589 -0.80955 -0.0531399 155 24 121
-0.31749 0.17004 -0.11812 87 149 112
-0.709003 -0.418851 -0.156269 37 74 108
-0.143933 -0.0597886 0.237532 109 120 158
0.0732185 0.0164395 -0.421212 137 130 74
0.708058 -0.330672 -0.0565062 218 85 120
0.212492 -0.47677 0.367766 155 67 174
0.125022 -0.372998 0.188702 143 80 152
-0.373019 -0.283398 -0.0932433 80 91 116
0.287543 -0.634335 0.374115 164 47 175
-0.454664 -0.708024 -0.0314036 70 37 123
-0.260731 -0.210208 0.0603475 94 101 135
-0.111146 -0.311932 -0.47389 113 88 67
0.18514 0.629164 -0.41308 151 208 75
0.15142 0.074314 -0.387225 147 137 78
0.362539 -0.367525 0.0025786 174 81 128
0.351683 -0.547508 0.360888 172 58 174
-0.185333 0.332746 -0.388143 104 170 78
-0.240963 0.335191 -0.13058 97 170 111
0.319744 -0.198847 -0.0372388 168 102 123
-0.759232 -0.410436 -0.102603 31 75 114
-0.0661627 -0.802262 -0.440229 119 25 71
0.0342946 -0.691335 -0.516173 132 39 62
0.316085 -0.698327 0.0941817 168 38 140
-0.199515 0.258871 0.0502182 102 161 134
0.365241 -0.0631679 -0.0210824 174 119 125
-0.23279 0.181176 0.0569474 98 151 135
0.465649 -0.082184 -0.170674 187 117 106
-0.191758 -0.307954 -0.442698 103 88 71
-0.237913 -0.335765 0.110637 97 85 142
0.233672 -0.760645 -0.45468 157 31 70
-0.798223 -0.251241 0.148698 26 95 146
0.225401 0.650195 -0.284826 156 210 91
0.592146 -0.578915 -0.246388 203 54 96
0.87144 -0.329034 0.0943952 239 86 140
0.116134 0.297886 -0.460073 142 165 69
-0.12711 -0.809701 -0.105446 111 24 114
-0.0611662 -0.806993 0.0657753 120 25 136
-0.0634563 0.630096 -0.0584686 119 208 120
0.159827 -0.66027 0.368521 148 43 174
-0.0380291 0.596179 -0.0331966 123 204 123
0.752869 -0.501193 0.171729 223 64 149
0.0362757 -0.80596 0.158346 132 25 148
-0.69966 -0.14454 0.0179153 38 109 130
0.114382 -0.80632 0.143317 142 25 146
-0.444855 -0.405446 -0.301171 71 76 89
0.400638 -0.56927 -0.397305 179 55 77
0.204758 -0.0647712 -0.392102 154 119 78
-0.384755 -0.802911 0.342088 78 25 171
-0.206857 -0.77658 0.184965 101 28 151
-0.430297 -0.56735 0.308581 73 55 167
0.219599 -0.618135 -0.477321 155 49 67
0.284506 0.22072 -0.0297847 164 156 124
0.229498 -0.511472 0.390154 157 62 177
0.116143 -0.406136 0.201403 142 76 153
0.0202852 -0.203169 0.308605 130 102 167
0.760918 -0.420294 0.152098 225 74 147
-0.66917 -0.311264 -0.110072 42 88 113
0.68006 -0.603286 -0.147477 214 51 109
-0.248835 -0.280256 0.0959546 96 92 140
-0.262401 -0.131775 0.148322 94 111 146
0.14804 0.733277 -0.221339 146 221 99
-0.114632 0.491218 -0.432942 113 190 72
-0.564129 -0.152007 -0.156261 56 108 108
0.775157 -0.234745 0.00697564 226 98 128
0.2456 0.528617 -0.100712 159 195 115
0.423506 -0.366067 0.105798 181 81 141
-0.0934837 -0.681848 -0.518934 116 41 61
0.440739 -0.178861 -0.199119 184 105 102
0.429763 -0.126552 -0.0112803 182 111 126
-0.117629 -0.805109 0.158024 113 25 148
-0.329634 -0.612696 -0.46576 85 49 68
-0.287473 -0.0489201 0.0816367 91 121 138
0.0412359 0.143383 -0.457212 133 146 69
-0.683158 -0.352027 -0.124401 40 83 112
-0.412134 0.0259639 -0.186627 75 131 104
0.869154 -0.200916 0.019907 238 102 130
0.280913 0.47719 -0.307883 163 188 88
0.230205 -0.811285 -0.13724 157 24 110
-0.0875921 -0.429161 0.279978 116 73 163
-0.298211 -0.374086 0.0665641 89 80 136
0.233001 -0.810454 -0.285093 157 24 91
-0.0341459 -0.0922949 -0.440812 123 116 71
0.0890739 0.396431 -0.489951 139 178 65
-0.26922 -0.100046 0.0225239 93 115 130
-0.182401 -0.809414 -0.125704 104 24 111
0.183472 -0.0478175 0.210162 151 121 154
0.141047 -0.506689 -0.485529 145 63 66
-0.476795 -0.505955 -0.329682 67 63 85
-0.583065 -0.602756 0.153463 53 51 147
-0.963791 -0.285519 0.238667 5 91 158
0.354579 -0.203884 -0.229523 173 102 98
0.0697115 -0.711309 0.308034 136 37 167
-0.49047 -0.407126 0.165939 65 76 149
-0.726087 -0.198264 0.0935267 35 102 139
-0.757496 -0.343277 0.203744 31 84 153
-0.22809 0.673065 -0.338496 98 213 84
0.138379 -0.420619 0.266168 145 74 161
0.0200495 0.617925 -0.021611 130 206 125
0.534265 -0.701281 -0.249766 196 38 96
-0.434976 -0.498587 0.228763 72 64 157
-0.425197 -0.705115 0.0205769 73 38 130
0.230768 0.383777 -0.115686 157 176 113
-0.161035 0.295854 0.0629965 107 165 136
-0.0936713 -0.80708 -0.410861 116 25 75
-0.0452973 0.223365 0.0973119 122 156 140
-0.294771 -0.770699 0.48505 90 29 189
-0.33685 -0.238247 -0.0861336 85 97 117
0.238824 -0.461616 0.346228 158 69 172
-0.674391 -0.378874 0.122377 42 79 143
0.131629 -0.548133 -0.50492 144 58 63
-0.580318 -0.321695 0.079615 54 86 138
-0.355118 -0.704259 0.14431 82 38 146
0.0688106 -0.637052 -0.518291 136 46 61
-0.135868 -0.80746 -0.369365 110 25 80
0.24998 -0.529341 -0.454841 159 60 70
0.954607 -0.263348 0.0833916 249 94 138
-0.173367 0.318653 0.0133012 105 168 129
-0.385352 -0.428802 0.182265 78 73 151
0.214322 0.121111 0.165385 155 143 149
0.452607 -0.414601 0.301544 185 75 166
-0.0145418 -0.380839 -0.501995 126 79 63
-0.5015 -0.226078 -0.222929 64 99 99
-0.175796 0.587066 -0.322825 105 202 86
0.113079 0.23595 0.0837319 142 158 138
0.685948 -0.610749 0.146894 215 50 146
0.0159436 -0.8082 -0.391187 130 24 78
0.630362 -0.364264 -0.0888173 208 81 116
-0.32349 -0.722506 0.118381 86 35 143
-0.0146672 -0.558924 0.372972 126 56 175
0.104957 -0.28763 -0.464065 141 91 68
-0.365462 -0.0120262 -0.27533 81 126 92
0.998287 -0.212085 0.207253 255 100 154
-0.0194991 0.408286 0.0839707 125 180 138
-0.0927386 0.0112972 -0.416538 116 129 74
0.0971229 0.339953 -0.473812 140 171 67
0.42508 -0.742162 -0.0144833 182 33 126
0.750631 -0.19393 0.0435303 223 103 133
-0.276615 -0.80826 -0.230663 92 24 98
0.287911 0.187948 -0.280772 164 151 92
-0.589661 -0.252609 -0.174064 52 95 105
0.150796 0.530457 -0.488574 147 195 65
0.955126 -0.259263 0.23471 249 94 157
0.207418 -0.0733123 0.181163 154 118 151
-0.184642 0.635538 -0.334486 104 209 85
-0.295971 -0.743381 0.0216973 90 33 130
0.170604 -0.0120904 -0.398657 149 126 77
0.235285 -0.737514 0.296718 157 33 165
0.46441 -0.761414 -0.0986525 187 30 115
-0.556091 -0.490971 -0.2851 57 65 91
-0.00458153 -0.730376 0.290909 127 34 165
0.509985 -0.622694 0.271559 193 48 162
-0.334543 -0.0557796 -0.290522 85 120 90
0.361326 -0.28667 -0.275206 174 91 92
0.324716 -0.0813191 -0.245197 169 117 96
0.501247 -0.350773 0.0821466 191 83 138
-0.0818789 0.557238 -0.489711 117 199 65
0.148911 -0.148657 -0.42476 146 109 73
0.547111 -0.674627 0.0927451 197 41 139
-0.389877 -0.199864 -0.0507462 78 102 121
-0.430992 -0.660121 -0.36976 73 43 80
-0.589224 -0.639674 0.0381024 52 46 132
-0.305804 0.190046 -0.0863242 89 152 116
-0.73327 -0.566093 -0.120887 34 55 112
0.121231 0.568195 -0.499612 143 200 64
-0.174578 -0.264656 -0.436231 105 94 72
-0.514308 -0.135826 -0.051437 62 110 121
-0.332323 -0.805818 -0.127462 85 25 111
0.227633 0.352495 -0.0373149 157 172 123
-0.0137617 0.236925 -0.461649 126 158 69
0.415424 -0.505503 0.345374 180 63 172
-0.0806602 0.315947 -0.457274 117 168 69
-0.463173 -0.693039 0.0101249 68 39 129
-0.0926719 -0.805901 0.0976458 116 25 140
-0.0586338 0.35249 0.0424041 120 172 133
-0.56489 -0.374963 0.137951 55 80 145
-0.392281 -0.423785 -0.339592 77 73 84
-0.760812 -0.551402 -0.0688077 30 57 119
0.540528 -0.707944 0.036711 196 37 132
0.0676191 0.768569 -0.417893 136 225 74
-0.165887 0.598564 -0.471787 106 204 67
0.164548 -0.0588361 -0.410263 148 120 75
-0.23372 -0.806982 -0.32761 98 25 86
0.244366 0.125639 0.146669 159 144 146
0.183584 0.347048 0.028154 151 172 131
-0.0849082 -0.482449 0.315182 117 66 168
-0.464462 -0.703887 -0.300783 68 38 89
0.16503 -0.807123 -0.421956 149 25 74
0.390172 0.0669597 -0.153677 177 136 108
-0.689009 -0.316795 0.158198 40 87 148
-0.2759 -0.294347 0.0686156 92 90 136
0.547619 -0.664477 0.141661 197 43 146
0.569137 -0.69359 -0.20871 200 39 101
0.20035 0.254608 0.119438 153 160 143
0.235301 -0.80573 0.223201 158 25 156
0.216547 -0.280598 0.133999 155 92 145
-0.917145 -0.354489 0.118628 11 82 143
-0.297345 0.184258 -0.0593493 90 151 120
-0.509657 -0.658081 -0.309429 63 44 88
-0.262114 0.331337 -0.167299 94 170 106
0.947373 -0.260633 0.277987 248 94 163
0.193721 0.205581 0.148178 152 154 146
0.0311222 0.0568076 -0.422573 131 135 74
-0.459281 -0.266155 -0.00879675 69 94 126
-0.0520218 -0.485946 0.318602 121 66 168
-0.791829 -0.279468 0.228266 27 92 157
0.918089 -0.230328 0.227132 245 98 156
0.295574 -0.790418 0.26359 165 27 161
0.321176 0.148209 -0.0139753 168 146 126
0.279269 -0.777834 0.126465 163 28 144
-0.704442 -0.238484 0.166817 38 97 149
-0.546437 -0.716173 -0.151339 58 36 108
0.408973 0.0427386 -0.109018 180 133 114
0.10498 -0.80673 0.0781301 141 25 137
-0.082268 -0.147458 -0.443047 117 109 71
0.471439 -0.766008 -0.192065 188 30 103
-0.0100733 0.201041 0.258114 126 153 160
0.403882 -0.784621 -0.287868 179 27 91
-0.323742 -0.134565 -0.0713225 86 110 118
0.659343 -0.630268 -0.154494 212 47 108
-0.700647 -0.255014 -0.112572 38 95 113
0.581126 -0.379477 -0.125893 202 79 111
0.720894 -0.441632 -0.103398 219 71 114
-0.0477583 0.280546 -0.465849 121 163 68
0.200869 -0.809845 -0.344194 153 24 84
-0.197873 0.0979026 -0.343029 102 140 84
-0.425489 -0.672811 0.176686 73 42 150
0.421851 -0.353682 0.202694 181 82 153
-0.170971 -0.367979 -0.477503 106 81 67
-0.163499 0.106481 0.1774 107 141 150
0.510198 -0.701448 0.0591452 193 38 135
0.529313 -0.529177 -0.272512 195 60 93
0.829619 -0.158492 0.0736214 233 107 137
-0.165717 0.663653 -0.28966 106 212 91
-0.149662 -0.760445 0.34236 108 31 171
-0.309642 -0.788842 -0.0642366 88 27 119
0.389038 -0.0972124 -0.0070068 177 115 127
0.11772 0.396338 -0.480273 143 178 66
-0.289082 -0.091438 0.083164 91 116 138
0.109454 -0.797918 -0.437285 141 26 72
-0.104886 0.431187 -0.0145742 114 182 126
0.141149 -0.238573 0.197491 145 97 153
0.774133 -0.255611 -0.0321635 226 95 123
0.23866 -0.795342 -0.419673 158 26 74
0.224843 -0.202618 0.108713 156 102 141
0.733025 -0.208929 0.0837324 221 101 138
-0.450966 -0.672373 0.15494 70 42 147
-0.452286 -0.617897 0.215898 70 49 155
-0.780406 -0.393257 -0.0221062 28 77 125
0.161829 0.118629 -0.419587 148 143 74
-0.669196 -0.199359 -0.118896 42 102 112
-0.388201 -0.803615 -0.111445 78 25 113
0.00582464 -0.587629 0.384283 128 53 176
0.0886564 0.527215 -0.00265298 139 195 127
-0.187555 0.194785 -0.38677 104 152 78
0.376552 -0.345159 -0.0590269 176 83 120
-0.0660308 -0.768949 -0.0274055 119 29 124
0.256994 -0.384445 0.239382 160 78 158
0.318734 -0.710623 0.262744 168 37 161
0.686954 -0.166063 0.090035 215 106 139
0.0107657 0.499652 -0.0192606 129 191 125
0.14345 0.737821 -0.249431 146 222 96
-0.00404119 -0.462488 0.256597 127 69 160
-0.296621 -0.0548989 0.0271588 90 121 131
0.451801 -0.756643 -0.0628453 185 31 119
0.295118 0.450001 -0.266217 165 185 94
0.184265 -0.514255 -0.477194 151 62 67
-0.927038 -0.205704 0.086165 9 101 138
0.14235 0.0357976 0.237397 146 132 158
0.12989 -0.811413 -0.216636 144 24 100
-0.538887 -0.345338 0.0961483 59 83 140
-0.302065 -0.806935 -0.264136 89 25 94
-0.61301 -0.252826 0.125147 49 95 143
-0.22943 0.314144 -0.310208 98 168 88
-0.00577814 -0.80815 -0.0280835 127 24 124
0.0228626 0.576391 -0.0525268 130 201 121
0.220383 0.332711 0.00335883 156 170 128
0.0128628 0.802031 -0.287899 129 230 91
-0.350146 -0.209758 -0.242834 83 101 97
-0.530218 -0.590502 -0.317196 60 52 87
0.8982 -0.281583 0.276877 242 92 163
-0.332735 -0.655922 0.532588 85 44 195
-0.158101 -0.296126 0.224743 107 90 156
-0.735437 -0.228674 -0.0914219 34 98 116
0.242838 -0.110314 0.060499 158 113 135
-0.787377 -0.365349 0.0374734 27 81 132
-0.0510499 -0.342746 -0.493768 121 84 65
-0.192544 -0.217873 -0.418972 103 100 74
0.407212 -0.666792 0.259578 179 42 161
-0.0821489 -0.524596 0.3409 117 61 171
-0.325154 -0.222681 -0.0636264 86 99 119
-0.425889 -0.461964 -0.360125 73 69 82
0.238146 -0.796932 0.278479 158 26 163
0.159731 -0.266973 0.166813 148 93 149
-0.341552 -0.507388 0.382452 84 63 176
-0.63352 -0.270974 -0.145583 47 93 109
0.780555 -0.500525 0.113778 227 64 142
0.0239355 0.735389 -0.143201 131 221 109
0.299112 -0.386211 -0.401066 166 78 76
-0.151399 0.702332 -0.4889 108 217 65
0.333667 -0.400497 0.278304 170 76 163
0.286871 -0.79786 -0.365164 164 26 81
0.619366 -0.600843 0.216938 206 51 155
0.342973 -0.344941 -0.034302 171 84 123
-0.151038 0.538639 -0.0729245 108 196 118
0.309821 -0.0378018 -0.0212148 167 123 125
-0.512743 -0.331254 0.0161763 62 85 130
0.445669 -0.359987 -0.178452 184 82 105
0.365435 -0.589628 0.353382 174 52 173
0.281918 0.521588 -0.194264 163 194 103
0.212651 -0.55961 -0.477107 155 56 67
0.769686 -0.480018 -0.0478918 226 66 121
-0.323751 -0.806928 -0.161609 86 25 107
0.659539 -0.30858 0.169566 212 88 149
0.657381 -0.629708 0.149962 211 47 147
-0.105504 0.653421 -0.51325 114 211 62
0.216338 0.309927 -0.407121 155 167 76
-0.0577369 -0.0591527 -0.43204 120 120 72
-0.248904 0.446396 -0.199253 96 184 102
-0.082643 -0.590294 -0.521837 117 52 61
-0.1237 -0.805338 0.116518 112 25 142
0.335728 -0.376365 0.217776 170 80 155
-0.707313 -0.610511 -0.0305077 37 50 124
-0.532464 -0.349812 -0.174716 60 83 105
-0.429666 -0.114276 -0.248935 73 113 96
-0.44926 -0.283506 -0.0288666 70 91 124
-0.534429 -0.449668 0.19706 59 70 153
-0.345898 -0.343605 -0.0674712 83 84 119
0.711633 -0.21307 -0.0436803 218 100 122
0.0512975 0.0583372 0.300267 134 135 166
0.627087 -0.478021 0.26603 207 67 161
-0.162483 0.510172 -0.0931848 107 193 116
0.437751 -0.34532 -0.120004 183 83 112
-0.207268 -0.266697 0.135131 101 93 145
0.218339 0.260259 0.000306826 155 161 128
0.269854 -0.805695 0.212167 162 25 155
0.420464 -0.676103 0.0919887 181 41 139
0.237818 -0.310099 0.13369 158 88 145
0.0859873 0.71217 -0.486225 138 218 66
-0.0672973 0.254596 -0.458052 119 160 69
-0.53122 -0.203274 -0.210608 60 102 101
0.00297132 0.100679 -0.431914 128 140 72
0.316566 0.0938244 -0.0150888 168 139 126
0.177361 -0.372955 -0.466854 150 80 68
-0.443014 -0.565806 0.396885 71 55 178
0.233838 -0.411068 0.284804 157 75 164
-0.625263 -0.408778 -0.206115 48 75 101
0.245908 -0.810796 -0.104146 159 24 114
0.0355057 -0.394866 -0.500634 132 77 64
0.246353 -0.809225 -0.0447552 159 24 122
0.228338 -0.00226941 -0.360533 157 127 82
0.696221 -0.271457 0.182569 216 93 151
-0.0090765 -0.142487 -0.448513 126 109 70
-0.0764723 0.762318 -0.270657 118 225 93
-0.105216 0.556928 -0.0512373 114 199 121
0.0860289 -0.811187 -0.243363 138 24 96
0.010981 -0.810639 -0.13604 129 24 110
-0.789928 -0.417422 -0.00942004 27 74 126
-0.717612 -0.388628 -0.132028 36 78 111
0.686968 -0.543774 -0.159051 215 58 107
-0.053915 -0.499424 -0.493724 121 64 65
0.0342935 0.163301 0.203337 132 148 153
0.162663 -0.0972235 -0.415097 148 115 75
-0.311685 -0.204656 -0.24424 88 101 96
-0.207775 0.543993 -0.290226 101 197 90
0.111419 -0.139941 0.251926 142 110 160
0.000412394 -0.521765 0.341742 128 61 171
-0.160283 -0.708205 -0.503109 107 37 63
-0.353538 -0.260522 -0.21107 82 94 101
-0.214902 -0.23995 -0.408015 100 97 75
-0.0732464 -0.0470537 0.297297 118 122 165
-0.268477 -0.686919 -0.491057 93 40 65
-0.226341 -0.0521768 -0.356422 99 121 82
0.149079 -0.810831 -0.273646 147 24 93
0.813975 -0.330364 0.273238 231 85 162
0.29057 0.482406 -0.203555 165 189 102
0.268008 0.287593 -0.249065 162 164 96
0.630044 -0.577898 -0.211834 208 54 100
-0.755249 -0.434673 0.0929782 31 72 139
-0.279564 -0.778545 -0.356457 92 28 82
0.515035 -0.601065 0.289181 193 51 164
-0.501829 -0.651852 0.143579 64 44 146
0.153961 0.49483 -0.0191547 147 191 125
0.948563 -0.169841 0.216525 248 106 155
0.61133 -0.656502 -0.201851 205 44 102
-0.235348 -0.189008 0.144943 97 103 146
0.00496989 0.181985 0.178741 128 151 150
0.172378 -0.8064 0.142845 149 25 146
0.648247 -0.664729 0.0547979 210 43 134
-0.157626 0.559689 -0.371941 107 199 80
0.337662 -0.684802 0.262147 171 40 161
0.253945 0.107268 -0.295695 160 141 90
0.201814 0.160274 0.164431 153 148 148
-0.207978 0.427334 -0.132839 101 182 111
-0.134936 0.315337 0.0606764 110 168 135
0.326517 0.208271 -0.199689 169 154 102
0.780418 -0.254771 0.198243 227 95 153
-0.192515 0.0209814 0.198636 103 130 153
0.111473 0.595069 -0.501833 142 203 64
0.448601 -0.126311 -0.199052 185 111 102
-0.244951 -0.771036 0.0955903 96 29 140
-0.766146 -0.399685 0.0614964 30 77 135
-0.124974 0.0976383 0.222094 112 140 156
-0.498635 -0.761236 -0.168708 64 30 106
0.468847 -0.273737 0.0467166 187 93 133
-0.124744 -0.315568 0.259269 112 87 161
-0.832005 -0.178545 -0.01351 21 105 126
-0.647135 -0.345474 0.108627 45 83 141
-0.557079 -0.63949 0.125741 56 46 144
-0.341571 0.111063 -0.225381 84 142 99
-0.388957 -0.512466 0.245985 78 62 159
-0.417986 -0.804329 -0.167265 74 25 106
-0.417557 -0.0676357 -0.25102 74 119 95
-0.264945 0.131099 -0.30714 94 144 88
-0.0847633 0.151223 0.197064 117 147 153
-0.443805 -0.221541 -0.235055 71 99 98
-0.842299 -0.259144 0.0291284 20 94 131
0.427729 -0.621413 -0.409198 182 48 75
0.147506 0.614448 -0.469053 146 206 68
0.316658 -0.675914 0.303747 168 41 166
0.113168 -0.583279 -0.513119 142 53 62
-0.21032 0.269908 -0.34368 101 162 84
0.831424 -0.341951 0.0630779 234 84 136
0.0365737 -0.12918 -0.443614 132 111 71
0.655911 -0.43435 0.243515 211 72 159
0.32792 0.226554 -0.138479 169 156 110
-0.193682 -0.435701 -0.450695 103 72 70
-0.46082 -0.62119 0.41668 69 48 181
0.494622 -0.650899 0.226486 191 45 156
0.770321 -0.386131 0.0642641 226 78 136
-0.282824 -0.205053 0.0249507 91 101 131
-0.780074 -0.180654 0.00258189 28 104 128
0.186301 -0.294516 0.155647 151 90 147
0.407071 -0.366332 0.238034 179 81 158
-0.877417 -0.36563 0.13271 16 81 144
-0.644624 -0.14331 0.0141896 45 109 129
-0.488391 -0.294901 0.00456189 65 90 128
-0.847405 -0.321679 0.281146 19 86 163
-0.596671 -0.281544 0.109562 51 92 141
-0.586681 -0.640632 0.0781898 53 46 137
-0.148136 -0.0870054 -0.414323 109 116 75
-0.370086 -0.193797 -0.253439 80 103 95
-0.0923905 -0.464509 0.287673 116 68 164
0.416516 -0.192386 0.00599943 181 103 128
-0.218217 0.210998 0.0443822 100 154 133
-0.89707 -0.328642 0.0313233 13 86 131
-0.26493 -0.431113 0.200525 94 73 153
-0.255214 -0.488914 -0.439333 95 65 71
0.759682 -0.55397 0.110239 224 57 142
-0.7957 -0.473589 -0.00786996 26 67 126
-0.324716 -0.40461 0.174108 86 76 150
0.0170723 -0.153808 0.312664 130 108 167
-0.307379 0.154931 -0.15078 88 147 108
0.0782529 -0.271844 0.275033 137 93 163
0.125996 -0.104008 0.250086 144 114 159
0.0168833 -0.24187 -0.47037 130 97 68
0.130109 -0.80689 0.0646027 144 25 136
0.236879 0.238669 -0.345097 158 158 84
-0.128232 0.730026 -0.475652 111 221 67
-0.0921104 -0.0656215 -0.427901 116 119 73
-0.232092 0.000463515 -0.336147 98 128 85
-0.655864 -0.63919 -0.0330555 44 46 123
-0.340913 -0.339875 -0.257135 84 84 95
0.343843 -0.810227 -0.125096 171 24 112
0.272385 0.0110412 0.0927966 162 129 139
-0.771903 -0.233937 -0.041363 29 98 122
-0.298321 -0.3102 0.0447025 89 88 133
0.532973 -0.490093 -0.252253 195 65 95
0.371749 -0.798864 -0.0676911 175 26 119
-0.131892 0.787926 -0.375679 111 228 80
-0.807724 -0.364923 0.219106 25 81 155
-0.617982 -0.131997 -0.0194541 49 111 125
0.330411 -0.609944 0.356779 170 50 173
-0.0940142 -0.34103 0.288162 116 84 164
0.132031 -0.364563 -0.47838 144 81 67
0.0972038 -0.810774 -0.140017 140 24 110
0.308011 -0.78281 0.185683 167 28 151
-0.585013 -0.134296 -0.0620572 53 110 120
0.0761944 -0.113884 0.287311 137 113 164
-0.288007 -0.155908 -0.284554 91 108 91
0.0466328 0.689745 -0.0962543 133 215 115
0.179976 -0.806564 0.0945558 150 25 140
0.26339 -0.559919 0.394413 161 56 178
-0.714657 -0.155101 0.06349 36 108 136
-0.116095 -0.805936 0.0615008 113 25 135
0.0866489 -0.544508 0.378792 139 58 176
-0.921477 -0.315872 0.0537786 10 87 134
0.0341298 -0.477524 -0.49529 132 67 64
-0.353841 -0.476774 0.222104 82 67 156
-0.874189 -0.266937 0.0270973 16 93 131
-0.727842 -0.155323 0.00584603 35 108 128
0.0812704 -0.764001 -0.471385 138 30 67
0.77671 -0.451688 -0.0257852 227 70 124
-0.188602 -0.410345 0.236797 103 75 158
0.426145 -0.794223 -0.192006 182 26 103
-0.44664 -0.0542779 -0.0978022 71 121 115
-0.301745 -0.0134477 -0.0152918 89 126 126
0.225188 -0.163955 0.154514 156 107 147
0.572613 -0.527115 -0.248757 201 60 96
0.0619077 0.711046 -0.119501 135 218 112
0.271525 0.252306 -0.281594 162 160 92
-0.489754 -0.264564 -0.216424 65 94 100
-0.141847 -0.806453 0.0213846 109 25 130
0.634372 -0.181811 0.109267 208 104 141
0.568288 -0.410275 0.269221 200 75 162
0.547147 -0.452056 -0.220801 197 70 99
-0.362359 -0.761804 0.272053 81 30 162
-0.680096 -0.532921 -0.196759 41 60 102
-0.216166 -0.512044 0.29012 100 62 164
0.0380715 -0.81115 -0.218568 132 24 100
0.0512541 0.0014765 0.291886 134 128 165
-0.250453 0.319599 -0.259202 96 168 94
0.564761 -0.254468 0.106282 200 95 141
0.153393 -0.599179 -0.502775 147 51 63
-0.139897 0.632214 -0.498499 110 208 64
0.0139416 0.130982 -0.459986 129 144 69
-0.253978 0.369894 -0.245456 95 175 96
0.209842 -0.811053 -0.236957 154 24 97
-0.4439 -0.602338 0.44482 71 51 184
0.0683903 -0.38982 0.18622 136 78 151
-0.149862 0.101408 -0.366874 108 140 81
-0.15407 0.225472 0.114676 108 156 142
-0.705695 -0.616466 -0.0588369 38 49 120
-0.307373 -0.436297 -0.381545 88 72 79
0.0997278 -0.808868 -0.0586809 140 24 120
-0.0861331 -0.266659 -0.467024 117 94 68
-0.429956 -0.547301 0.359578 73 58 173
-0.127973 -0.809704 -0.266791 111 24 93
-0.315392 -0.558347 -0.459694 87 56 69
0.19235 -0.176162 0.190784 152 105 152
-0.673772 -0.328975 0.128668 42 86 144
0.341097 0.128039 -0.0954784 171 144 115
0.415402 -0.704229 -0.366941 180 38 81
0.298319 0.266286 -0.13734 166 161 110
0.290839 -0.0133779 -0.0274225 165 126 124
0.600196 -0.688909 -0.00194474 204 40 127
0.154346 -0.48749 0.358367 147 65 173
0.000392785 -0.327212 0.289155 128 86 164
0.2793 0.47977 -0.15831 163 189 107
-0.122658 0.448862 -0.448383 112 185 70
-0.0466814 0.698888 -0.116692 122 217 113
-0.197793 0.232622 -0.35759 102 157 82
0.671599 -0.228621 -0.0806848 213 98 117
0.389086 -0.499746 0.353253 177 64 173
0.00520207 -0.101601 0.300798 128 115 166
-0.292908 -0.51753 0.438465 90 62 183
0.266989 -0.0884998 0.103236 162 116 141
-0.917399 -0.262376 0.212298 11 94 155
0.42893 -0.277075 0.0144998 182 92 129
-0.208183 0.272796 -0.0369771 101 162 123
-0.416172 -0.794309 -0.117209 74 26 113
0.148793 -0.108719 0.228428 146 114 157
0.228359 -0.761338 0.023743 157 30 131
-0.672043 -0.265771 -0.126263 42 94 111
-0.26315 -0.795818 -0.0531853 94 26 121
-0.0253788 0.370548 0.068586 124 175 136
-0.383087 0.0443837 -0.121715 79 133 112
0.38471 -0.1824 -0.205582 177 104 101
-0.179635 -0.670938 0.452365 105 42 185
0.289504 0.454171 -0.295893 164 185 90
0.385841 -0.230845 -0.00757403 177 98 127
0.467307 -0.332036 0.0135189 187 85 129
-0.139678 0.743409 -0.451545 110 222 70
-0.255692 -0.372909 0.073125 95 80 137
0.319269 0.228357 -0.217339 168 157 100
-0.357377 0.076295 -0.133112 82 137 111
-0.773968 -0.536783 -0.0485837 29 59 121
-0.16983 0.268724 0.0863638 106 162 139
0.306852 0.17756 -0.0479524 167 150 121
-0.728898 -0.534082 0.092521 35 59 139
0.205669 -0.312327 -0.4357 154 88 72
-0.083888 0.65602 -0.102845 117 211 114
-0.0682282 0.805327 -0.329515 119 230 85
-0.237258 -0.763563 0.158495 97 30 148
0.149648 0.257856 0.0933658 147 160 139
0.559579 -0.697052 0.0541913 199 39 134
0.890855 -0.244866 0.190582 241 96 152
-0.203548 -0.232177 0.167289 102 98 149
-0.766361 -0.21264 0.0845922 30 100 138
0.227994 -0.147394 0.0989092 157 109 140
0.342453 -0.321437 -0.333523 171 87 85
-0.477395 -0.588128 -0.349384 67 53 83
-0.473282 -0.656949 0.330177 67 44 170
0.209238 -0.157073 0.178899 154 107 150
0.258026 -0.134019 0.0493806 160 110 134
-0.354406 -0.664556 0.234195 82 43 157
-0.0616747 -0.808069 -0.373601 120 24 80
-0.225582 -0.188557 -0.388078 99 103 78
0.544856 -0.646241 0.209002 197 45 154
-0.408466 -0.492298 0.227977 75 65 157
-0.0967371 0.239878 0.0621696 115 158 135
0.862045 -0.293955 0.30531 237 90 166
-0.56192 -0.57735 0.179962 56 54 150
-0.299288 0.0363585 -0.312229 89 132 88
0.194966 -0.769282 0.279016 152 29 163
0.502544 -0.346124 -0.103279 192 83 114
0.303738 -0.810947 -0.198171 166 24 102
0.0137233 -0.807646 0.00349952 129 25 128
-0.379043 -0.621503 -0.434896 79 48 72
0.0899678 0.173811 -0.452688 139 150 70
-0.47881 -0.738455 -0.251203 66 33 95
0.324209 -0.454603 -0.37706 169 70 79
-0.178435 -0.0479842 -0.391863 105 121 78
0.280516 -0.0138651 0.0311083 163 126 131
-0.542431 -0.665431 0.0552784 58 43 135
-0.0456494 -0.597683 -0.526011 122 51 60
-0.602128 -0.676631 -0.165652 51 41 106
-0.442709 -0.292086 -0.20758 71 90 101
-0.416753 -0.556205 0.441802 74 57 184
-0.294935 0.212466 -0.13025 90 155 111
-0.366693 -0.038017 -0.0764285 81 123 118
-0.224792 0.380427 -0.158611 99 176 107
0.367459 -0.412289 -0.311285 174 75 88
0.141093 -0.808329 -0.0333169 145 24 123
-0.0031306 -0.128239 0.321614 127 111 169
-0.235233 -0.161507 0.179032 98 107 150
-0.244304 -0.750591 0.469507 96 32 187
0.162234 -0.0622884 0.230727 148 120 157
0.885693 -0.205598 0.0420831 240 101 133
0.334467 -0.634708 -0.440518 170 47 71
0.300648 -0.644511 0.336489 166 45 170
-0.116907 0.751954 -0.287903 113 223 91
-0.546133 -0.195747 0.056824 58 103 135
0.0707679 0.786327 -0.277047 137 228 92
-0.276295 0.264864 -0.188178 92 161 104
-0.0764614 -0.438961 -0.486278 118 72 65
0.831893 -0.340976 0.250068 234 84 159
-0.780716 -0.520105 -0.000718751 28 61 127
0.0768761 0.128153 0.249632 137 144 159
0.424289 -0.756022 -0.0393595 182 31 122
-0.0405437 0.604184 -0.52828 122 205 60
-0.354296 -0.360817 -0.0391231 82 81 123
0.262351 -0.087156 0.0222071 161 116 130
0.227096 0.192588 -0.367607 156 152 81
-0.190868 -0.432739 0.26375 103 72 161
-0.119929 -0.0347633 0.263278 112 123 161
-0.455594 -0.788651 -0.192274 69 27 103
0.451613 -0.777758 -0.208543 185 28 101
-0.843296 -0.276657 0.250797 20 92 159
0.264145 -0.492741 0.366384 161 65 174
0.455043 -0.64646 0.270796 186 45 162
-0.379175 -0.401345 -0.312748 79 76 88
-0.419471 -0.152708 -0.047903 74 108 121
-0.224061 -0.104599 0.189629 99 114 152
-0.21937 -0.479166 -0.455854 100 66 69
0.171738 0.392111 -0.448333 149 177 70
0.273788 -0.103287 -0.352422 162 114 83
-0.570559 -0.700964 -0.104481 55 38 114
-0.104147 -0.703405 0.376091 114 38 175
0.20764 0.256296 -0.387782 154 160 78
0.239492 0.300966 -0.0377479 158 166 123
-0.11366 0.721742 -0.255667 113 220 95
-0.175818 0.638642 -0.292148 105 209 90
-0.140549 -0.658471 -0.512601 110 44 62
-0.204271 -0.0822329 -0.383303 101 117 79
0.124072 -0.805978 0.18237 143 25 151
-0.326555 -0.803319 0.377096 86 25 176
-0.0352525 0.533352 -0.514619 123 196 62
0.404934 -0.524894 -0.378705 179 61 79
0.21653 -0.278903 -0.416816 155 92 74
0.328957 -0.765859 -0.375544 169 30 80
-0.550423 -0.269824 -0.188991 57 93 103
0.235444 -0.119848 0.149356 158 112 147
-0.0836968 0.441189 -0.475556 117 184 67
0.286886 -0.255554 -0.369793 164 95 80
0.127665 -0.635757 -0.507873 144 46 63
-0.279113 0.237654 -0.201227 92 158 102
0.142519 0.306983 -0.45075 146 167 70
-0.0248019 -0.198761 0.302581 124 102 166
-0.233386 0.618625 -0.450192 98 206 70
0.0176171 0.780731 -0.427675 130 227 73
0.160624 -0.809713 -0.369168 148 24 80
0.892542 -0.146529 0.115315 241 109 142
0.375127 -0.369376 0.191148 175 80 152
-0.437153 -0.625482 0.467982 72 48 187
0.271896 -0.600836 0.389763 162 51 177
0.558913 -0.48943 0.296462 199 65 165
-0.202641 -0.80959 -0.189612 102 24 103
0.550532 -0.716935 -0.0201226 198 36 125
-0.301056 0.723834 -0.437812 89 220 72
-0.56052 -0.207089 -0.193352 56 101 103
0.505617 -0.32551 0.0510524 192 86 134
-0.113895 0.264311 -0.436623 113 161 72
-0.285428 -0.30381 -0.373078 91 89 80
0.330363 -0.0870081 -0.0207726 170 116 125
-0.0540658 0.741967 -0.217651 121 222 100
-0.901362 -0.278211 0.187429 13 92 151
-0.161505 0.723658 -0.301356 107 220 89
-0.406292 -0.507941 -0.397516 76 63 77
-0.593245 -0.443036 0.182825 52 71 151
0.22502 -0.0497621 0.174783 156 121 150
0.192935 -0.625188 0.38777 152 48 177
-0.864304 -0.36722 0.108104 17 81 141
0.483118 -0.117392 -0.0448823 189 113 122
-0.622397 -0.648838 -0.203357 48 45 102
-0.166728 -0.492685 -0.482193 106 65 66
-0.875379 -0.34564 0.0540052 16 83 134
0.100403 -0.474856 0.321053 140 67 168
0.27827 -0.205018 0.0545828 163 101 134
-0.181964 0.276417 0.0368599 104 163 132
0.256663 -0.799185 0.11182 160 26 142
-0.146279 -0.415536 -0.477124 109 75 67
-0.142303 0.696679 -0.272391 109 216 93
-0.128996 -0.377692 -0.49343 111 79 65
-0.433419 -0.743214 -0.0561268 72 33 120
-0.662908 -0.645767 -0.122027 43 45 112
0.00458877 0.215791 0.15109 128 155 147
0.060471 -0.806562 0.102016 135 25 141
-0.145669 -0.805535 0.0752566 109 25 137
-0.094864 -0.0153262 -0.419814 115 126 74
-0.580316 -0.185888 0.0726726 54 104 137
-0.234698 0.491737 -0.180356 98 190 105
-0.687168 -0.61261 -0.143754 40 49 109
0.10107 0.679898 -0.493605 140 214 65
0.240664 0.178414 -0.345981 158 150 83
-0.446943 -0.582907 -0.365308 71 53 81
0.239699 -0.136453 -0.386079 158 110 78
-0.493923 -0.526463 0.228825 65 60 157
0.19427 -0.811087 -0.133442 152 24 110
0.468888 -0.601119 -0.345493 187 51 83
-0.292092 -0.570843 -0.472231 90 55 67
-0.194345 0.531367 -0.112063 103 195 113
0.127473 -0.666768 0.365537 144 42 174
0.622824 -0.684675 -0.0477442 207 40 121
-0.314846 0.00477016 0.00990732 87 128 129
0.0840549 -0.155712 -0.439273 138 108 71
-0.39694 -0.47158 0.214315 77 67 155
-0.825244 -0.366446 0.0687623 22 81 136
0.00479658 0.702813 -0.106494 128 217 114
0.326138 -0.12178 -0.277325 169 112 92
-0.529732 -0.258318 0.0554543 60 95 135
-0.385189 -0.597468 0.286118 78 51 164
-0.942681 -0.266863 0.0871727 7 93 139
0.207451 -0.79551 0.0465426 154 26 133
0.114888 0.756238 -0.29243 142 224 90
0.319993 -0.52414 -0.423026 168 61 74
0.141735 -0.327001 0.183994 146 86 151
0.305586 -0.0314789 -0.264892 166 123 94
0.141352 -0.420498 -0.480263 146 74 66
0.192314 0.494179 -0.0631212 152 191 119
-0.444937 -0.489226 -0.361657 71 65 81
-0.392485 -0.354751 0.0477382 77 82 134
0.0767545 -0.164531 0.291352 137 107 165
-0.166793 -0.396752 0.186519 106 77 151
0.196333 -0.0169044 0.18208 153 125 151
0.586618 -0.24027 0.120347 202 97 143
-0.314145 -0.667153 -0.474394 87 42 67
-0.550035 -0.667221 -0.2658 57 42 94
-0.293141 -0.195613 -0.300519 90 103 89
-0.165394 -0.314191 -0.457478 106 87 69
-0.210861 -0.0298862 -0.36233 101 124 81
0.148411 0.431876 -0.478383 146 183 67
-0.214634 -0.198986 0.196325 100 102 153
-0.363888 -0.511416 0.40093 81 62 179
-0.0182188 -0.810663 -0.145442 125 24 109
0.78738 -0.328861 0.0107843 228 86 129
-0.171797 -0.784674 0.322295 106 27 169
-0.345897 -0.693366 0.206959 83 39 154
0.0301108 0.632131 -0.529169 131 208 60
0.0459856 0.750781 -0.465774 133 223 68
-0.533281 -0.566114 0.200582 60 55 153
0.0139117 -0.180187 -0.452962 129 105 70
-0.00670339 -0.276102 0.310371 127 92 167
-0.940759 -0.239715 0.171174 8 97 149
-0.426782 -0.723778 0.288898 73 35 164
-0.297561 -0.641545 -0.481629 90 46 66
0.0428874 0.327458 -0.48362 133 169 66
-0.144343 0.486551 -0.413629 109 190 75
-0.313979 -0.188124 -0.0600498 87 104 120
-0.128851 0.120179 -0.397386 111 143 77
0.479117 -0.480098 -0.316874 189 66 87
-0.464167 -0.690078 0.0623786 68 40 135
0.0227093 0.515865 -0.524065 130 193 61
-0.670188 -0.265303 0.146091 42 94 146
0.0979611 0.544594 -0.512445 140 197 62
0.704937 -0.48566 -0.136704 217 66 110
0.126716 0.725744 -0.179363 144 220 105
-0.155435 -0.364446 0.222163 108 81 156
-0.624003 -0.325643 0.114232 48 86 142
-0.490237 -0.097208 -0.171754 65 115 106
0.855878 -0.238665 0.0848626 237 97 138
0.336496 -0.144392 -0.024097 170 109 124
-0.375139 -0.464425 -0.381543 80 68 79
-0.616173 -0.515114 0.177335 49 62 150
0.0471551 -0.690331 0.350393 134 39 172
0.0569116 -0.363551 0.228768 135 81 157
0.366456 -0.256803 -0.228655 174 95 98
-0.110393 -0.102621 0.260382 113 114 161
0.809974 -0.19675 0.0142382 231 102 129
-0.84708 -0.307986 0.0024309 19 88 128
0.149896 0.400903 -0.0160782 147 179 125
0.23662 0.0429834 0.151859 158 133 147
-0.241528 -0.753555 -0.425367 97 31 73
0.290906 -0.797234 0.163166 165 26 148
0.0164213 0.451333 0.0213621 130 185 130
0.086493 -0.072318 -0.431973 139 118 72
0.944102 -0.196199 0.0830561 248 102 138
-0.184068 0.382664 -0.093445 104 176 116
0.142865 -0.808907 -0.40453 146 24 76
0.633921 -0.160193 0.0299243 208 107 131
0.0681188 -0.810805 -0.138526 136 24 110
0.676789 -0.594632 0.182023 214 52 151
-0.200722 0.237957 0.00869023 102 158 129
0.940151 -0.165089 0.142103 247 106 146
-0.259999 -0.22348 -0.358984 94 99 82
-0.729172 -0.392712 0.102568 35 77 141
0.875554 -0.309232 0.0439511 239 88 133
-0.432303 -0.802113 -0.193281 72 25 103
0.17257 0.388836 -0.00646597 150 177 127
0.303881 -0.298313 0.0448832 166 89 133
-0.188439 0.760826 -0.374037 103 225 80
0.0667611 -0.81122 -0.219487 136 24 100
-0.272857 -0.510612 0.388011 93 62 177
-0.535769 -0.433233 -0.265802 59 72 94
-0.539624 -0.540351 0.207689 59 59 154
-0.515895 -0.545801 -0.322314 62 58 86
-0.196974 0.735497 -0.421661 102 221 74
0.167673 0.573745 -0.0311194 149 201 124
-0.280389 -0.803224 0.278611 92 25 163
-0.431271 -0.33126 -0.041412 73 85 122
0.227923 0.514067 -0.0556075 157 193 120
0.257341 0.125478 -0.341922 160 143 84
-0.00880414 0.019795 0.315239 126 130 168
-0.0854077 0.593515 -0.0437665 117 203 122
0.0467901 -0.24482 0.288795 133 96 164
-0.469042 -0.087904 -0.210791 68 116 101
-0.207534 0.137992 0.148064 101 145 146
-0.266153 -0.517894 0.313705 94 61 167
-0.355745 -0.375735 -0.272365 82 80 93
0.504228 -0.118807 -0.0908515 192 112 116
0.782172 -0.445603 0.121827 227 71 143
-0.459332 -0.357428 0.034618 69 82 132
-0.199892 -0.363312 -0.46178 102 81 69
0.0890441 0.423768 -0.00854218 139 182 126
-0.0179554 -0.809683 -0.0864485 125 24 116
0.0150514 -0.436241 0.215349 129 72 155
-0.883486 -0.329842 0.263033 15 85 161
-0.235062 -0.12197 -0.362573 98 112 81
0.194551 0.52905 -0.460546 152 195 69
-0.958316 -0.309283 0.228067 5 88 157
0.0106807 -0.539299 0.360945 129 59 174
-0.0340106 -0.807366 0.013043 123 25 129
-0.622481 -0.532194 -0.243593 48 60 96
0.452107 -0.747796 -0.285085 185 32 91
0.0857198 -0.31766 -0.47513 138 87 67
0.375142 -0.389916 -0.282865 175 78 91
0.275965 -0.404288 0.289019 163 76 164
0.210899 -0.805473 0.246006 154 25 159
0.115751 -0.811247 -0.241566 142 24 97
0.119711 -0.190457 -0.440004 143 103 71
-0.732316 -0.592504 -0.0742878 34 52 118
0.256605 0.309057 -0.341137 160 167 84
-0.0435537 0.736985 -0.498965 122 221 64
-0.402834 -0.794259 0.433156 76 26 183
-0.211981 0.225777 0.0671402 100 156 136
-0.733795 -0.44145 0.119389 34 71 143
0.0639621 -0.802256 0.215619 136 25 155
-0.27711 -0.545411 0.477084 92 58 188
0.0462871 -0.322454 0.275577 133 86 163
0.0616076 -0.810642 -0.292875 135 24 90
0.446937 -0.639036 -0.36357 184 46 81
-0.227659 -0.809232 -0.200465 98 24 102
0.321354 0.12475 -0.227002 168 143 99
0.820864 -0.345835 0.226418 232 83 156
0.0462815 0.265225 -0.469416 133 161 68
0.356694 -0.18972 -0.0149338 173 103 126
-0.471693 -0.0837917 -0.101495 67 117 115
0.770417 -0.264253 0.226443 226 94 156
-0.178162 0.61315 -0.267666 105 206 93
-0.3795 -0.72319 -0.00378755 79 35 127
-0.543992 -0.16056 -0.184269 58 107 104
-0.911644 -0.288614 0.0993327 11 91 140
-0.29582 -0.721394 0.200077 90 36 153
0.245475 0.575299 -0.353004 159 201 82
-0.763242 -0.381687 -0.0610496 30 79 120
0.813172 -0.265254 0.193409 231 94 152
0.284069 0.132539 -0.264079 164 144 94
-0.254429 -0.581472 0.492647 95 53 190
0.0300211 0.175191 0.171382 131 150 149
-0.107844 -0.795957 0.237608 114 26 158
0.294323 0.225496 -0.268198 165 156 93
-0.209298 0.179357 -0.36437 101 150 81
-0.473885 -0.304394 -0.192777 67 89 103
0.329606 0.145826 -0.192178 170 146 103
-0.052549 -0.644941 -0.526696 121 45 60
-0.33125 -0.516867 0.254563 85 62 160
-0.414779 -0.791913 0.392504 75 27 178
-0.287086 -0.730021 -0.415583 91 34 75
0.0189605 -0.0755201 -0.438243 130 118 72
-0.912407 -0.317653 0.0841895 11 87 138
0.50621 -0.362642 0.244603 192 81 159
-0.308844 -0.222757 -0.0170791 88 99 125
-0.42142 -0.657366 0.294905 74 44 165
-0.027321 -0.810838 -0.180318 124 24 105
0.324463 -0.270913 -0.338288 169 93 84
0.774422 -0.206531 0.0932253 226 101 139
-0.380532 -0.800177 0.44777 79 25 185
-0.34547 -0.421281 -0.353582 83 74 82
0.444423 -0.369176 0.0892305 184 80 139
-0.358685 -0.503214 -0.414212 82 63 75
0.738162 -0.591297 -0.0327041 222 52 123
0.270764 0.312724 -0.199436 162 167 102
-0.279166 -0.803541 0.344985 92 25 171
0.410643 -0.694473 0.0600128 180 39 135
-0.626888 -0.618068 0.0737138 48 49 137
0.0617524 0.586004 -0.0296664 135 202 124
-0.315455 -0.51038 0.41918 87 62 181
-0.448408 -0.754013 0.313235 70 31 167
-0.772214 -0.387008 0.0367772 29 78 132
-0.0804528 -0.780671 0.236585 117 28 158
-0.0603757 0.073846 0.286778 120 137 164
0.720766 -0.319666 0.200612 219 87 153
-0.256576 0.278823 -0.0953084 95 163 115
0.638815 -0.666274 -0.015349 209 43 126
0.288505 0.427009 -0.214713 164 182 100
-0.215481 0.378442 -0.326293 100 176 86
-0.0395448 0.324807 0.0662123 122 169 136
-0.26882 -0.0153706 0.130279 93 126 144
-0.555448 -0.541708 -0.296609 57 58 90
0.20043 -0.806319 0.145019 153 25 146
0.702534 -0.592374 -0.123735 217 52 112
0.271369 0.464164 -0.112839 162 187 113
-0.693111 -0.601865 0.00905651 39 51 129
0.47889 -0.0742978 -0.0833355 189 118 117
-0.404567 -0.620949 -0.392806 76 48 77
0.24969 0.337647 -0.372108 159 171 80
0.841417 -0.280082 0.233522 235 92 157
0.391932 -0.688598 0.161305 177 40 148
-0.202114 -0.716791 -0.497289 102 36 64
0.484854 -0.592827 0.306833 189 52 167
-0.145087 0.377677 0.00254696 109 176 128
-0.200248 -0.805537 0.0239242 102 25 131
0.0525669 0.437766 -0.503552 134 183 63
-0.193414 0.0739548 -0.353171 103 137 82
0.81536 -0.201956 0.091072 231 102 139
-0.100379 -0.509936 0.321781 115 62 169
0.218821 -0.810327 -0.0848793 155 24 117
0.637709 -0.353079 0.201708 209 82 153
0.171024 0.208457 -0.392768 149 154 77
-0.293598 -0.0582494 -0.298221 90 120 89
0.072101 0.227945 0.0965456 137 157 140
0.0333154 -0.268508 0.288714 132 93 164
-0.640199 -0.641515 -0.18275 46 46 104
-0.19994 -0.630006 -0.499932 102 47 64
0.112637 -0.253194 0.241744 142 95 158
-0.966195 -0.263188 0.212698 4 94 155
0.00456697 -0.49468 -0.49502 128 64 64
-0.244001 -0.215456 -0.378463 96 100 79
0.901644 -0.247299 0.282055 242 96 163
0.252538 0.371196 -0.148327 160 175 109
-0.591392 -0.323458 -0.135985 52 86 110
0.1017 0.754007 -0.25102 140 224 95
-0.182493 0.727769 -0.446125 104 220 71
-0.169432 0.243814 -0.375456 106 159 80
0.286842 0.0161422 0.0282224 164 130 131
-0.422474 -0.302115 -0.0669393 74 89 119
0.136223 -0.241435 -0.445309 145 97 71
-0.607219 -0.509554 -0.254867 50 63 95
-0.37276 -0.354968 -0.0836108 80 82 117
-0.805986 -0.353619 0.180551 25 82 151
-0.00787241 0.146155 -0.463811 126 146 68
0.272761 0.55692 -0.209535 162 199 101
-0.0815332 -0.805263 0.157542 117 25 148
-0.267669 -0.456956 0.244379 93 69 159
0.714486 -0.62527 0.00982458 219 48 129
-0.378673 -0.355733 0.0178591 79 82 130
-0.553433 -0.397934 -0.229481 57 77 98
-0.443963 -0.364685 0.0722452 71 81 137
0.594279 -0.235034 -0.126376 203 98 111
0.244766 -0.183447 -0.390862 159 104 78
0.725962 -0.609005 0.0613898 220 50 135
-0.144994 0.767912 -0.405502 109 225 76
0.894592 -0.316131 0.104602 242 87 141
0.464994 -0.314454 -0.142617 187 87 109
-0.0603358 -0.677971 -0.522718 120 41 61
-0.221771 0.487016 -0.12754 99 190 111
0.225825 0.360225 -0.067077 156 173 119
0.088759 0.39529 0.0591394 139 178 135
0.582135 -0.66969 -0.227984 202 42 98
-0.288397 -0.450453 -0.400673 91 70 76
0.286015 0.461775 -0.184345 164 186 104
0.568286 -0.342723 0.206996 200 84 154
-0.643228 -0.509543 0.166125 45 63 149
0.31055 -0.38538 0.240449 167 78 158
-0.151409 -0.38 0.16934 108 79 149
0.344556 -0.436081 -0.348555 171 72 83
0.239452 -0.609177 0.393098 158 50 178
-0.544104 -0.17619 0.035751 58 105 132
0.857839 -0.253207 0.125698 237 95 144
-0.456652 -0.692359 0.303318 69 39 166
-0.287413 -0.440201 0.221825 91 71 156
0.171291 0.420477 -0.0304936 149 181 124
-0.842188 -0.225923 0.0430737 20 99 133
-0.531469 -0.498044 0.214733 60 64 155
0.594361 -0.521481 -0.234214 203 61 98
0.685411 -0.304044 0.170113 215 89 149
0.242316 0.538949 -0.388882 158 196 78
-0.518366 -0.674618 -0.283854 61 41 91
0.287955 0.34648 -0.266303 164 172 94
0.285522 -0.273931 0.0714181 164 93 137
0.0600651 0.663974 -0.516694 135 212 62
-0.320562 -0.296208 -0.290182 87 90 91
-0.0459198 0.410888 0.0451079 122 180 133
0.409609 0.0384082 -0.143237 180 132 109
-0.461857 -0.350346 -0.224219 69 83 99
0.422432 -0.255897 -0.171398 181 95 106
-0.229336 -0.288494 -0.411201 98 91 75
0.762149 -0.520101 0.14942 225 61 147
-0.341324 -0.0828635 -0.284686 84 117 91
0.862802 -0.26669 0.21284 238 93 155
0.287548 -0.810228 -0.276343 164 24 92
0.363944 0.0884603 -0.0831595 174 139 117
0.703229 -0.243777 -0.0719009 217 96 118
0.214981 0.0203857 0.161066 155 130 148
-0.17134 -0.585624 -0.498573 106 53 64
-0.164077 0.569364 -0.0929156 107 200 116
0.815754 -0.274625 -0.00829393 232 92 126
-0.16771 -0.809658 -0.227358 106 24 99
-0.0753623 -0.810589 -0.152299 118 24 108
-0.177826 0.623248 -0.243474 105 207 96
-0.247517 0.0318476 -0.323396 96 132 86
0.290659 0.492465 -0.254196 165 190 95
0.0108148 -0.122628 -0.445255 129 112 71
-0.329822 -0.806127 -0.257626 85 25 95
0.227773 0.589301 -0.379619 157 203 79
-0.484367 -0.178853 -0.22932 66 105 98
-0.928803 -0.242308 0.0174324 9 97 130
-0.221709 -0.668845 -0.501632 99 42 64
-0.597364 -0.27566 -0.162525 51 92 107
0.45711 -0.372155 0.262582 186 80 161
0.346461 0.0418092 -0.0442684 172 133 122
0.292976 -0.368935 0.141844 165 80 146
-0.162419 0.279733 -0.405699 107 163 76
-0.296596 -0.597746 0.51777 90 51 194
-0.208438 0.413237 -0.344419 101 180 84
0.454497 -0.713364 -0.322633 185 37 86
-0.901739 -0.276013 0.142543 13 92 146
0.449598 -0.509404 -0.348695 185 63 83
-0.221099 -0.355336 0.11578 99 82 142
0.166976 -0.371065 0.168712 149 80 149
0.470918 -0.528591 0.326724 188 60 169
-0.160114 -0.807749 -0.344248 107 25 84
-0.0773169 -0.804987 0.196311 118 25 153
-0.767621 -0.373264 0.0860082 30 80 138
-0.0440647 0.187759 0.260736 122 151 161
0.350317 -0.364526 0.0561368 172 81 135
0.258951 -0.754156 -0.453055 161 31 70
0.13861 0.38152 -0.466555 145 176 68
-0.37474 -0.339158 -0.181893 80 84 104
-0.481756 -0.41893 -0.274839 66 74 92
0.40837 -0.646927 0.301732 180 45 166
-0.19681 -0.806429 -0.367333 102 25 81
-0.111709 -0.195911 0.267793 113 103 162
0.31803 -0.386737 -0.375732 168 78 80
0.153635 0.6572 -0.442485 147 211 71
0.38245 -0.772577 -0.0335062 176 29 123
0.00553666 -0.743877 -0.499479 128 33 64
0.391947 -0.379166 -0.264748 177 79 94
-0.312184 -0.474504 0.228249 88 67 157
-0.0449662 0.50796 -0.0289196 122 192 124
0.361203 -0.810155 -0.207129 174 24 101
-0.774051 -0.264998 -0.0703806 29 94 119
-0.94366 -0.313322 0.101817 7 88 140
-0.0386779 -0.810614 -0.234699 123 24 98
-0.408349 -0.607491 0.492151 75 50 190
0.132701 0.207011 -0.43184 144 154 72
-0.302177 -0.737759 0.150793 89 33 147
0.0850713 -0.204127 -0.450337 138 101 70
0.777644 -0.192684 0.055056 227 103 135
-0.696349 -0.209919 -0.107107 39 101 114
-0.457069 -0.201097 -0.00648627 69 102 127
-0.2029 0.450612 -0.116933 102 185 113
-0.196722 -0.578824 -0.489262 102 54 65
-0.443441 -0.440497 0.199994 71 71 153
0.583737 -0.709097 -0.0896336 202 37 116
-0.17484 0.39328 -0.411986 105 178 75
-0.704647 -0.300581 -0.102646 38 89 114
0.122257 0.737625 -0.395843 143 222 77
-0.0591179 0.654683 -0.525585 120 211 60
-0.242235 -0.2541 0.0969039 97 95 140
0.145704 -0.46994 -0.473293 146 68 67
0.994315 -0.236244 0.193748 254 97 152
0.186517 0.704633 -0.243838 151 217 96
0.389474 -0.662128 -0.430077 177 43 73
0.015626 -0.808675 -0.363102 129 24 81
0.234375 0.227855 0.0854109 157 157 138
0.157799 -0.810493 -0.317673 148 24 87
-0.341195 -0.441953 0.209485 84 71 154
0.154853 -0.597452 0.39127 147 51 177
-0.0578682 -0.810254 -0.11665 120 24 113
0.454042 -0.735707 -0.0103462 185 34 126
0.241725 -0.0137126 0.162369 158 126 148
-0.0988992 0.607134 -0.512069 115 205 62
0.12581 0.220796 0.110514 144 156 142
0.932018 -0.286398 0.273231 246 91 162
0.27362 -0.0397009 0.105414 162 122 141
-0.108401 0.114756 0.211461 114 142 154
-0.223247 0.212184 0.0870093 99 155 139
-0.346747 -0.109112 -0.279111 83 114 92
-0.633175 -0.388149 -0.189055 47 78 103
-0.0926287 -0.636934 -0.522664 116 46 61
0.787941 -0.498585 0.0630166 228 64 136
-0.266674 -0.318311 0.0844832 93 87 138
0.0292676 -0.370926 0.267551 131 80 162
0.303485 -0.760226 0.279348 166 31 163
-0.26382 -0.764967 -0.00268047 94 30 127
0.484256 -0.387558 0.278108 189 78 163
-0.206584 -0.215991 0.134393 101 100 145
0.173873 0.664455 -0.395253 150 212 77
0.812937 -0.250738 0.153517 231 96 147
-0.221096 0.103146 -0.332652 99 141 85
0.141983 -0.698734 0.320078 146 38 168
-0.0379877 0.179541 0.299433 123 150 166
-0.88424 -0.181921 0.0596026 15 104 135
0.310118 -0.581718 0.363918 167 53 174
0.930962 -0.14216 0.122678 246 109 143
0.252053 0.602369 -0.265944 160 204 94
0.162877 -0.271866 -0.440092 148 93 71
-0.44507 -0.523563 0.240317 71 61 158
-0.101236 0.546836 -0.00492643 115 197 127
-0.397231 -0.522426 0.373836 77 61 175
-0.881629 -0.214281 0.0249368 15 100 131
-0.165617 0.331235 -0.40815 106 170 75
-0.415884 -0.796506 -0.220308 74 26 99
0.0105167 -0.285052 0.292628 129 91 165
-0.659849 -0.225692 -0.135943 43 99 110
-0.550147 -0.656268 0.0287186 57 44 131
-0.403453 -0.686667 0.16329 76 40 148
0.361775 -0.79662 -0.308061 174 26 88
0.298842 0.278226 -0.177586 166 163 105
-0.0591626 0.402352 -0.0122287 120 179 126
0.23446 -0.582575 -0.468661 157 53 68
0.354056 -0.242581 -0.259268 173 97 94
-0.407479 -0.557352 0.301452 76 56 166
-0.345443 -0.806657 -0.18285 83 25 104
-0.0185685 0.150672 0.332301 125 147 170
-0.335441 -0.780322 -0.30024 85 28 89
0.307933 -0.677198 -0.455267 167 41 69
0.962001 -0.210745 0.170566 250 101 149
0.0786758 0.0820281 0.262748 138 138 161
-0.927652 -0.172344 0.0675393 9 106 136
-0.550871 -0.686873 -0.248947 57 40 96
-0.27497 0.26095 -0.102394 92 161 114
-0.305022 -0.192433 -0.0194827 89 103 125
-0.384425 -0.0964831 -0.0619976 78 115 120
-0.236551 0.002504 0.161436 97 128 148
0.426716 -0.677266 0.193965 182 41 152
0.458194 -0.420081 -0.275945 186 74 92
0.335518 0.151061 -0.141481 170 147 109
0.167088 0.240378 0.106047 149 158 141
0.490124 -0.225523 0.0589794 190 99 135
-0.394451 -0.349001 -0.0015138 77 83 127
-0.226082 -0.808235 -0.281838 99 24 92
-0.307672 0.153332 -0.226692 88 147 99
0.332109 -0.158938 -0.287272 170 107 91
-0.394397 -0.701962 -0.367936 77 38 81
-0.555617 -0.577329 -0.299128 57 54 89
0.148822 -0.699334 -0.494962 146 38 64
-0.044761 0.172384 0.218612 122 149 155
0.0247824 0.155283 0.320754 131 147 168
0.235836 -0.806074 0.168804 158 25 149
-0.328171 -0.597955 0.520209 86 51 194
-0.716063 -0.532543 -0.1639 36 60 107
-0.228535 -0.790729 0.0219038 98 27 130
-0.156512 -0.798865 0.274871 108 26 163
0.0853629 -0.529357 -0.506436 138 60 63
0.906066 -0.320602 0.243069 243 87 158
-0.802913 -0.166236 0.0293345 25 106 131
0.863443 -0.230938 0.0167599 238 98 130
-0.0484083 0.403849 -0.490371 121 179 65
0.220388 -0.226781 0.116668 156 99 142
-0.477351 -0.327292 -0.177238 67 86 105
-0.29645 0.17181 -0.133143 90 149 111
-0.711878 -0.233068 -0.104892 37 98 114
0.0317462 0.792636 -0.392213 132 229 77
0.094985 0.587505 -0.0215362 140 202 125
0.737308 -0.581008 -0.0664365 222 53 119
-0.305564 0.122818 -0.121997 89 143 112
0.221728 0.258627 0.0747953 156 160 137
-0.40643 -0.699478 0.127039 76 38 144
-0.0321132 -0.020704 0.296595 123 125 165
0.671579 -0.64972 0.0577447 213 45 135
