ply
format ascii 1.0
comment Created by Open3D
element vertex 1202
property double x
property double y
property double z
property uchar red
property uchar green
property uchar blue
end_header
0.90254 -0.236611 0.0736027 243 97 137
-0.167648 0.514715 -0.367828 106 193 81
-0.260045 -0.522207 0.431905 94 61 183
0.250924 0.405405 -0.375199 159 179 80
-0.241695 -0.122967 -0.354907 97 112 82
0.0835083 -0.791254 -0.444096 138 27 71
-0.197252 -0.0484749 0.212215 102 121 155
-0.462337 -0.321254 -0.0415571 69 87 122
0.448144 -0.644547 -0.390034 185 45 78
0.544433 -0.701787 0.0512266 197 38 134
-0.74281 -0.183695 0.037095 33 104 132
-0.0239124 0.0193951 0.310065 124 130 167
-0.564077 -0.186044 0.0640786 56 104 136
0.132145 -0.2661 0.178729 144 94 150
0.228354 0.146045 0.164281 157 146 148
0.262884 -0.240573 -0.382367 161 97 79
-0.569666 -0.696174 -0.131036 55 39 111
0.638655 -0.286839 -0.10504 209 91 114
0.26511 -0.810267 -0.0833574 161 24 117
-0.557178 -0.246061 0.0786374 56 96 138
-0.55952 -0.331064 -0.142195 56 85 109
-0.299867 -0.694814 -0.468818 89 39 68
-0.157587 -0.173603 0.231509 107 105 157
0.305666 0.199891 -0.218656 166 153 100
0.281968 0.219459 -0.0162685 163 155 125
0.307696 0.199892 -0.250609 167 153 96
-0.271837 -0.748849 -0.404888 93 32 76
-0.188012 -0.665719 0.460314 104 43 186
-0.638727 -0.627478 -0.205024 46 47 101
0.175865 0.408509 -0.0356159 150 180 123
0.100011 0.663251 -0.0829169 140 212 117
0.0398092 -0.805812 0.181139 133 25 151
0.262144 0.582749 -0.21265 161 202 100
-0.294431 -0.701851 -0.445958 90 38 71
0.235369 -0.114526 -0.383745 158 113 79
-0.438322 -0.525176 -0.363102 72 61 81
-0.863217 -0.350328 0.04433 17 83 133
-0.517904 -0.726741 -0.0808026 61 35 117
-0.397389 -0.535647 0.434461 77 59 183
0.0709221 -0.760404 -0.476039 137 31 67
-0.538129 -0.163987 0.014712 59 107 129
-0.188403 0.585898 -0.154252 103 202 108
0.0289616 -0.700255 -0.514868 131 38 62
0.244273 0.369843 -0.126865 159 175 111
-0.333029 -0.116297 -0.2801 85 113 92
0.150109 0.0769341 0.208358 147 137 154
-0.168293 -0.518166 0.357041 106 61 173
0.219109 0.410669 -0.409164 155 180 75
0.489077 -0.64664 0.237476 190 45 158
0.491602 -0.095667 -0.0913385 190 115 116
-0.172581 0.58722 -0.33831 105 202 84
-0.296666 -0.0603739 0.036616 90 120 132
0.0525299 -0.811063 -0.24205 134 24 97
-0.36599 -0.611823 0.253762 81 49 160
-0.107648 -0.351808 0.272372 114 83 162
-0.133178 0.395018 -0.0150129 111 178 126
0.381616 -0.457157 -0.356025 176 69 82
0.634452 -0.513552 -0.203816 208 62 102
0.41379 -0.683869 0.166685 180 40 149
-0.382764 -0.588074 0.261679 79 53 161
-0.22136 0.722837 -0.332948 99 220 85
-0.7677 -0.343475 -0.00371874 30 84 127
0.376128 -0.689501 0.205719 175 40 154
-0.0655365 0.0853184 -0.407738 119 138 76
-0.435497 -0.31988 -0.184165 72 87 104
0.460315 -0.719941 -0.310381 186 36 88
0.0646178 0.507052 -0.0214281 136 192 125
0.742612 -0.193027 0.0635073 222 103 136
-0.119823 0.680538 -0.161224 112 214 107
0.157043 0.708372 -0.35977 148 218 82
0.751805 -0.382834 -0.000701272 223 79 127
-0.0712341 0.325319 -0.462919 118 169 68
0.234865 0.1626 0.108587 157 148 141
0.427259 -0.357246 0.129789 182 82 144
-0.253541 0.309569 -0.194484 95 167 103
0.351674 -0.365661 0.171944 172 81 149
0.28333 -0.378212 0.225708 164 79 156
-0.279158 -0.628007 -0.484041 92 47 66
-0.0520756 -0.103422 -0.441434 121 114 71
-0.0464129 0.408492 -0.0177826 122 180 125
0.146778 -0.799402 -0.43356 146 26 72
-0.0608957 0.723926 -0.507739 120 220 63
0.273788 -0.103287 -0.352422 162 114 83
0.222317 0.140516 -0.387584 156 145 78
-0.077439 -0.201039 0.284622 118 102 164
-0.0694641 -0.672388 0.380346 119 42 176
0.142103 -0.80939 -0.381606 146 24 79
0.310311 0.0249635 -0.254721 167 131 95
0.790525 -0.273854 0.246514 228 93 159
0.30857 -0.422261 0.319569 167 74 168
0.36484 -0.0262445 -0.234547 174 124 98
-0.381945 -0.0817277 -0.0639355 79 117 119
-0.660752 -0.153821 -0.0749444 43 108 118
0.00737422 0.808143 -0.362527 128 231 81
0.294315 -0.536914 0.379719 165 59 176
-0.137078 0.0776205 -0.383092 110 137 79
0.570721 -0.153692 0.000159786 200 108 128
-0.35843 -0.578718 0.282547 82 54 164
0.46019 -0.618095 0.302555 186 49 166
-0.704647 -0.300581 -0.102646 38 89 114
0.315259 0.246232 -0.203389 168 159 102
0.433696 -0.788024 -0.177133 183 27 105
-0.21513 -0.51115 -0.466468 100 62 68
0.168255 0.627374 -0.0821304 149 207 117
-0.0144877 -0.132789 -0.447492 126 111 70
-0.114663 -0.233866 -0.452898 113 98 70
0.195082 -0.0759399 -0.39879 152 118 77
-0.311018 -0.534817 0.275907 88 59 163
-0.305442 -0.78879 0.472507 89 27 188
-0.0380291 0.596179 -0.0331966 123 204 123
0.20989 0.291535 0.0172504 154 165 130
-0.315796 -0.760516 0.249507 87 31 159
-0.428562 -0.557707 0.312153 73 56 167
-0.968032 -0.2379 0.187795 4 97 151
-0.270439 -0.731946 0.201315 93 34 153
-0.188439 0.40356 -0.392253 103 179 77
-0.339832 -0.704736 0.14125 84 38 146
-0.440587 -0.282225 -0.214139 71 92 100
0.190868 0.605419 -0.0871187 152 205 116
0.16584 -0.330374 -0.457989 149 85 69
0.358204 -0.366481 0.034212 173 81 132
-0.258638 -0.156133 0.136122 95 108 145
0.0412359 0.143383 -0.457212 133 146 69
0.593401 -0.694837 -0.131238 203 39 111
0.340388 -0.430496 -0.339557 171 73 84
-0.596912 -0.577412 -0.263565 51 54 94
-0.257077 -0.363907 0.0673202 95 81 136
-0.211897 -0.790437 0.115263 100 27 142
0.895805 -0.186848 0.058965 242 104 135
0.0987217 0.757191 -0.232483 140 224 98
0.135992 0.712499 -0.162884 145 218 107
0.381109 -0.108304 -0.223229 176 114 99
0.161608 -0.806424 0.131323 148 25 144
-0.759508 -0.54509 0.0211563 31 58 130
0.583331 -0.319316 0.168838 202 87 149
0.00870607 0.79629 -0.275381 129 229 92
-0.294896 -0.276193 -0.332914 90 92 85
0.719462 -0.170903 0.083196 219 106 138
0.245995 -0.755844 -0.455217 159 31 69
-0.0554508 -0.807711 -0.420821 120 25 74
0.341973 -0.798623 -0.327112 171 26 86
-0.869317 -0.183359 -0.014399 17 104 126
-0.454658 -0.679017 0.133426 70 41 145
0.730006 -0.555582 -0.101875 221 57 115
0.199695 -0.0588398 0.185698 153 120 151
0.414008 -0.477652 0.34293 180 67 171
-0.327687 0.0674706 -0.285279 86 136 91
0.363994 0.0199199 -0.229545 174 130 98
0.0737482 0.300466 0.0755195 137 166 137
-0.189311 0.127985 0.159194 103 144 148
0.690546 -0.461622 0.22894 216 69 157
0.288939 0.162887 -0.281826 164 148 92
-0.244711 -0.439389 0.207017 96 71 154
0.0376294 0.458621 -0.509864 132 186 62
-0.222249 -0.294225 -0.418799 99 90 74
-0.200815 -0.272342 -0.421902 102 93 74
0.355121 -0.694144 0.0574258 173 39 135
0.147503 -0.051187 -0.415267 146 121 75
0.0284808 -0.810087 -0.307628 131 24 88
0.389466 -0.326042 -0.136634 177 86 110
0.730188 -0.444741 -0.0952323 221 71 115
0.286039 -0.299774 0.0785126 164 89 138
0.243189 0.573735 -0.130289 159 201 111
0.812623 -0.17981 0.0754737 231 105 137
0.483395 -0.419948 -0.263593 189 74 94
0.349663 -0.170225 -0.242635 172 106 97
-0.313949 -0.745562 -0.00464762 87 32 127
-0.274875 -0.0313368 -0.0509093 92 124 121
0.29237 0.208838 -0.27971 165 154 92
-0.426196 -0.684921 0.149778 73 40 147
-0.658129 -0.507013 0.159681 44 63 148
-0.100781 -0.125533 -0.436401 115 111 72
-0.287629 -0.750516 0.0864142 91 32 139
0.0701319 0.00224731 0.272684 136 128 162
-0.294861 0.69722 -0.475088 90 216 67
0.631006 -0.67826 -0.103668 208 41 114
-0.651933 -0.140161 -0.0427975 44 110 122
-0.259778 0.372495 -0.201569 94 175 102
0.437591 -0.568329 -0.386462 183 55 78
-0.00213963 0.115495 -0.455697 127 142 69
0.677723 -0.372462 -0.0803832 214 80 117
-0.253564 -0.702041 0.506738 95 38 192
-0.819593 -0.256011 0.132277 23 95 144
-0.366995 -0.590248 0.508676 81 52 192
0.416056 -0.204049 -0.197041 181 101 102
0.588371 -0.608572 -0.248656 203 50 96
0.0996027 0.773421 -0.303973 140 226 89
0.197683 -0.472423 0.360554 153 67 173
-0.744977 -0.408229 0.0975112 33 75 140
-0.249668 0.0758719 0.146339 96 137 146
-0.136897 0.45995 -0.0457011 110 186 122
0.644949 -0.547161 0.242715 210 58 158
-0.636064 -0.332141 -0.125416 46 85 112
0.196315 -0.206971 0.165153 153 101 149
-0.169063 -0.398064 0.242931 106 77 158
0.406702 -0.715711 -0.36609 179 36 81
0.294006 -0.548613 -0.439769 165 58 71
-0.398856 -0.340342 -0.192319 77 84 103
0.885765 -0.245273 0.30087 240 96 166
0.0773031 0.605816 -0.0129116 137 205 126
0.307847 0.21495 -0.0826996 167 155 117
0.154632 -0.183269 0.234293 147 104 157
0.29442 -0.05047 -0.294093 165 121 90
-0.172335 0.471519 -0.396744 106 188 77
0.337802 -0.0102114 -0.0264383 171 126 124
0.363944 0.0884603 -0.0831595 174 139 117
0.313023 -0.396267 -0.379161 167 77 79
-0.614399 -0.504862 -0.248729 49 63 96
0.577101 -0.633011 -0.253214 201 47 95
-0.0177363 0.0318358 -0.42445 125 132 73
0.922677 -0.318871 0.159845 245 87 148
-0.143672 0.425735 -0.0555238 109 182 120
0.555446 -0.336854 -0.0993839 198 85 115
-0.738459 -0.361223 0.146682 33 81 146
-0.430288 -0.586526 0.453833 73 53 185
-0.0896725 -0.695414 -0.516979 116 39 62
-0.724017 -0.283105 0.197924 35 91 153
0.983838 -0.173322 0.223888 253 105 156
-0.300122 0.169371 -0.206572 89 149 101
0.581729 -0.234859 -0.128878 202 98 111
-0.144542 -0.807664 -0.355162 109 25 82
-0.0819063 -0.810813 -0.166667 117 24 106
0.212357 0.0405741 0.16112 155 133 148
-0.232546 0.49384 -0.237766 98 190 97
0.231787 -0.191359 0.100166 157 103 140
-0.266946 -0.552744 0.479264 93 57 189
0.547349 -0.535201 0.298849 197 59 166
0.65554 -0.591657 0.201997 211 52 153
-0.180453 -0.805249 0.0642085 104 25 136
0.0530017 -0.641754 -0.52011 134 46 61
-0.402193 -0.708057 0.0786999 76 37 138
-0.419545 -0.704691 0.0424475 74 38 133
0.641661 -0.167707 0.0785463 209 106 138
-0.752951 -0.363142 -0.0563628 31 81 120
0.777365 -0.433657 0.127413 227 72 144
0.212148 0.596254 -0.101879 155 204 115
-0.309839 0.12399 -0.268429 88 143 93
0.107749 -0.668679 0.365283 141 42 174
0.455043 -0.64646 0.270796 186 45 162
-0.0454219 0.588335 -0.524658 122 203 61
-0.0416633 -0.0659066 0.308231 122 119 167
-0.8467 -0.368312 0.171792 20 81 149
-0.190868 -0.432739 0.26375 103 72 161
0.674668 -0.518375 -0.170864 214 61 106
0.583737 -0.709097 -0.0896336 202 37 116
0.308038 -0.513972 -0.421326 167 62 74
-0.056008 0.257707 0.0272182 120 160 131
-0.268095 -0.448806 0.230012 93 70 157
0.243007 0.490766 -0.0649625 158 190 119
-0.405962 -0.638584 0.290468 76 46 165
-0.655981 -0.268831 0.128197 44 93 144
0.550962 -0.255694 -0.14689 198 95 109
-0.0668446 0.190502 0.162189 119 152 148
0.00917265 -0.45571 -0.492432 129 69 65
-0.850638 -0.263935 0.0262421 19 94 131
-0.0188547 -0.685808 -0.521438 125 40 61
-0.0910105 -0.667083 -0.521096 116 42 61
-0.124816 -0.42159 -0.481646 112 74 66
-0.0666317 -0.0976237 0.283144 119 115 164
0.0260489 -0.809379 -0.0706028 131 24 118
0.386216 0.0734813 -0.0984204 177 137 115
-0.089886 0.260078 0.0618322 116 161 135
-0.449481 -0.751253 0.374891 70 32 175
-0.890653 -0.339575 0.227369 14 84 156
0.731152 -0.547067 0.169444 221 58 149
0.523899 -0.142907 -0.0488368 194 109 121
-0.496216 -0.720386 -0.0528959 64 36 121
-0.0322027 0.566318 -0.0209697 123 200 125
0.131731 -0.811253 -0.175229 144 24 105
0.209014 -0.289929 -0.424665 154 91 73
0.157873 -0.805562 0.229036 148 25 157
-0.104133 0.713889 -0.501697 114 219 64
-0.309521 -0.169957 -0.058588 88 106 120
0.121923 0.749222 -0.234664 143 223 98
0.106152 0.0111576 0.249686 141 129 159
-0.488644 -0.56478 0.222446 65 55 156
-0.583389 -0.648726 -0.0105762 53 45 126
-0.151728 0.68292 -0.268611 108 215 93
0.545699 -0.191514 0.0734627 197 103 137
-0.97179 -0.274621 0.224634 4 92 156
0.32247 -0.698972 0.124631 169 38 143
-0.149518 0.575642 -0.402514 108 201 76
0.309014 -0.10439 -0.302668 167 114 89
0.379255 -0.714703 -0.400892 176 36 76
0.410665 -0.359601 0.0871144 180 82 139
0.2505 0.0401066 0.104939 159 133 141
0.461411 -0.355524 -0.162944 186 82 107
-0.352541 -0.650601 -0.426774 83 45 73
-0.195654 -0.809639 -0.204676 103 24 101
-0.856756 -0.271295 0.248054 18 93 159
0.263208 -0.710285 0.0705763 161 37 136
-0.31673 -0.784817 -0.313217 87 27 88
0.176283 -0.151919 -0.417004 150 108 74
0.150732 -0.409403 0.236542 147 75 158
-0.463113 -0.481168 0.219509 68 66 155
-0.281039 -0.154999 -0.305726 92 108 89
0.265732 0.522625 -0.322404 161 194 86
0.32405 -0.25458 -0.0187524 169 95 125
0.42453 -0.385906 0.275878 182 78 163
0.373559 -0.313999 -0.0404355 175 87 122
-0.853353 -0.20758 -0.0197885 19 101 125
-0.0576917 0.368485 0.0414977 120 174 133
0.272718 0.495784 -0.317586 162 191 87
-0.168795 -0.809545 -0.119348 106 24 112
0.0303268 -0.756399 0.23382 131 31 157
-0.196389 -0.799183 0.326583 102 26 169
0.0427318 -0.507893 0.339423 133 63 171
-0.157122 -0.0330311 -0.399791 107 123 77
-0.0975775 0.670798 -0.122687 115 213 112
0.114382 -0.80632 0.143317 142 25 146
-0.408487 -0.418713 0.17783 75 74 150
0.377279 -0.161187 -0.00273033 176 107 127
-0.314873 -0.421133 -0.35934 87 74 82
0.372556 0.0990794 -0.137245 175 140 110
-0.0733914 0.536704 -0.494337 118 196 64
0.111374 -0.532478 0.377366 142 60 176
-0.725584 -0.573998 -0.127235 35 54 111
-0.125266 -0.605261 -0.514433 112 50 62
-0.336868 -0.684625 0.257756 85 40 160
0.35387 -0.363452 0.116605 173 81 142
-0.0542114 -0.518231 -0.505917 121 61 63
0.235353 -0.809726 -0.0566268 158 24 120
-0.492181 -0.322303 -0.00735702 65 86 127
-0.356308 0.0626675 -0.255515 82 135 95
-0.171722 -0.757712 -0.475472 106 31 67
0.770964 -0.225583 0.0183069 226 99 130
-0.160979 -0.0290907 0.224341 107 124 156
-0.293598 -0.0582494 -0.298221 90 120 89
0.212992 0.482658 -0.444543 155 189 71
-0.409472 -0.359021 0.0695944 75 82 136
-0.260834 -0.134433 0.0277267 94 110 131
-0.338968 -0.803783 -0.266091 84 25 94
-0.544629 -0.321895 0.054387 58 86 134
0.85784 -0.256075 0.0147747 237 95 129
-0.34218 -0.282713 -0.215092 84 91 100
-0.23744 0.651018 -0.354315 97 211 82
0.271409 -0.101234 0.0155591 162 115 129
-0.195458 0.137125 -0.363954 103 145 81
-0.263036 -0.76133 0.0191375 94 30 130
-0.424809 -0.790674 -0.221862 73 27 99
0.15089 0.315671 0.0681433 147 168 136
0.223313 -0.249513 -0.407287 156 96 76
0.280974 0.449684 -0.322703 163 185 86
-0.122164 -0.806204 0.0361539 112 25 132
-0.190011 -0.395993 0.147684 103 77 146
-0.436449 -0.00977774 -0.141569 72 126 109
-0.486203 -0.211121 -0.229377 66 101 98
-0.0453039 0.376541 -0.487731 122 176 65
-0.387974 -0.229189 -0.0549374 78 98 120
-0.258046 0.731601 -0.414615 95 221 75
0.418517 0.0129405 -0.0815855 181 129 117
0.0128644 -0.163794 0.315806 129 107 168
-0.413627 -0.289943 -0.0645133 75 91 119
0.0173806 0.487027 -0.516668 130 190 62
0.269611 -0.310488 0.105095 162 88 141
-0.422936 -0.756215 -0.266666 74 31 94
0.306104 -0.0543314 -0.275459 167 121 92
0.806919 -0.182648 0.0312783 230 104 131
0.0331508 -0.494719 0.320375 132 64 168
0.302816 -0.0509347 -0.0210242 166 121 125
-0.498139 -0.493765 0.220982 64 65 156
0.842922 -0.351535 0.195412 235 83 152
-0.527186 -0.564182 -0.3181 60 56 87
-0.569282 -0.592274 -0.286168 55 52 91
-0.320788 -0.712596 0.197163 87 37 153
-0.108092 0.794294 -0.388166 114 229 78
-0.754534 -0.367692 0.13101 31 81 144
-0.268203 -0.10223 -0.00799397 93 114 126
0.748994 -0.480621 0.179468 223 66 150
-0.176138 -0.132729 0.226088 105 111 156
0.29055 -0.697555 -0.460154 165 39 69
0.715978 -0.182873 0.104835 219 104 141
-0.315593 -0.507652 0.380212 87 63 176
0.16612 0.193803 -0.403955 149 152 76
-0.338512 -0.800602 0.279392 84 25 163
0.549966 -0.715719 -0.155698 198 36 108
-0.932359 -0.321103 0.0969577 9 87 140
0.760766 -0.575114 0.0041075 224 54 128
0.27393 0.156174 -0.320182 162 147 87
0.234044 -0.29788 0.131508 157 90 144
0.458395 -0.603601 -0.391332 186 51 78
-0.225811 -0.0665707 -0.36198 99 119 81
-0.799149 -0.27477 0.206593 26 92 154
0.628648 -0.317141 -0.0952137 208 87 115
-0.478089 -0.167058 -0.232288 67 106 98
-0.508907 -0.675752 -0.291186 63 41 90
0.2972 -0.329043 0.0626574 165 86 135
-0.25493 0.631064 -0.458869 95 208 69
-0.101841 0.127566 0.206908 115 144 154
-0.0984594 0.162619 0.184994 115 148 151
0.0123613 -0.811137 -0.206834 129 24 101
0.100375 -0.280916 0.216266 140 92 155
-0.107944 0.199636 -0.416646 114 153 74
0.0452849 -0.539646 -0.513417 133 59 62
-0.189859 -0.251106 0.182797 103 95 151
-0.621441 -0.312111 0.118666 48 88 143
-0.182347 -0.683677 -0.505273 104 40 63
-0.18656 0.421982 -0.123689 104 181 112
-0.39023 0.0491562 -0.211631 78 134 101
0.462414 -0.0606772 -0.0655151 186 120 119
-0.14721 0.749892 -0.300394 109 223 89
0.00922587 0.726303 -0.50319 129 220 63
-0.383087 0.0443837 -0.121715 79 133 112
0.0149177 -0.403861 -0.502115 129 76 63
0.190078 -0.762492 -0.460346 152 30 69
-0.0547155 0.756595 -0.252525 121 224 95
-0.641426 -0.253489 0.135096 46 95 145
-0.0808461 0.803224 -0.386896 117 230 78
0.134323 -0.4591 0.315305 145 69 168
-0.021879 -0.17398 0.304101 125 105 166
-0.0728514 -0.459232 0.276726 118 69 163
-0.959772 -0.31766 0.211736 5 87 154
0.749234 -0.435933 0.17365 223 72 150
0.498471 -0.747317 -0.204366 191 32 101
0.521117 -0.281139 -0.152089 194 92 108
-0.185156 -0.782468 -0.432537 104 28 72
0.452092 -0.273647 0.0342144 185 93 132
0.178382 0.264721 0.104504 150 161 141
-0.296371 0.0901657 -0.304118 90 139 89
0.18581 0.643109 -0.110814 151 209 113
-0.127888 -0.0227774 0.258006 111 125 160
-0.0206458 -0.5789 -0.524801 125 54 61
-0.246834 -0.786204 -0.0167082 96 27 125
-0.80065 -0.364523 0.127719 25 81 144
-0.432084 -0.227854 -0.020653 72 98 125
-0.141002 0.377907 -0.438055 110 176 72
0.107532 -0.769554 0.250893 141 29 159
0.0467195 0.301573 0.0666521 133 166 136
0.269469 -0.740922 0.297458 162 33 165
0.642369 -0.642421 0.135032 209 46 145
-0.717619 -0.542756 0.0975692 36 58 140
0.459622 -0.72492 0.0126683 186 35 129
-0.130764 -0.781502 0.278801 111 28 163
0.249725 -0.380737 0.209329 159 79 154
-0.773105 -0.382732 0.0196164 29 79 130
0.260713 -0.729023 0.0434368 161 35 133
-0.0103194 0.194501 0.292224 126 152 165
-0.193753 0.26354 0.0778239 103 161 137
-0.458427 -0.758684 -0.240954 69 31 97
-0.952336 -0.319182 0.175697 6 87 150
0.608644 -0.488492 -0.210407 205 65 101
-0.0793398 -0.604967 0.39212 117 50 177
0.217897 -0.111472 0.188801 155 113 152
-0.924405 -0.3471 0.202773 10 83 153
-0.155417 0.258733 -0.40495 108 160 76
-0.255954 0.119254 -0.317029 95 143 87
0.203158 -0.81032 -0.305701 153 24 89
-0.129775 -0.224194 0.254401 111 99 160
0.370131 -0.238368 -0.178468 175 97 105
0.133655 -0.246042 0.200028 145 96 153
0.756319 -0.225008 0.109656 224 99 141
-0.450013 -0.242184 -0.230046 70 97 98
-0.0404977 0.171734 0.30587 122 149 166
-0.54446 -0.588793 -0.307081 58 52 88
0.412933 -0.558262 0.342958 180 56 171
0.346492 -0.20249 -0.261843 172 102 94
-0.419994 -0.668697 0.187889 74 42 151
-0.118202 0.348459 -0.448357 112 172 70
-0.0653708 0.0117864 0.275438 119 129 163
0.0361472 -0.231717 0.30412 132 98 166
0.236951 0.173669 0.13 158 150 144
-0.165323 0.676666 -0.307805 106 214 88
-0.118665 0.46073 -0.447596 112 186 70
-0.361834 -0.465322 0.204953 81 68 154
-0.248789 0.233823 -0.284311 96 157 91
0.400249 -0.305276 -0.134864 179 89 110
-0.00190488 0.450362 0.0474296 127 185 134
0.231927 -0.25599 0.117507 157 95 142
-0.297145 -0.741808 0.0645422 90 33 136
-0.0665362 0.160528 0.241496 119 148 158
-0.179759 -0.497993 0.29741 105 64 165
-0.853629 -0.352898 0.232813 19 83 157
-0.682196 -0.423729 0.148779 41 73 146
-0.00235195 0.23321 0.110936 127 157 142
-0.0418438 0.477995 -0.0332763 122 188 123
-0.732538 -0.165452 0.0455001 34 106 133
0.0839396 -0.471898 -0.488003 138 67 65
0.0881301 -0.43702 0.270423 139 72 162
-0.389917 -0.522306 0.348669 78 61 172
-0.0884874 -0.196427 -0.448556 116 102 70
-0.189103 0.65474 -0.32452 103 211 86
-0.125284 -0.277 -0.458441 112 92 69
0.206419 -0.735246 0.290277 154 34 165
0.290493 -0.74704 0.0158801 165 32 130
-0.438423 -0.555479 0.376687 72 57 176
0.266107 0.372328 -0.352872 161 175 83
-0.119289 -0.789687 0.253906 112 27 160
-0.332747 -0.242732 -0.0677671 85 97 119
0.212159 -0.811317 -0.143661 155 24 109
-0.0833357 -0.304162 -0.476186 117 89 67
0.145975 0.661559 -0.100514 146 212 115
0.500947 -0.539162 0.316245 191 59 168
-0.530705 -0.66201 0.00812447 60 43 129
0.270307 0.292633 -0.220121 162 165 99
-0.37806 -0.704031 0.138494 79 38 145
-0.18394 -0.473215 -0.466141 104 67 68
-0.0344013 -0.371295 -0.501747 123 80 64
0.106841 -0.720909 -0.497653 141 36 64
0.231291 -0.645039 0.377342 157 45 176
0.187386 0.65847 -0.133956 151 211 110
-0.531735 -0.648191 0.126275 60 45 144
0.415079 -0.373151 -0.233836 180 80 98
-0.0188572 0.276134 0.0383902 125 163 132
0.376495 -0.361136 0.145177 176 81 146
-0.0486773 0.168486 0.189505 121 149 152
-0.903437 -0.284753 0.177363 12 91 150
0.249583 -0.0284157 -0.349765 159 124 83
0.830344 -0.264835 -0.0029639 233 94 127
0.263888 0.262987 -0.292149 161 161 90
-0.298866 -0.253703 0.0214787 89 95 130
0.0611455 0.157713 0.225013 135 148 156
0.065746 0.166079 0.17672 136 149 150
0.00391534 0.678115 -0.0880585 128 214 116
-0.296291 0.0790032 0.0239767 90 138 131
0.0744999 -0.545536 -0.512813 137 58 62
-0.729255 -0.392123 -0.124443 35 78 112
0.00873466 0.301969 -0.479123 129 166 66
-0.289297 -0.287987 0.0490383 91 91 134
0.0136744 -0.777169 0.213881 129 28 155
0.180497 0.647955 -0.401363 151 210 76
-0.201511 0.329428 -0.364358 102 170 81
0.479015 -0.349736 -0.122771 189 83 112
0.237463 -0.0818068 0.16604 158 117 149
-0.10079 -0.788846 0.238112 115 27 158
-0.0656085 0.368367 -0.478218 119 174 67
-0.674971 -0.635557 -0.120943 41 46 112
0.904123 -0.326343 0.219997 243 86 156
0.316737 -0.209284 -0.333033 168 101 85
0.482019 -0.751155 -0.0786389 189 32 117
-0.518251 -0.676797 -0.0308914 61 41 124
0.524072 -0.148174 -0.099453 194 109 115
0.485792 -0.751577 -0.104613 189 32 114
-0.0892987 0.503939 -0.469298 116 192 68
0.249309 -0.0701914 -0.363291 159 119 81
-0.447728 -0.740084 0.420287 70 33 181
-0.380337 -0.781684 0.464461 79 28 187
0.262565 -0.623084 -0.46347 161 48 68
-0.453419 -0.779069 -0.216516 70 28 100
0.272479 -0.499117 -0.430517 162 64 73
-0.377562 -0.609024 0.512771 79 50 193
0.0899678 0.173811 -0.452688 139 150 70
-0.290596 0.240969 -0.0971572 90 158 115
0.483694 -0.0812947 -0.123214 189 117 112
-0.199776 -0.298103 -0.432861 102 89 72
-0.19401 0.344095 -0.0352192 103 171 123
-0.771278 -0.241473 0.15783 29 97 148
0.290139 0.365476 -0.206149 164 174 101
0.560475 -0.721256 -0.0753735 199 36 118
-0.239153 0.739466 -0.368068 97 222 81
0.201338 0.0552115 -0.363503 153 135 81
-0.188046 -0.568516 0.434013 104 55 183
-0.336697 -0.722294 0.520624 85 35 194
-0.231869 -0.806973 -0.0715768 98 25 118
-0.292136 0.22558 -0.139183 90 156 110
0.929145 -0.299239 0.0988285 246 89 140
-0.436848 -0.789657 -0.133731 72 27 110
0.39198 -0.776993 -0.0469131 177 28 122
0.0938018 -0.754447 -0.478909 139 31 66
-0.55737 -0.260104 -0.189736 56 94 103
-0.481466 -0.682112 0.0856897 66 41 138
-0.218848 -0.504652 0.269071 100 63 162
-0.756454 -0.438598 -0.116828 31 72 113
0.373997 -0.369716 -0.250232 175 80 96
0.217817 -0.801662 0.271914 155 25 162
0.162068 0.706513 -0.308073 148 218 88
0.637463 -0.506472 0.258941 209 63 161
0.188357 -0.178556 0.201467 152 105 153
-0.440651 -0.321168 -0.0669911 71 87 119
0.0155945 -0.80699 0.0517497 129 25 134
-0.608117 -0.170337 -0.133867 50 106 110
0.86168 -0.23866 0.300525 237 97 166
0.276006 0.199498 -0.294295 163 153 90
-0.0666944 0.608907 -0.521926 119 205 61
0.253829 0.3301 -0.359284 160 170 82
0.685907 -0.495068 -0.155714 215 64 108
0.0501227 -0.20365 -0.455181 134 102 69
0.405959 -0.364909 -0.211039 179 81 101
-0.233337 0.35439 -0.130429 98 173 111
0.182151 -0.8111 -0.237835 151 24 97
0.443784 -0.305671 -0.149905 184 89 108
0.619227 -0.669734 0.077572 206 42 137
0.693512 -0.579984 0.181496 216 54 151
-0.0821489 -0.524596 0.3409 117 61 171
0.0225772 0.194965 0.282195 130 152 163
-0.313886 0.0938199 -0.0925711 87 139 116
-0.547173 -0.135556 -0.135593 58 110 110
0.0525683 -0.284779 0.273619 134 91 162
-0.287823 -0.551973 0.486885 91 57 190
-0.756903 -0.521059 -0.112867 31 61 113
0.607151 -0.28651 -0.117856 205 91 112
0.639004 -0.655216 -0.151339 209 44 108
0.146822 -0.810632 -0.314885 146 24 87
-0.208195 0.741099 -0.332332 101 222 85
0.746241 -0.395465 -0.0326754 223 77 123
-0.852387 -0.357966 0.0790434 19 82 138
0.132314 -0.659155 -0.504704 144 43 63
-0.758397 -0.38094 0.0595944 31 79 135
-0.168598 -0.57336 0.422969 106 54 181
0.269365 -0.0573191 -0.00400097 162 120 127
-0.567968 -0.702161 -0.173334 55 38 105
-0.804653 -0.243124 0.119813 25 97 143
-0.129812 -0.727371 0.372358 111 35 175
0.0317222 -0.422486 -0.499115 132 74 64
-0.20281 0.403355 -0.138341 102 179 110
-0.226268 -0.757812 0.441628 99 31 184
0.381416 -0.625681 0.334486 176 48 170
-0.348119 0.0989604 -0.147658 83 140 109
0.308361 -0.626455 0.355549 167 48 173
-0.34911 -0.327916 -0.17957 83 86 105
-0.160881 0.574738 -0.440159 107 201 71
0.457862 -0.333855 0.00441298 186 85 128
-0.0905428 -0.0666194 0.284841 116 119 164
-0.0859724 -0.754031 -0.490628 117 31 65
0.429505 -0.76448 -0.0587358 182 30 120
-0.327851 -0.789401 0.47677 86 27 188
0.0267948 -0.504234 -0.49629 131 63 64
0.793517 -0.240799 0.139418 229 97 145
-0.121713 -0.620594 0.410527 112 48 180
0.158225 0.403071 -0.0214502 148 179 125
-0.489058 -0.395224 -0.247219 65 77 96
-0.0298567 -0.804352 -0.0130388 124 25 126
0.557744 -0.618908 0.239648 199 49 158
-0.503032 -0.334096 0.035048 63 85 132
-0.219998 -0.738909 -0.481959 99 33 66
0.361046 -0.391114 -0.283855 174 78 91
-0.824212 -0.160319 0.035383 22 107 132
-0.794023 -0.479193 -0.0366231 26 66 123
-0.359302 -0.730925 -0.00606982 82 34 127
-0.860597 -0.345146 0.258616 18 83 160
0.645696 -0.666732 -0.0443036 210 42 122
0.171106 -0.655682 -0.493843 149 44 65
-0.690202 -0.219739 -0.115548 39 99 113
-0.235037 0.262444 -0.28664 98 161 91
-0.281243 0.720436 -0.380598 92 219 79
0.327279 -0.367487 0.155887 169 81 147
-0.548025 -0.380238 0.150606 58 79 147
-0.30148 0.0228319 -0.0650547 89 130 119
-0.874075 -0.30981 0.00908465 16 88 129
-0.404397 -0.715571 -0.011169 76 36 126
-0.411762 -0.709024 0.492012 75 37 190
-0.506173 -0.363119 0.117304 63 81 142
0.513099 -0.732454 -0.0352498 193 34 123
0.103908 0.474627 -0.50481 141 188 63
0.355549 -0.362671 -0.311119 173 81 88
-0.00122473 0.509219 -0.518529 127 192 61
0.0829437 -0.323183 0.203196 138 86 153
0.890093 -0.231242 0.123915 241 98 143
0.0158886 0.158374 -0.45982 130 148 69
0.388814 -0.0311792 -0.0273578 177 124 124
-0.11022 -0.583019 -0.516562 113 53 62
-0.405024 -0.0737485 -0.262145 76 118 94
0.235311 0.143899 0.0839827 158 146 138
-0.318052 -0.205654 -0.0577783 87 101 120
-0.0948213 0.116884 -0.423318 115 142 74
0.22777 0.558817 -0.406973 157 199 76
-0.0499922 -0.805077 0.192954 121 25 152
-0.141732 -0.803132 0.252597 109 25 160
0.0553548 0.0456601 0.294557 135 133 165
0.70734 -0.572672 -0.127711 218 54 111
-0.115827 0.515794 -0.442827 113 193 71
0.144024 -0.0850389 0.241288 146 117 158
0.284258 0.113629 -0.262603 164 142 94
0.0103338 0.131978 0.333346 129 144 170
0.20311 -0.806402 0.123422 153 25 143
-0.232765 0.166663 0.140176 98 149 145
0.163827 -0.810382 -0.330692 148 24 85
0.209665 0.510005 -0.449776 154 193 70
-0.375961 -0.43292 -0.352939 80 72 83
0.197009 0.0835112 0.161026 153 138 148
-0.348671 -0.305678 -0.212743 83 89 100
-0.367918 -0.525516 -0.419917 81 60 74
0.567642 -0.698571 -0.196011 200 38 103
0.27014 -0.690298 0.326834 162 39 169
0.316085 -0.698327 0.0941817 168 38 140
-0.311628 0.0507795 -0.0767411 88 134 118
-0.156085 0.500804 -0.0384711 108 191 123
0.290186 0.0603712 -0.0169901 164 135 125
-0.292803 -0.483923 0.239954 90 66 158
0.555484 -0.683613 -0.244893 198 40 96
-0.326342 -0.457401 -0.398377 86 69 77
0.122899 -0.372908 -0.482879 143 80 66
0.407684 -0.596464 -0.408552 179 51 75
-0.243078 0.3087 -0.241525 97 167 97
-0.369272 -0.146664 -0.268559 80 109 93
-0.316273 -0.80319 0.325928 87 25 169
0.347897 -0.524029 -0.413147 172 61 75
0.39021 -0.469114 0.343145 177 68 171
0.379686 -0.644043 0.323239 176 45 169
0.180733 0.687922 -0.320303 151 215 87
-0.406149 -0.347849 -0.214127 76 83 100
0.281245 -0.810721 -0.248861 163 24 96
-0.0152841 -0.754247 -0.492503 126 31 65
-0.167159 -0.530352 -0.493558 106 60 65
0.152572 0.623853 -0.46076 147 207 69
0.36368 -0.262678 -0.0298675 174 94 124
-0.17503 0.343069 0.00471787 105 171 128
-0.843238 -0.353447 0.203604 20 82 153
-0.456471 -0.534462 0.239794 69 59 158
0.0573949 -0.344194 0.25669 135 84 160
-0.0472199 0.634759 -0.0572357 121 208 120
0.538955 -0.717725 -0.212743 196 36 100
0.811891 -0.31532 0.283199 231 87 164
-0.34792 -0.283925 -0.194329 83 91 103
0.275799 -0.231614 0.0693537 163 98 136
0.123028 0.144804 -0.423651 143 146 73
-0.407473 -0.161813 -0.256069 76 107 95
0.595213 -0.68884 0.0299099 203 40 131
0.469627 -0.184859 -0.189872 187 104 103
0.125356 -0.762509 -0.468655 143 30 68
0.703893 -0.608164 0.123552 217 50 143
-0.635764 -0.260009 -0.147149 46 94 109
-0.30688 -0.121936 -0.0756686 88 112 118
0.240619 -0.778319 0.289083 158 28 164
0.100673 -0.807926 -0.0103627 140 24 126
-0.474984 -0.634249 -0.347702 67 47 83
0.121774 0.733278 -0.189732 143 221 103
-0.155896 -0.335391 0.193749 108 85 152
0.260709 -0.520331 0.384821 161 61 177
0.363805 -0.597972 -0.421543 174 51 74
0.401088 -0.437071 0.323924 179 72 169
-0.227336 -0.049629 0.17608 99 121 150
0.276658 -0.576409 0.387436 163 54 177
0.522416 -0.734485 -0.0562203 194 34 120
-0.346916 -0.418834 0.196826 83 74 153
0.913708 -0.278561 0.0570946 244 92 135
0.791929 -0.217486 0.0114745 228 100 129
-0.378794 -0.763597 -0.0625629 79 30 120
0.1866 -0.810226 -0.325568 151 24 86
0.796474 -0.354515 0.0765007 229 82 137
-0.915963 -0.202911 0.0852495 11 102 138
-0.0733613 -0.100333 -0.438002 118 115 72
-0.0519749 0.544024 0.000324616 121 197 128
0.62921 -0.231982 -0.107356 208 98 114
-0.465464 -0.494507 -0.330352 68 64 85
0.0297421 0.176381 0.306288 131 150 167
-0.249014 -0.618859 0.504946 96 49 192
0.51261 -0.384372 -0.151697 193 78 108
-0.201693 0.589808 -0.247861 102 203 96
-0.621327 -0.653195 -0.0323825 48 44 123
0.288909 -0.404944 -0.403888 164 76 76
0.351098 0.0954312 -0.203755 172 140 102
0.182272 0.479461 -0.0199083 151 189 125
0.0992731 0.475397 -0.0193722 140 188 125
-0.469867 -0.683791 0.382849 68 40 176
0.0602745 -0.409149 -0.498912 135 75 64
0.339727 -0.559587 0.360522 171 56 173
-0.314938 0.111842 -0.0468728 87 142 122
0.175031 -0.0691572 -0.407272 150 119 76
0.194501 -0.804601 0.0247725 152 25 131
-0.45672 -0.307855 -0.192793 69 88 103
0.680795 -0.414972 -0.124624 214 75 112
-0.515503 -0.67647 0.0500001 62 41 134
-0.1473 -0.765459 0.327495 109 30 169
0.0741291 -0.662978 0.37102 137 43 175
0.670974 -0.645193 -0.0279103 213 45 124
0.452803 -0.345627 0.162556 185 83 148
-0.147503 0.584834 -0.476837 109 202 67
-0.448942 -0.350236 -0.00431392 70 83 127
0.245109 0.602606 -0.319347 159 204 87
0.194909 -0.0262619 -0.38996 152 124 78
0.0690605 -0.809917 -0.099154 136 24 115
-0.374163 -0.679272 0.276279 80 41 163
-0.438796 -0.0896474 -0.240571 72 116 97
-0.237609 -0.0477439 0.157313 97 121 148
-0.627565 -0.145614 0.0269678 47 109 131
-0.760326 -0.232361 0.140667 31 98 145
-0.251708 -0.33055 -0.417454 95 85 74
-0.606543 -0.32146 0.102789 50 87 141
-0.0343039 -0.662801 0.377909 123 43 176
-0.161617 -0.0559099 -0.402524 107 120 76
-0.65869 -0.598956 0.0763171 44 51 137
0.120278 0.723562 -0.434412 143 220 72
-0.15659 0.0510948 0.221684 108 134 156
-0.155346 -0.453359 -0.471115 108 70 67
0.256053 -0.0666675 0.033629 160 119 132
0.225515 -0.475269 -0.439468 156 67 71
-0.794406 -0.438014 -0.00563509 26 72 127
-0.00140317 0.366375 0.0678613 127 174 136
0.0800271 0.0807788 -0.414742 138 138 75
-0.163099 0.648719 -0.200021 107 210 102
0.332047 -0.373266 0.196919 170 80 153
0.608971 -0.650348 -0.211453 205 45 101
0.0153651 -0.415064 0.231451 129 75 157
0.402833 -0.382062 0.265754 179 79 161
0.220245 0.220286 0.0531917 156 156 134
0.276141 -0.811229 -0.154109 163 24 108
0.336595 -0.236412 -0.302799 170 97 89
0.324015 0.163016 -0.165097 169 148 106
0.885278 -0.332408 0.157217 240 85 148
-0.332753 -0.241709 -0.219431 85 97 100
0.986795 -0.246198 0.17965 253 96 150
-0.334399 -0.196537 -0.0821289 85 102 117
0.969017 -0.226876 0.134936 251 99 145
0.0435309 0.223274 0.10513 133 156 141
-0.276767 0.243484 -0.171424 92 159 106
0.207509 0.626137 -0.375434 154 207 80
-0.620701 -0.183522 0.0981512 48 104 140
-0.0360625 -0.750588 -0.49651 123 32 64
-0.263788 -0.808323 -0.248187 94 24 96
0.0788773 0.590469 -0.519404 138 203 61
-0.166178 0.772473 -0.330708 106 226 85
0.0987573 -0.559334 -0.512922 140 56 62
-0.228767 -0.78216 0.0551787 98 28 135
0.23718 -0.197654 -0.396512 158 102 77
0.359535 -0.644566 -0.436882 173 45 72
-0.469987 -0.07442 -0.111234 68 118 113
-0.640199 -0.641515 -0.18275 46 46 104
-0.243385 0.0337346 0.14679 96 132 146
0.14824 0.722611 -0.323017 146 220 86
-0.65026 -0.319585 0.118127 45 87 143
-0.942011 -0.245806 0.136756 7 96 145
-0.394961 -0.71515 0.0169086 77 36 130
-0.244567 0.463636 -0.208809 96 187 101
0.00928293 -0.443435 0.227165 129 71 156
0.81959 -0.275156 0.279879 232 92 163
-0.275429 0.243414 -0.0727455 92 159 118
0.342604 -0.691988 0.132632 171 39 144
0.308837 0.0356775 -0.0359796 167 132 123
-0.12115 -0.187902 -0.438253 112 104 72
0.230445 0.278269 -0.0173338 157 163 125
0.447798 -0.0766966 -0.189224 185 118 103
0.0438394 0.279924 -0.473817 133 163 67
0.367607 -0.288553 -0.260141 174 91 94
-0.315761 0.0758539 -0.0462432 87 137 122
-0.144735 -0.807152 -0.377809 109 25 79
0.227614 0.635723 -0.317946 157 209 87
-0.56192 -0.57735 0.179962 56 54 150
0.0696081 -0.460625 0.311197 136 69 167
-0.150444 -0.568946 -0.504181 108 55 63
0.646195 -0.397646 0.230432 210 77 157
-0.395055 -0.393271 -0.296753 77 77 90
0.215801 0.264293 0.0496872 155 161 134
0.682226 -0.639032 -0.0674343 214 46 119
0.429275 -0.777744 -0.267774 182 28 93
-0.000977404 -0.518142 -0.506776 127 61 63
-0.397312 -0.743403 0.484557 77 33 189
-0.550667 -0.345388 -0.161946 57 83 107
-0.155681 0.406299 -0.430734 108 179 73
0.0955539 0.363699 0.0358188 140 174 132
0.274109 0.25227 -0.0559808 162 160 120
-0.0371525 0.417695 0.0269261 123 181 131
-0.433729 -0.586132 -0.373677 72 53 80
-0.28756 0.715379 -0.462929 91 219 68
0.427962 -0.29837 0.00789642 182 89 129
0.289712 0.47553 -0.277702 164 188 92
-0.21841 0.0236441 0.183365 100 131 151
0.270074 -0.264578 0.0904817 162 94 139
-0.147756 0.247331 0.107828 109 159 141
0.289966 0.341719 -0.241262 164 171 97
0.513546 -0.149538 -0.142481 193 108 109
0.0621387 0.154527 0.267166 135 147 162
0.269866 0.54397 -0.17339 162 197 105
-0.526991 -0.716305 -0.236106 60 36 97
-0.47605 -0.336149 -0.188052 67 85 104
-0.767621 -0.373264 0.0860082 30 80 138
0.0724889 0.720514 -0.486609 137 219 65
0.00815015 0.338799 0.0513913 129 171 134
-0.692762 -0.145578 -0.0010447 39 109 127
-0.39956 -0.685309 0.508527 77 40 192
-0.326261 -0.37007 0.0649347 86 80 136
-0.64415 -0.619306 0.0380672 45 49 132
0.333839 -0.0602595 -0.0203465 170 120 125
0.0976489 -0.8095 -0.361072 140 24 81
-0.667303 -0.308917 0.131386 42 88 144
0.525919 -0.224134 -0.158518 195 99 107
0.202279 0.683017 -0.279195 153 215 92
-0.460315 -0.208177 -0.235123 69 101 98
-0.303815 -0.306628 -0.344915 89 88 84
-0.0144327 -0.81049 -0.127209 126 24 111
-0.310452 0.046314 -0.305272 88 133 89
-0.16301 -0.80624 0.0230474 107 25 130
-0.224169 0.192731 0.122653 99 152 143
0.339369 -0.192264 -0.0252638 171 103 124
0.508114 -0.188389 -0.166185 192 103 106
0.169511 0.495651 -0.481402 149 191 66
-0.218345 -0.0150821 -0.351317 100 126 83
-0.0610352 0.125206 -0.438293 120 143 72
0.105636 -0.784603 -0.449537 141 27 70
-0.023159 0.750793 -0.209886 125 223 101
-0.748437 -0.252423 0.191981 32 95 152
0.231831 -0.684896 0.336975 157 40 170
0.781087 -0.49699 -0.0110735 227 64 126
0.49099 -0.670348 0.133714 190 42 145
-0.73408 -0.544134 -0.137783 34 58 110
-0.356465 -0.727343 0.0160424 82 35 130
-0.129957 -0.584855 0.404702 111 53 179
0.912947 -0.307535 0.113663 244 88 142
0.317831 -0.718643 -0.448107 168 36 70
0.0342538 -0.276864 0.282826 132 92 164
0.260973 -0.805896 0.139799 161 25 145
0.218207 0.438899 -0.0964193 155 183 115
0.126152 0.444181 -0.491775 144 184 65
-0.619788 -0.463667 0.18023 48 68 150
-0.00721956 -0.438807 -0.491464 127 72 65
-0.0243521 -0.810086 -0.28271 124 24 91
0.0637879 0.430054 0.00174871 136 182 128
0.237393 -0.23125 -0.3971 158 98 77
-0.111662 0.792898 -0.316586 113 229 87
0.205017 -0.128765 0.199376 154 111 153
0.690887 -0.505996 0.22504 216 63 156
0.624028 -0.410969 -0.162004 207 75 107
-0.277015 -0.760017 -0.00486505 92 31 127
-0.520936 -0.229148 -0.215111 61 98 100
0.266547 -0.782886 -0.422153 161 28 74
0.144302 -0.638748 -0.503038 146 46 63
0.0854043 0.735728 -0.459595 138 221 69
-0.407312 -0.528294 0.374609 76 60 175
0.0701782 -0.224923 -0.459241 136 99 69
-0.254598 0.41852 -0.199436 95 181 102
0.407695 -0.355257 -0.149542 179 82 108
-0.285007 -0.582536 0.507173 91 53 192
0.764013 -0.507075 -0.0554899 225 63 120
0.479887 -0.592089 -0.337606 189 52 84
0.20048 -0.808525 -0.0218699 153 24 125
0.238064 0.32092 -0.0405082 158 168 122
0.194528 -0.806543 0.103143 152 25 141
0.239732 0.623619 -0.281636 158 207 92
0.202291 0.514203 -0.0483281 153 193 121
0.389038 -0.0972124 -0.0070068 177 115 127
0.125996 -0.104008 0.250086 144 114 159
0.221683 -0.797709 0.070624 156 26 137
-0.77714 -0.430639 0.0536142 28 73 134
-0.225415 -0.431419 -0.432112 99 72 72
-0.335845 -0.0756044 -0.0723135 85 118 118
0.460689 -0.378347 0.0630631 186 79 136
0.422326 -0.705293 0.046121 181 38 133
0.0151271 0.0944898 0.354672 129 140 173
-0.0652964 0.622698 -0.0479927 119 207 121
0.337815 -0.0612707 -0.239729 171 120 97
-0.590968 -0.617804 -0.259131 52 49 94
-0.231456 -0.230071 0.105406 98 98 141
0.265647 -0.71145 -0.465349 161 37 68
-0.121262 -0.804738 0.20917 112 25 154
-0.189376 0.612764 -0.464236 103 206 68
0.105273 -0.437514 0.28695 141 72 164
-0.615714 -0.611115 0.120538 49 50 143
-0.00968513 -0.0437522 0.295187 126 122 165
0.157307 0.719141 -0.203946 148 219 101
-0.952912 -0.217002 0.0466928 6 100 133
-0.113934 0.0556818 -0.400233 113 135 76
0.217922 0.0833131 -0.345999 155 138 83
0.488983 -0.673619 0.159754 190 42 148
-0.459796 -0.665036 0.435244 69 43 183
-0.283212 0.0645005 -0.317105 91 136 87
0.278177 0.0331021 -0.0194299 163 132 125
0.688618 -0.335535 -0.0630376 215 85 119
0.795566 -0.337566 0.0235819 229 84 131
0.0777708 -0.302702 0.240635 137 89 158
-0.233377 -0.40866 0.167154 98 75 149
0.15452 -0.806543 0.102403 147 25 141
-0.468229 -0.632424 0.377488 68 47 176
0.557804 -0.424137 0.281128 199 73 163
-0.443726 -0.7533 0.352563 71 31 172
0.530641 -0.422068 -0.204153 195 74 101
0.788777 -0.482395 0.0193426 228 66 130
-0.564335 -0.411197 0.173676 56 75 150
-0.254846 0.682645 -0.481045 95 215 66
0.671121 -0.546262 -0.174942 213 58 105
0.727368 -0.3985 0.184208 220 77 151
0.330182 0.132409 -0.207917 170 144 101
0.189385 -0.806208 0.170712 152 25 149
0.00192578 0.78675 -0.420776 128 228 74
-0.243937 0.129163 0.0737563 96 144 137
0.389077 -0.759645 -0.338538 177 31 84
-0.0256872 0.447118 -0.494414 124 185 64
0.846637 -0.328228 0.0444203 235 86 133
0.626455 -0.301295 0.158527 207 89 148
-0.316027 -0.267357 -0.009792 87 93 126
0.187995 -0.172894 -0.417269 151 105 74
-0.136998 0.758702 -0.42905 110 224 73
-0.0887225 0.348691 -0.461941 116 172 69
-0.917145 -0.354489 0.118628 11 82 143
0.0323932 -0.0676146 -0.43652 132 119 72
-0.0411399 -0.684536 -0.522077 122 40 61
-0.231967 -0.0276037 -0.340164 98 124 84
0.467885 -0.277121 -0.164096 187 92 107
0.147287 -0.10581 -0.421221 146 114 74
0.407642 -0.681222 0.201833 179 41 153
-0.47652 -0.103254 -0.212541 67 114 100
-0.162472 0.602098 -0.124323 107 204 112
-0.245679 -0.25462 -0.382296 96 95 79
0.053648 -0.382475 0.212153 134 79 155
0.338818 -0.290565 -0.035876 171 90 123
0.503639 -0.372185 -0.184648 192 80 104
0.534885 -0.322183 0.143335 196 86 146
-0.260602 -0.164873 0.0432302 94 106 133
-0.642123 -0.541474 0.15867 46 58 148
-0.226905 -0.808585 -0.268566 99 24 93
0.143474 0.723079 -0.367525 146 220 81
0.273518 0.289323 -0.093134 162 164 116
-0.363682 -0.80415 -0.104185 81 25 114
-0.321218 -0.654459 -0.473158 87 44 67
-0.00588025 -0.367899 0.28043 127 81 163
-0.493237 -0.252908 0.0251088 65 95 131
0.54307 -0.371016 0.246237 197 80 159
0.727534 -0.36176 0.14955 220 81 147
0.362429 -0.568723 -0.415753 174 55 74
0.475188 -0.159917 -0.188022 188 107 104
-0.158113 -0.370683 0.212055 107 80 155
0.273409 -0.809354 -0.341154 162 24 84
-0.397002 -0.534184 0.307048 77 59 167
-0.802832 -0.235101 0.0843224 25 98 138
0.0324896 0.475957 -0.0181014 132 188 125
-0.824101 -0.338839 0.265315 22 84 161
0.507984 -0.408775 -0.236153 192 75 97
0.232879 0.186491 0.0644303 157 151 136
0.049937 -0.584615 -0.520989 134 53 61
0.675652 -0.173453 0.112166 214 105 142
0.872613 -0.33545 0.232167 239 85 157
0.873033 -0.231914 0.0408885 239 98 133
0.8727 -0.250224 0.151595 239 96 147
-0.922642 -0.15494 0.043678 10 108 133
-0.131241 -0.073857 0.246468 111 118 159
0.0238392 0.0491582 -0.423589 131 134 73
-0.0805675 -0.411202 -0.502872 117 75 63
-0.17027 0.742721 -0.428057 106 222 73
0.258652 -0.093095 0.0775721 160 116 137
0.943117 -0.224945 0.26337 248 99 161
-0.000286895 -0.795273 -0.446661 127 26 71
0.216611 0.251958 -0.359453 155 160 82
-0.237796 -0.188114 0.162705 97 104 148
-0.267984 -0.0648307 -0.0291151 93 119 124
-0.2964 -0.401797 -0.356014 90 76 82
0.494915 -0.652894 -0.31573 191 44 87
0.475626 -0.110041 -0.172248 188 113 106
-0.804208 -0.286623 0.243551 25 91 159
0.170977 -0.811269 -0.15834 149 24 107
0.124072 -0.805978 0.18237 143 25 151
-0.351857 -0.230041 -0.084729 83 98 117
-0.757737 -0.244256 -0.0837135 31 96 117
0.50621 -0.362642 0.244603 192 81 159
-0.00811537 0.367896 -0.49455 126 174 64
0.238123 0.0310366 -0.341311 158 131 84
-0.306084 -0.5227 0.454118 88 61 185
-0.297898 -0.768801 0.24252 90 29 158
0.171191 0.610497 -0.447631 149 205 70
-0.261275 -0.803311 0.264534 94 25 161
-0.419475 -0.763726 0.291909 74 30 165
0.0390848 0.448165 0.0291488 132 185 131
-0.127998 -0.432769 0.276625 111 72 163
-0.246811 0.452297 -0.185636 96 185 104
0.44486 -0.431589 -0.294699 184 72 90
0.526566 -0.564187 0.302845 195 56 166
-0.311262 -0.72518 -0.403133 88 35 76
-0.115608 -0.660646 0.403182 113 43 179
0.67385 -0.55382 0.21899 213 57 155
0.222509 -0.80623 0.145886 156 25 146
-0.271015 -0.80797 -0.149611 93 24 108
0.145141 -0.281478 -0.449239 146 92 70
0.456318 -0.520249 0.331482 186 61 170
-0.46761 -0.359956 -0.043523 68 82 122
-0.758939 -0.202771 0.0789731 31 102 138
-0.515371 -0.645464 0.141302 62 45 146
-0.298825 -0.805008 -0.0760522 89 25 118
-0.463722 -0.622325 0.352515 68 48 172
-0.330212 -0.260349 -0.0453268 85 94 122
0.588349 -0.6838 0.0693944 203 40 136
0.260558 0.0779782 0.121143 161 137 143
-0.311143 0.150577 -0.114022 88 147 113
0.0231664 -0.0914454 0.293931 130 116 165
0.625592 -0.191165 0.118545 207 103 143
0.182765 0.303021 0.0378223 151 166 132
-0.103964 0.285643 0.0770715 114 164 137
-0.300426 -0.50323 0.24406 89 63 159
-0.287295 -0.0276962 -0.025487 91 124 124
0.397861 -0.68053 -0.424927 178 41 73
0.559396 -0.651739 -0.261808 199 44 94
0.357168 -0.200076 -0.215306 173 102 100
-0.617318 -0.341045 0.103269 49 84 141
0.0304393 0.439998 -0.50381 131 184 63
-0.237754 -0.808298 -0.123004 97 24 112
-0.234692 0.0258952 -0.331091 98 131 85
0.3891 -0.682824 0.106147 177 40 141
0.505978 -0.582764 -0.313744 192 53 87
0.199626 0.65233 -0.354384 153 211 82
-0.861714 -0.28611 0.198363 18 91 153
-0.251435 -0.541404 -0.46824 95 58 68
-0.179366 0.373498 -0.0705719 105 175 119
0.625391 -0.2009 -0.092766 207 102 116
0.274089 0.164115 0.0100428 162 148 129
-0.379679 -0.738445 -0.32795 79 33 86
-0.0153903 -0.736934 0.281641 126 34 163
-0.211483 -0.219835 0.152425 101 99 147
0.221742 -0.795768 0.00477972 156 26 128
-0.0976452 -0.0319267 -0.421423 115 123 74
0.049453 0.194766 0.135179 134 152 145
0.267849 -0.0413707 -0.332735 162 122 85
0.342597 -0.165058 -0.262705 171 106 94
-0.0263303 0.543213 -0.520298 124 197 61
0.141689 0.669298 -0.456456 146 213 69
-0.416859 -0.0200924 -0.103959 74 125 114
-0.596208 -0.314469 -0.140116 51 87 110
-0.805343 -0.197564 -0.0227103 25 102 125
0.463541 -0.0516704 -0.130631 187 121 111
0.363312 -0.365051 0.0792702 174 81 138
-0.410926 0.0138517 -0.213214 75 129 100
-0.321831 -0.807197 -0.220632 86 25 99
0.337178 -0.135813 -0.255381 170 110 95
-0.0395744 -0.444026 -0.488287 122 71 65
-0.150111 -0.40717 0.246954 108 76 159
-0.19868 -0.614428 -0.497278 102 49 64
0.218532 0.00238607 -0.366942 155 128 81
0.0439698 -0.661704 -0.51947 133 43 61
0.21487 0.592328 -0.399504 155 203 77
0.176489 0.063201 0.196098 150 136 153
0.950792 -0.238989 0.159335 249 97 148
-0.305631 -0.443551 -0.391291 89 71 78
0.220615 0.615435 -0.363348 156 206 81
-0.338806 -0.427401 -0.363415 84 73 81
-0.101699 0.502188 -0.452051 115 192 70
0.750329 -0.56702 -0.046455 223 55 122
-0.391785 -0.805278 -0.187753 78 25 104
-0.358883 -0.37091 0.0806675 82 80 138
0.164348 -0.808702 -0.0398722 148 24 122
-0.226515 -0.3306 0.124315 99 85 143
-0.408602 -0.788957 -0.234751 75 27 98
-0.232256 -0.141018 0.18078 98 110 151
0.706155 -0.561763 0.184963 218 56 151
0.506818 -0.182627 0.041231 192 104 133
0.100585 -0.328179 -0.474137 140 86 67
0.502163 -0.743789 -0.120842 192 33 112
-0.338897 -0.380633 0.112228 84 79 142
-0.745105 -0.367699 -0.0804025 32 81 117
0.936133 -0.142236 0.0962902 247 109 140
-0.38502 -0.747292 -0.0488837 78 32 121
-0.0021716 0.74947 -0.192234 127 223 103
-0.787305 -0.186323 0.0615791 27 104 135
0.50039 -0.135453 -0.0547904 191 110 121
-0.469999 -0.475333 -0.319118 68 67 87
-0.379107 -0.667361 0.212594 79 42 155
0.167932 -0.613135 -0.496482 149 49 64
0.00171682 -0.392128 0.258819 128 78 160
-0.0385785 0.19881 0.154797 123 153 147
-0.186413 -0.425267 0.175942 104 73 150
0.734413 -0.248405 0.189878 221 96 152
-0.559829 -0.556046 -0.29513 56 57 90
-0.614486 -0.573713 -0.248388 49 54 96
0.958718 -0.27627 0.211307 250 92 154
-0.00906282 0.610972 -0.0231646 126 205 125
0.0715655 -0.811276 -0.207969 137 24 101
0.287943 0.40926 -0.217749 164 180 100
0.116899 0.346618 0.045177 142 172 133
0.0104841 -0.810966 -0.172518 129 24 106
0.262106 -0.805948 0.169804 161 25 149
-0.421364 0.00322503 -0.132126 74 128 111
0.449465 -0.457209 -0.315183 185 69 87
0.294724 0.442123 -0.241869 165 184 97
0.55799 -0.5315 -0.258067 199 60 95
0.587856 -0.646129 -0.238165 202 45 97
0.379958 -0.368343 0.204211 176 81 154
-0.447224 -0.0350308 -0.120868 70 123 112
-0.239215 -0.158016 -0.364901 97 107 81
0.451766 -0.212867 -0.19027 185 100 103
-0.268295 -0.24139 -0.351566 93 97 83
-0.590378 -0.539504 -0.270215 52 59 93
-0.297345 0.184258 -0.0593493 90 151 120
0.0567064 0.326604 -0.481571 135 169 66
-0.477291 -0.276587 -0.21351 67 92 100
-0.123808 0.687162 -0.504757 112 215 63
-0.616128 -0.327031 -0.127402 49 86 111
0.916743 -0.140571 0.129469 244 110 144
0.644835 -0.387489 -0.11942 210 78 112
-0.528321 -0.183833 -0.208586 60 104 101
0.599004 -0.347731 -0.0773864 204 83 118
-0.570322 -0.621529 -0.275187 55 48 92
0.26287 -0.58624 -0.458677 161 53 69
-0.198725 0.620046 -0.353923 102 207 82
-0.0229565 -0.243669 -0.470168 125 96 68
0.375457 -0.0720532 -0.22879 175 118 98
-0.17314 0.461353 -0.100701 105 186 115
0.240169 0.145633 0.142548 158 146 146
0.190751 -0.720013 -0.480826 152 36 66
0.123669 -0.808626 -0.41373 143 24 75
-0.932936 -0.192921 0.0790309 9 103 138
-0.197044 0.376061 -0.115269 102 175 113
0.287543 -0.634335 0.374115 164 47 175
-0.0163238 -0.711515 0.333159 125 37 170
0.353402 -0.664753 -0.442105 173 43 71
0.261545 -0.0433864 0.112546 161 122 142
0.312266 -0.00591134 -0.253176 167 127 95
-0.0513515 -0.595859 0.387012 121 52 177
0.505996 -0.349749 0.221473 192 83 156
-0.226157 -0.58412 0.47451 99 53 188
0.152868 0.0383514 0.222328 147 132 156
0.458645 -0.105183 -0.0299982 186 114 124
-0.0791054 0.105846 0.263118 117 141 161
0.7591 -0.55853 -0.0288569 224 56 124
-0.353667 -0.67049 -0.412584 82 42 75
0.290739 -0.730746 0.031832 165 34 132
-0.478469 -0.498382 0.225118 66 64 156
0.347915 -0.810436 -0.204031 172 24 101
0.788773 -0.438307 0.0766407 228 72 137
-0.107025 0.704505 -0.208481 114 217 101
0.168392 -0.687776 -0.491799 149 40 65
-0.617802 -0.668599 -0.0713309 49 42 118
0.329017 -0.698453 0.0587704 169 38 135
-0.457436 -0.161431 -0.0306428 69 107 124
0.232517 0.234546 0.0725708 157 157 137
0.294702 -0.206851 0.0331825 165 101 132
-0.569916 -0.372491 -0.203232 55 80 102
0.208356 0.164116 -0.39301 154 148 77
-0.150569 -0.610381 0.426744 108 50 182
