ply
format ascii 1.0
comment Created by Open3D
element vertex 1217
property double x
property double y
property double z
property uchar red
property uchar green
property uchar blue
end_header
0.00383927 0.790804 0.789024 128 228 228
-0.530395 0.952948 -0.105465 60 249 114
0.270763 -0.994538 0.273612 162 1 162
0.159738 0.345787 -0.375443 148 172 80
0.256477 0.716065 0.497326 160 219 191
-0.349906 -0.108907 -0.157699 83 114 107
-0.183588 0.75487 0.598507 104 224 204
0.217222 0.548955 -0.0867823 155 197 116
0.146574 -0.519815 0.370566 146 61 175
0.209551 0.832294 0.4091 154 234 180
0.394805 -0.788974 -0.38361 178 27 79
0.451144 0.583081 -0.283527 185 202 91
0.426897 -0.788664 -0.352439 182 27 83
0.538485 0.39643 -0.619454 196 178 49
0.179651 0.815737 0.557764 150 232 199
0.21214 0.162596 -0.392754 155 148 77
-0.398285 0.569168 -0.00756136 77 200 127
0.109182 -0.35557 0.247273 141 82 159
0.275105 0.324912 -0.28625 163 169 91
0.281011 -0.538329 -0.109721 163 59 114
-0.0420698 -0.796883 0.813589 122 26 231
0.107121 0.369289 0.583037 141 175 202
-0.119767 -0.0256287 0.611358 112 124 205
0.126953 -0.766739 -0.116385 144 30 113
-0.689877 0.762727 -0.306842 40 225 88
0.388863 -0.379805 -0.235808 177 79 97
0.341317 0.668579 -0.485706 171 213 66
-0.393729 -0.190621 -0.0924985 77 103 116
-0.235883 0.493716 0.383486 97 190 176
-0.351811 0.482051 -0.275385 83 189 92
-0.29343 -0.746448 0.178266 90 32 150
0.263835 -0.105255 -0.323171 161 114 86
-0.211098 -0.988571 0.340511 101 1 171
0.323012 -0.75292 0.679347 169 32 214
0.440501 -0.291494 -0.651966 184 90 44
0.218856 0.499352 0.1406 155 191 145
-0.396052 -0.986031 0.239135 77 2 158
-0.129007 -0.327957 0.340331 111 86 171
-0.0534509 -0.986521 0.681853 121 2 214
-0.58761 -0.770422 0.24357 53 29 159
0.638762 0.501808 -0.642347 209 191 46
0.190613 0.898863 0.310137 152 242 167
-0.552811 -0.036969 -0.842808 57 123 20
0.274746 0.380319 0.1766 163 176 150
0.249727 -0.995502 0.00148928 159 1 128
0.426283 -0.783336 -0.180577 182 28 104
0.609327 -0.00639704 -0.829563 205 127 22
0.271056 0.695162 0.432119 162 216 183
-0.434845 -0.822503 0.646383 72 23 210
-0.412363 -0.960031 -0.36118 75 5 81
0.188274 -0.0775706 -0.346377 152 118 83
-0.202855 0.168384 -0.507799 102 149 63
0.27187 -0.364756 0.452111 162 81 185
0.247685 -0.10729 0.462407 159 114 186
0.158819 0.767485 0.662356 148 225 212
0.348664 -0.184364 -0.732068 172 104 34
-0.156141 -0.234283 0.40619 108 98 179
0.180539 0.82711 0.259014 151 233 161
-0.174188 -0.822858 -0.497522 105 23 64
-0.132827 0.130508 0.620062 111 144 207
-0.733767 0.896008 -0.42991 34 242 73
0.249888 -0.994114 0.597128 159 1 204
0.324721 -0.358112 0.418971 169 82 181
0.21987 -0.936718 0.777796 156 8 227
-0.305358 0.0920782 0.0017237 89 139 128
-0.45684 -0.981055 0.523052 69 2 194
0.111908 -0.321853 0.346823 142 86 172
-0.300249 0.291596 0.356411 89 165 173
0.0671991 -0.777849 -0.463543 136 28 68
0.673803 0.770273 -0.308147 213 226 88
-0.194328 -0.247907 -0.585211 103 96 53
0.0970853 -0.773518 0.0653414 140 29 136
-0.00888358 -0.967532 -0.515176 126 4 62
0.388684 -0.782368 -0.0492198 177 28 121
0.305164 0.139115 0.0154861 166 145 129
0.507164 0.621632 -0.325002 192 207 86
0.269358 0.1503 -0.704908 162 147 38
-0.213343 0.7497 0.530084 100 223 195
0.612485 -0.785462 0.0877046 206 27 139
-0.276811 -0.0640771 -0.155814 92 119 108
0.234488 0.55286 -0.403291 157 198 76
-0.295861 0.417607 -0.25301 90 181 95
0.0808173 0.341549 -0.0686948 138 171 119
-0.0357984 0.766884 0.785273 123 225 228
-0.0972475 0.431819 0.560533 115 183 199
0.767278 0.62886 -0.58334 225 208 53
-0.285045 -0.76431 0.737415 91 30 222
-0.291019 -0.651766 0.087626 90 44 139
-0.472925 0.487321 -0.501155 67 190 64
0.308392 0.315147 -0.425203 167 168 73
0.253413 0.662904 0.227976 160 212 157
0.347018 -0.316624 0.240579 172 87 158
-0.546263 0.955701 -0.184405 58 249 104
-0.163743 -0.512869 0.431801 107 62 183
-0.134842 -0.418087 0.020839 110 74 130
-0.749061 0.54301 -0.644671 32 197 45
0.304063 -0.242671 -0.613338 166 97 49
-0.373209 0.563863 -0.202132 80 199 102
0.255681 0.368552 -0.612774 160 174 49
0.116988 -0.991114 0.729684 142 1 221
0.3234 -0.53306 -0.288849 169 60 91
0.673365 0.442768 -0.683681 213 184 40
0.328498 -0.128036 0.423062 169 111 181
-0.153452 -0.0652902 -0.537687 108 119 59
-0.310388 0.436524 -0.181449 88 183 104
-0.0586953 -0.339321 -0.577365 120 84 54
0.412021 -0.996579 0.0771549 180 0 137
0.282034 -0.737231 0.702772 163 34 217
0.682644 -0.941835 0.172378 215 7 149
-0.273085 0.327581 0.422588 93 169 181
0.329046 0.064241 0.0933215 169 136 139
0.281157 0.331064 -0.629148 163 170 47
-0.225247 0.436419 0.00852856 99 183 129
-0.0972153 0.095491 0.638549 115 140 209
0.00470424 -0.617128 -0.551167 128 49 57
-0.00629413 -0.995234 -0.22338 127 1 99
0.648656 0.441172 -0.675914 210 184 41
0.15813 -0.993399 0.187825 148 1 151
-0.192329 -0.987512 0.450872 103 2 185
0.184766 -0.993477 0.545635 151 1 197
-0.462278 -0.984162 0.293834 69 2 165
-0.328928 -0.98526 0.370552 86 2 175
0.0873971 -0.398183 0.14118 139 77 146
-0.645986 -0.901914 0.285862 45 13 164
-0.488532 0.945148 -0.124743 65 248 112
-0.429591 0.51609 -0.432842 73 193 72
0.198146 0.580008 -0.262979 153 201 94
0.210405 0.214844 -0.345383 154 155 83
-0.219567 0.0201937 -0.410944 100 130 75
0.348643 -0.996071 0.27452 172 1 163
-0.6138 -0.916923 -0.107156 49 11 114
-0.726 0.394029 -0.852533 35 178 19
0.260622 -0.132027 -0.703564 161 111 38
0.121634 0.124299 -0.491477 143 143 65
-0.642332 -0.973624 0.174951 46 3 150
0.14328 0.415288 -0.0443489 146 180 122
0.274898 -0.901222 -0.467356 163 13 68
0.503613 0.538588 -0.482699 192 196 66
-0.757878 0.799888 -0.335334 31 229 85
0.249183 -0.895749 0.767308 159 13 225
-0.155545 0.791168 0.211003 108 228 154
-0.569395 -0.814286 -0.1933 55 24 103
0.29372 -0.994881 0.39324 165 1 178
0.32848 -0.451775 0.262851 169 70 161
0.208165 -0.788842 -0.485941 154 27 66
0.336145 0.183863 0.0980624 170 151 140
0.31481 -0.2584 0.394332 168 95 178
-0.382583 -0.751664 -0.0337711 79 32 123
0.391476 -0.20599 -0.131512 177 101 111
-0.295202 0.194952 -0.625785 90 152 48
0.0314002 -0.370629 0.26795 132 80 162
0.562044 -0.804595 -0.241826 199 25 97
0.414337 0.0767249 0.311722 180 137 167
0.133774 -0.994911 -0.497441 145 1 64
-0.258402 0.292141 -0.581064 95 165 53
-0.206014 0.149594 -0.527889 101 147 60
-0.208004 -0.0510677 -0.309275 101 121 88
0.592628 0.9483 -0.25766 203 248 95
-0.260721 0.278911 -0.353392 94 163 82
-0.212729 -0.640709 -0.132459 100 46 111
-0.107701 -0.684687 -0.492992 114 40 65
-0.266416 0.576608 -0.453429 94 201 70
0.541767 -0.779358 0.215734 197 28 155
0.361433 0.176134 0.403245 174 150 179
0.309599 0.710825 -0.366524 167 218 81
0.0825819 0.44681 0.569103 138 184 200
-0.403818 0.505207 -0.363063 76 192 81
-0.578515 0.641417 -0.444449 54 209 71
-0.31431 -0.471244 0.24824 87 67 159
0.303417 0.102391 0.497454 166 141 191
0.16654 -0.996048 0.392648 149 1 178
-0.342848 0.858604 -0.245202 84 237 96
0.287345 -0.768205 0.717961 164 30 219
-0.331027 -0.987873 0.186062 85 2 151
-0.205932 0.282313 -0.513921 101 163 62
0.542166 -0.779727 0.324178 197 28 169
0.125312 0.255618 -0.399568 143 160 77
-0.249484 -0.316707 0.149391 96 87 147
0.399314 -0.997009 -0.0160438 178 0 125
-0.209393 -0.11791 -0.404312 101 112 76
0.31889 -0.368824 -0.577872 168 80 54
-0.272031 0.732325 -0.145311 93 221 109
-0.321852 -0.402614 0.194471 86 76 152
0.230749 0.648417 0.532352 157 210 195
0.106012 0.346581 -0.247891 141 172 96
0.112937 -0.729228 -0.141162 142 35 110
0.352378 -0.339613 0.250823 172 84 159
0.391193 0.239966 -0.569727 177 158 55
-0.350497 0.803928 -0.348291 83 230 83
0.0233963 0.548898 0.0504295 130 197 134
-0.101607 -0.767929 -0.452474 115 30 70
-0.3384 -0.075472 -0.0361893 84 118 123
-0.345759 -0.986324 0.283503 83 2 164
-0.329807 -0.645218 -0.064175 85 45 119
0.115718 0.961834 0.472698 142 250 188
-0.285425 -0.29089 -0.671234 91 90 42
0.651549 0.847576 -0.535506 211 236 59
-0.60692 -0.983191 0.0348803 50 2 132
0.35502 -0.236225 -0.734022 173 97 34
0.160013 0.334073 -0.396489 148 170 77
0.581695 -0.787096 -0.0812766 202 27 117
-0.631594 -0.801939 -0.0579359 47 25 120
-0.496352 0.734545 -0.170074 64 221 106
0.15373 -0.770153 0.25672 147 29 160
0.111719 -0.772248 0.126748 142 29 144
0.347758 0.242081 0.259147 172 158 161
0.0424393 0.621384 0.68035 133 207 214
0.676158 0.812906 -0.256834 214 231 95
-0.774649 0.732112 -0.573422 29 221 54
0.470082 0.897749 -0.143868 187 242 109
0.0759102 -0.767716 0.463825 137 30 187
-0.282526 -0.261894 -0.396173 91 94 77
0.353168 -0.178905 0.121413 173 105 143
0.10336 0.287227 -0.301933 141 164 89
-0.365912 -0.982655 0.549895 81 2 198
-0.314548 -0.705635 0.63983 87 38 209
-0.0918044 0.96431 0.40554 116 250 179
-0.575781 -0.774893 0.4694 54 29 187
0.22663 -0.995826 -0.103281 156 1 114
0.123631 0.478145 0.541288 143 188 197
-0.0254769 -0.991606 0.374754 124 1 175
-0.346449 -0.0940548 -0.00847784 83 116 126
0.250809 0.284472 -0.237958 159 164 97
0.130856 -0.664923 0.481531 144 43 189
-0.195806 -0.76516 0.173053 103 30 150
-0.27431 0.265385 0.448816 93 161 185
-0.336354 -0.872466 -0.424082 85 16 73
0.415134 0.0373328 -0.785351 180 132 27
-0.490073 -0.765155 0.395512 65 30 178
0.394035 -0.994996 0.644033 178 1 210
-0.655811 0.93219 -0.170472 44 246 106
0.366227 -0.390091 0.283464 174 78 164
-0.0657766 -0.486139 -0.0309489 119 66 124
-0.0597536 -0.994934 -0.318121 120 1 87
0.225796 0.430939 0.118447 156 182 143
-0.431427 -0.764127 0.230951 72 30 157
-0.170536 0.429698 0.0561565 106 182 135
0.521672 -0.902188 -0.283694 194 12 91
0.238462 0.53182 0.163757 158 195 148
0.389588 0.593527 -0.615727 177 203 49
-0.371902 -0.959652 -0.391962 80 5 78
0.621645 -0.934566 -0.125075 207 8 112
0.236956 -0.993719 0.357389 158 1 173
0.230577 -0.635536 -0.441412 157 46 71
-0.522719 -0.0993119 -0.723493 61 115 35
-0.349886 -0.0295721 -0.587718 83 124 53
-0.114952 -0.949806 -0.504848 113 6 63
0.243054 -0.713892 0.250043 158 36 159
-0.0960535 -0.993928 -0.194877 115 1 103
0.490039 0.122794 -0.680756 190 143 41
-0.219437 -0.269052 0.0682682 100 93 136
0.328294 -0.884569 0.731141 169 15 221
0.200153 -0.996897 -0.364771 153 0 81
0.433553 -0.945902 0.661621 183 7 212
-0.293982 -0.990296 -0.410804 90 1 75
-0.29277 0.0206437 -0.103027 90 130 114
0.674416 0.583793 -0.726423 213 202 35
-0.120931 -0.400193 0.290575 112 76 165
-0.304313 -0.0569112 -0.692867 89 120 39
0.445026 0.699029 -0.57048 184 217 55
0.306373 -0.665942 -0.140697 167 43 110
-0.165538 0.821368 0.534733 106 232 196
-0.501509 -0.765355 0.567696 64 30 200
-0.201133 -0.0172414 -0.341262 102 125 84
0.363149 -0.996114 0.182975 174 0 151
-0.300139 -0.753426 0.491889 89 31 190
-0.016397 -0.798105 -0.525508 125 26 60
-0.338368 -0.339912 -0.00840995 84 84 126
0.62694 -0.785146 0.362561 207 27 174
0.420997 0.782938 -0.0439776 181 227 122
0.212317 -0.486818 -0.453594 155 65 70
-0.198864 0.284 0.548208 102 164 197
0.390063 0.818024 -0.119388 177 232 112
0.261717 0.457581 0.171106 161 186 149
-0.287014 -0.984242 0.495375 91 2 191
-0.109224 -0.285749 -0.550302 114 91 57
-0.627289 -0.827288 -0.0721387 48 22 118
0.482988 -0.888633 -0.327411 189 14 86
0.270857 -0.487578 -0.308853 162 65 88
-0.321691 -0.735781 -0.290481 86 34 90
0.146516 0.0604622 -0.367361 146 135 81
-0.567788 -0.954152 -0.194207 55 6 103
-0.463457 0.763271 -0.535705 68 225 59
-0.316585 -0.407079 -0.537597 87 76 59
0.454382 0.823398 -0.473405 185 232 67
-0.646476 0.673743 -0.705297 45 213 38
0.251633 -0.890755 -0.47698 160 14 67
-0.629995 0.641773 -0.493014 47 209 65
0.444713 -0.781835 0.545416 184 28 197
-0.355438 0.455476 -0.110406 82 186 113
0.0533898 -0.766833 0.639023 134 30 209
0.00341173 -0.100858 0.633402 128 115 208
0.329887 -0.768205 0.637361 170 30 209
-0.285255 -0.699079 -0.3211 91 38 87
-0.111063 0.799558 0.683645 113 229 215
0.284449 -0.717577 0.359702 164 36 173
0.170739 0.394015 -0.367032 149 178 81
-0.582455 -0.962345 0.441697 53 5 184
-0.35447 0.110239 0.186076 82 142 151
-0.242383 0.496001 0.333037 97 191 170
0.355982 0.197203 0.142457 173 153 146
-0.022184 -0.767569 0.300337 125 30 166
-0.360169 -0.425957 -0.566761 82 73 55
0.138567 0.397964 -0.316818 145 178 87
0.30779 0.649067 -0.474626 167 210 67
-0.431842 0.523594 -0.666597 72 194 43
0.34324 0.106765 0.0928038 171 141 139
-0.282156 -0.594056 -0.280161 92 52 92
0.157389 0.71385 0.659907 148 219 212
-0.297491 -0.104268 -0.221503 90 114 99
0.562612 0.739712 -0.205436 199 222 101
0.268783 -0.389067 0.459707 162 78 186
0.334422 -0.0864337 -0.61599 170 116 49
0.342297 -0.997934 -0.34476 171 0 84
-0.562755 0.161833 -0.73352 56 148 34
0.576324 -0.852556 -0.216528 201 19 100
-0.403516 -0.266199 -0.0779173 76 94 118
0.181136 0.164712 -0.290562 151 149 90
0.182748 -0.779466 -0.377384 151 28 79
-0.023632 0.398215 -0.000149624 124 178 127
0.151668 -0.261084 0.426674 147 94 182
-0.285128 -0.508856 -0.355053 91 63 82
0.740463 0.50516 -0.662606 222 192 43
-0.553502 0.854121 0.00609517 57 236 128
0.136327 -0.992518 0.559832 145 1 199
0.116942 -0.997476 -0.330735 142 0 85
-0.167093 -0.643987 0.501023 106 45 191
0.0103268 0.839038 0.163183 129 234 148
0.307072 -0.00480758 -0.0231582 167 127 125
0.609291 0.644215 -0.50472 205 210 63
-0.426551 0.229249 -0.594032 73 157 52
-0.505917 -0.24853 -0.747484 63 96 32
0.31059 -0.65094 -0.0585276 167 45 120
0.0402739 -0.768487 0.36022 133 30 173
-0.0503083 0.349473 -0.214846 121 172 100
0.28254 -0.280268 -0.382149 164 92 79
0.158145 -0.995987 -0.449177 148 1 70
-0.331847 0.346342 -0.619174 85 172 49
0.156534 -0.992334 0.690996 147 1 216
0.467439 0.0927286 -0.81276 187 139 24
-0.328 -0.24854 0.367479 86 96 174
-0.216179 -0.983409 0.69864 100 2 217
-0.347236 -0.651015 0.063173 83 44 136
0.00248536 -0.77204 0.1187 128 29 143
-0.551474 0.0172988 -0.737488 57 130 33
-0.0951326 0.954916 0.559238 115 249 199
-0.261084 0.248982 -0.00670127 94 159 127
-0.613013 0.406974 -0.836302 49 179 21
-0.392718 -0.768647 -0.0668822 77 29 119
-0.414226 -0.703517 0.00317228 75 38 128
0.136504 -0.997183 -0.278761 145 0 92
0.206242 0.604447 -0.259138 154 205 94
-0.2244 -0.711136 0.233923 99 37 157
0.25531 -0.994035 0.682993 160 1 215
0.194417 -0.896364 0.786441 152 13 228
0.201814 0.531479 0.511084 153 195 193
-0.0843241 0.225727 -0.317586 117 156 87
0.0483657 0.165181 0.646442 134 149 210
-0.492775 0.117622 -0.680749 65 142 41
-0.382871 -0.764802 0.478124 79 30 188
-0.179151 0.45704 -0.0417685 105 186 122
-0.297242 0.122614 0.494835 90 143 191
0.334898 0.709687 -0.414049 170 218 75
-0.26939 0.396256 0.276078 93 178 163
0.4379 0.0551589 -0.797063 183 135 26
-0.53653 0.527861 -0.541278 59 195 58
0.118675 -0.99509 -0.128689 143 1 111
0.422152 -0.78552 -0.280251 181 27 92
-0.316857 -0.986668 0.277684 87 2 163
-0.609608 -0.889686 0.40464 50 14 179
-0.182523 0.708318 0.252338 104 218 160
-0.151992 0.538946 -0.180063 108 196 105
0.213914 0.613677 0.540955 155 206 196
-0.0509831 0.959144 0.617903 121 250 206
0.292676 0.343685 -0.320453 165 171 87
0.20966 0.449071 0.114872 154 185 142
-0.168559 0.955212 0.22758 106 249 157
-0.0577503 -0.902718 0.811132 120 12 231
-0.298839 -0.678721 0.601019 89 41 204
-0.532143 -0.984957 0.0400666 60 2 133
-0.366416 -0.366957 -0.266425 81 81 94
-0.348036 -0.56 -0.16209 83 56 107
0.124552 -0.536488 -0.103645 143 59 114
0.315775 -0.388975 0.44349 168 78 184
0.520551 0.89663 -0.0738782 194 242 118
0.398813 0.125726 0.221836 178 144 156
0.298002 -0.731481 -0.319629 165 34 87
-0.38454 0.533339 -0.323546 78 196 86
-0.381303 -0.762381 0.337383 79 30 171
0.608326 0.810421 -0.0987182 205 231 115
-0.539065 -0.980585 0.396671 59 2 178
0.65876 0.611288 -0.547595 211 205 58
0.0844555 0.318071 0.61263 138 168 206
0.288205 -0.267661 -0.688229 164 93 40
0.231962 -0.567994 0.500414 157 55 191
-0.264028 -0.559487 -0.395329 94 56 77
-0.231283 0.726684 -0.248832 98 220 96
0.578282 -0.782596 0.105306 201 28 141
-0.135153 -0.991846 -0.0301393 110 1 124
-0.612799 0.647438 -0.474976 49 210 67
0.363849 0.236176 0.0925706 174 158 139
0.191197 0.154449 -0.353216 152 147 82
-0.0874072 0.313332 -0.313222 116 167 88
0.332383 -0.336575 -0.594231 170 85 52
-0.505605 0.463895 -0.751257 63 187 32
0.277566 0.512067 -0.486779 163 193 65
-0.261132 0.195509 -0.0204054 94 152 125
-0.441208 -0.76873 -0.0158332 71 29 125
0.349445 -0.0774349 -0.128287 172 118 111
0.12236 0.120417 0.636923 143 143 209
0.343193 0.177898 0.146082 171 150 146
0.543044 0.0216533 -0.834496 197 130 21
-0.146066 0.244975 0.573455 109 159 201
0.360526 -0.136873 0.0106859 173 110 129
-0.737919 0.798757 -0.298426 33 229 89
0.576179 0.732128 -0.599879 201 221 51
-0.0485749 -0.765854 0.438805 121 30 183
0.084779 -0.649089 -0.132667 138 45 111
-0.122477 -0.993234 0.0370013 112 1 132
-0.214324 0.707279 0.354157 100 218 173
0.226332 -0.452885 -0.414323 156 70 75
-0.25783 -0.192863 -0.493502 95 103 65
-0.16763 0.866071 0.639372 106 238 209
0.705043 0.90549 -0.270333 217 243 93
0.312956 0.353643 0.283163 167 173 164
0.12867 -0.995839 0.413728 144 1 180
0.26446 0.560468 0.446118 161 199 184
0.395763 -0.370545 -0.612427 178 80 49
0.00517941 -0.995069 -0.171119 128 1 106
-0.1966 0.989759 0.23752 102 254 158
-0.330104 -0.0975367 0.38704 85 115 177
-0.263317 0.357182 -0.217306 94 173 100
-0.272282 -0.755531 0.300347 93 31 166
0.047435 -0.894728 -0.521287 134 13 61
-0.107399 0.462066 -0.152728 114 186 108
0.268957 -0.469952 -0.0788969 162 68 117
0.148177 0.526972 0.100848 146 195 140
-0.364749 -0.749594 -0.134803 81 32 110
-0.31355 -0.635813 -0.264677 88 46 94
-0.0697957 -0.327485 0.318543 119 86 168
0.229962 0.380941 0.0969715 157 176 140
-0.412221 -0.357619 -0.147683 75 82 109
0.240147 0.188875 -0.656359 158 152 44
0.00766111 0.951662 0.349084 128 249 172
0.726501 0.318332 -0.755456 220 168 31
0.654515 -0.887707 -0.0510457 211 14 121
-0.2264 -0.993689 -0.300372 99 1 89
-0.334755 0.407583 -0.345315 85 179 83
-0.602183 -0.925081 -0.132374 51 10 111
-0.0244959 0.205391 -0.316223 124 154 87
-0.223824 0.194527 -0.335794 99 152 85
0.334814 -0.26178 0.188825 170 94 152
-0.268568 -0.986769 0.317263 93 2 168
-0.135391 -0.364906 0.250168 110 81 159
0.168899 -0.808586 -0.506472 149 24 63
0.206306 -0.311245 -0.63799 154 88 46
-0.443215 -0.986289 0.0972715 71 2 140
0.67341 0.915236 -0.190868 213 244 103
-0.393402 0.17987 -0.582938 77 150 53
-0.555623 -0.984464 0.0245748 57 2 131
-0.258434 -0.109437 -0.649624 95 114 45
-0.340008 -0.982054 0.641306 84 2 209
0.702136 0.548172 -0.623915 217 197 48
-0.0717535 -0.858838 -0.517517 118 18 62
-0.328803 -0.0750216 0.375747 86 118 175
0.325378 -0.156619 0.399931 169 108 178
0.248266 -0.494011 -0.599239 159 65 51
-0.436128 0.43095 -0.508975 72 182 63
-0.474002 0.265115 -0.798542 67 161 26
0.25028 -0.453509 -0.0718446 159 70 118
-0.289643 -0.641034 -0.0273897 91 46 124
0.312215 -0.641474 -0.278089 167 46 92
-0.466964 0.170289 -0.647984 68 149 45
0.403123 0.356212 -0.51396 179 173 62
-0.185707 -0.452451 0.24271 104 70 158
-0.223022 -0.0418081 -0.415613 99 122 75
0.124679 0.603942 0.0968352 143 205 140
0.363237 -0.128409 0.125543 174 111 144
0.249872 0.108519 -0.151979 159 141 108
0.379045 -0.316012 -0.271995 176 87 93
0.202986 0.861824 0.590808 153 237 203
0.508223 0.329811 -0.778988 192 170 28
0.0343418 0.830524 0.725206 132 233 220
0.0922779 -0.304821 -0.558369 139 89 56
0.228938 -0.193196 -0.416767 157 103 74
-0.138888 -0.760289 0.441026 110 31 184
-0.584117 0.37121 -0.835573 53 175 21
-0.00311909 -0.773773 -0.0756625 127 29 118
-0.295113 -0.610056 -0.104064 90 50 114
-0.0387187 0.272868 -0.221037 123 162 99
-0.488131 -0.981957 0.43724 65 2 183
-0.309601 0.65907 -0.467222 88 212 68
-0.0245393 0.293313 -0.192612 124 165 103
0.229577 0.777062 0.436625 157 227 183
0.176774 0.388083 -0.428352 150 177 73
-0.0741349 -0.61116 -0.11584 118 50 113
-0.618617 0.923183 -0.451005 49 245 70
0.54075 0.92841 -0.154138 196 246 108
0.355491 -0.46388 -0.277076 173 68 92
-0.654562 0.60916 -0.736586 44 205 34
0.387456 -0.784859 -0.273476 177 27 93
0.248315 -0.398133 0.210507 159 77 154
-0.289515 0.357045 0.358489 91 173 173
0.0738795 -0.181597 0.570415 137 104 200
0.383809 -0.111139 -0.761907 176 113 30
-0.333409 -0.34105 -0.69241 85 84 39
0.21255 0.283026 -0.564327 155 164 56
0.366537 0.292546 -0.730559 174 165 34
0.225141 -0.269887 0.418306 156 93 181
-0.32476 -0.985093 0.393815 86 2 178
0.42871 0.467994 -0.487059 182 187 65
0.268079 0.952222 0.32205 162 249 169
-0.342215 -0.489997 -0.0633353 84 65 119
0.259867 -0.0731321 -0.714248 161 118 36
-0.259903 -0.990096 -0.0380506 94 1 123
0.398912 -0.776026 0.395541 178 29 178
-0.235153 0.484524 0.304726 98 189 166
0.152518 -0.661887 0.637123 147 43 209
0.13892 -0.19642 0.514885 145 102 193
-0.766023 0.473469 -0.730183 30 188 34
0.15847 0.0768571 0.631314 148 137 208
0.706453 0.75874 -0.62328 218 224 48
-0.227143 0.255135 -0.227641 99 160 98
-0.454003 -0.208454 -0.664336 70 101 43
-0.132619 -0.669846 0.506931 111 42 192
-0.302997 0.344653 -0.0608504 89 171 120
-0.658431 0.312151 -0.863214 44 167 17
0.419499 -0.78189 -0.0186328 181 28 125
-0.282811 -0.17687 -0.536046 91 105 59
-0.361596 -0.289605 0.00575889 81 91 128
0.257454 -0.401157 -0.389806 160 76 78
-0.170774 -0.646861 0.641577 106 45 209
0.664296 -0.88307 0.308745 212 15 167
0.458794 -0.332762 -0.694688 186 85 39
-0.0849707 -0.771709 0.0767036 117 29 137
-0.507314 -0.952306 0.569023 63 6 200
0.0526213 0.838614 0.169752 134 234 149
0.481497 -0.276002 -0.747194 189 92 32
-0.2627 -0.662191 0.645728 94 43 210
0.277689 -0.245307 0.152982 163 96 147
0.302111 -0.412804 0.447972 166 75 185
0.170852 0.360636 -0.434737 149 173 72
-0.0743202 -0.518272 -0.560248 118 61 56
0.327863 -0.996158 -0.010017 169 0 126
0.212345 0.823735 0.296399 155 233 165
-0.306468 -0.761314 0.447674 88 30 185
0.160602 0.0026404 -0.46729 148 128 68
-0.100013 0.31486 -0.349682 115 168 83
0.536037 0.737226 -0.584053 196 221 53
0.113018 -0.992079 0.582441 142 1 202
0.182665 -0.646311 -0.145141 151 45 109
-0.385318 -0.197815 -0.176765 78 102 105
0.200187 0.363725 0.553757 153 174 198
-0.524669 -0.202111 -0.774787 61 102 29
-0.21374 -0.383101 0.185369 100 79 151
-0.437431 0.555433 -0.366103 72 198 81
-0.37474 -0.20107 -0.611815 80 102 49
-0.39179 -0.139653 -0.0523173 78 110 121
0.321042 0.730621 -0.403085 168 221 76
-0.0841266 0.0262241 0.640909 117 131 209
-0.0641421 -0.9925 -0.116575 119 1 113
0.349615 -0.344002 -0.0240148 172 84 124
-0.283855 -0.671736 0.582056 91 42 202
0.395707 -0.830262 0.689154 178 22 215
-0.285008 -0.689539 0.674297 91 40 213
0.320123 -0.108415 -0.743838 168 114 33
-0.410068 -0.353109 -0.714494 75 82 36
0.756347 0.372752 -0.734242 224 175 34
0.512332 -0.226882 -0.761747 193 99 30
-0.331692 0.152237 0.131159 85 147 144
0.158133 -0.560618 -0.134735 148 56 110
-0.509527 0.414982 -0.607737 63 180 50
-0.165109 0.465082 0.520638 106 187 194
0.370336 -0.182723 -0.219625 175 104 99
-0.775948 0.588705 -0.664838 29 203 43
-0.2626 -0.365414 -0.629302 94 81 47
0.669243 0.912716 -0.367691 213 244 81
0.0621439 0.0169126 -0.477666 135 130 67
-0.461098 0.237327 -0.621919 69 158 48
0.276449 0.654952 0.350435 163 211 172
-0.480395 0.363724 -0.775029 66 174 29
0.100132 -0.995538 -0.438836 140 1 72
-0.668738 0.506444 -0.805136 42 192 25
0.260061 0.0498846 -0.133657 161 134 110
0.36574 0.257949 0.0677093 174 160 136
-0.584951 -0.982495 0.142064 53 2 146
-0.288703 0.059815 -0.0693125 91 135 119
0.591673 0.37582 -0.680316 203 175 41
-0.606999 0.616079 -0.708939 50 206 37
-0.547084 -0.779656 -0.224613 58 28 99
-0.0368039 0.889202 0.220053 123 241 156
0.153208 0.492272 0.0925617 147 190 139
-0.0109602 -0.991514 0.398596 126 1 178
-0.23812 0.563945 0.42806 97 199 182
0.761328 0.65014 -0.552758 225 210 57
0.644557 0.737002 -0.324411 210 221 86
-0.429643 0.171003 -0.786448 73 149 27
0.658819 0.707986 -0.389127 211 218 78
0.577993 -0.891976 0.510755 201 14 193
-0.0332163 0.822667 0.715847 123 232 219
0.0235324 0.0402443 -0.475319 131 133 67
0.138744 0.657951 0.117924 145 211 143
0.389862 0.851699 -0.222312 177 236 99
-0.497022 -0.767846 0.489236 64 30 190
-0.301966 -0.731389 0.674604 89 34 214
-0.284213 -0.487421 -0.601912 91 65 51
-0.159284 -0.996748 0.226101 107 0 156
-0.389703 -0.984034 0.383473 78 2 176
0.572254 -0.970241 0.514396 200 4 193
0.78299 0.504155 -0.716157 227 192 36
-0.0537996 0.722303 0.781301 121 220 227
-0.482143 -0.986915 -0.0338183 66 2 123
0.185144 0.516993 -0.308681 151 193 88
0.702496 0.699098 -0.457688 217 217 69
-0.482096 0.956134 -0.306165 66 249 88
0.0236531 0.580267 0.587317 131 201 202
0.326442 -0.316559 0.199628 169 87 153
0.118167 -0.391542 0.297148 143 78 165
-0.0906052 0.157414 0.63715 116 148 209
-0.342928 0.0892889 0.444568 84 139 184
0.0619173 0.261347 -0.222682 135 161 99
0.599912 0.526353 -0.601023 204 195 51
0.311582 0.180932 0.476712 167 151 188
-0.15327 -0.567572 0.446664 108 55 184
0.185472 -0.647825 -0.431221 151 45 73
-0.0474517 -0.771267 0.108201 121 29 141
0.0267091 0.799212 0.756811 131 229 224
-0.639886 0.124782 -0.868635 46 143 17
0.0798394 0.635256 0.72331 138 208 220
-0.0893186 -0.990736 0.432876 116 1 183
0.259319 0.260945 -0.168507 161 161 106
-0.283622 -0.250857 0.390384 91 96 177
-0.315176 -0.0429539 -0.566147 87 122 55
-0.188631 0.645882 -0.219985 103 210 99
0.213157 -0.421049 -0.500243 155 74 64
0.404835 0.0723922 0.226516 179 137 156
-0.540634 0.402692 -0.802029 59 179 25
0.589645 -0.864842 -0.194127 203 17 103
0.406422 0.711679 -0.00918106 179 218 126
-0.245421 -0.985643 0.482992 96 2 189
0.674213 0.490121 -0.783548 213 190 28
0.59903 -0.786471 -0.0663143 204 27 119
0.599711 0.743513 -0.278356 204 222 92
-0.458096 0.935362 -0.323119 69 247 86
0.434403 -0.780122 0.0875218 183 28 139
0.0681476 -0.769079 -0.0996474 136 29 115
-0.61223 -0.981177 0.143888 49 2 146
0.125454 0.37782 -0.246548 143 176 96
0.13736 -0.992384 0.534446 145 1 196
-0.303846 -0.530713 -0.588316 89 60 52
-0.351105 -0.69955 -0.199942 83 38 102
-0.265046 -0.418696 -0.499321 94 74 64
0.712889 0.506602 -0.773201 218 192 29
-0.27408 -0.43019 0.430276 93 73 182
0.151094 -0.624914 -0.480822 147 48 66
-0.390135 0.0671128 0.237734 78 136 158
0.176594 -0.131932 -0.365319 150 111 81
-0.319081 0.126483 0.10803 87 144 141
0.616503 0.246708 -0.842327 206 159 20
-0.291892 -0.360707 -0.400431 90 82 76
0.30189 -0.544831 0.383308 166 58 176
0.116952 0.788814 0.157533 142 228 148
-0.34949 0.562508 0.0019845 83 199 128
-0.206794 0.526379 0.461623 101 195 186
0.217238 -0.996265 -0.181389 155 0 104
-0.445396 0.950319 -0.199997 71 249 102
0.662928 0.924915 -0.170493 212 245 106
0.437903 0.688212 0.00197057 183 215 128
0.651321 0.908468 -0.407625 211 243 76
0.514263 -0.998123 0.121148 193 0 143
-0.0865057 -0.983616 0.775137 116 2 226
-0.0721473 0.336288 -0.276415 118 170 92
-0.180883 0.595751 -0.312653 104 203 88
-0.276683 -0.881748 0.75352 92 15 224
0.360586 0.42879 -0.130976 173 182 111
0.0491909 -0.285206 -0.571882 134 91 55
-0.0814896 -0.993239 -0.173191 117 1 105
-0.0561571 -0.0291722 0.637757 120 124 209
0.135709 0.298765 -0.37015 145 166 80
-0.668393 0.526251 -0.642287 42 195 46
0.561688 -0.779993 0.24937 199 28 159
-0.105216 -0.549557 -0.534273 114 57 59
-0.289287 -0.471451 -0.383561 91 67 79
-0.474414 -0.765577 0.568577 67 30 200
0.290777 -0.024837 -0.0747265 165 124 118
0.694883 0.7364 -0.358068 216 221 82
-0.441134 0.597672 -0.276699 71 204 92
-0.384159 -0.310935 0.299455 79 88 166
0.372884 0.204799 0.346298 175 154 172
0.134523 -0.773367 0.083488 145 29 138
-0.316452 -0.47397 0.404316 87 67 179
-0.286503 -0.779097 -0.434802 91 28 72
-0.2196 -0.662464 0.10089 100 43 140
-0.0606975 0.679902 0.083318 120 214 138
-0.375222 -0.745256 -0.0751274 80 32 118
0.348293 0.363012 -0.681769 172 174 41
-0.734964 0.393976 -0.748771 34 178 32
0.0630753 0.903382 0.700652 136 243 217
0.223959 -0.58976 0.335598 156 52 170
-0.00833985 -0.590061 -0.559872 126 52 56
-0.182237 0.600232 0.111474 104 204 142
-0.603237 0.922853 -0.0796926 51 245 117
0.324051 -0.791595 0.731651 169 27 221
0.503309 0.672591 -0.135673 192 213 110
-0.529038 0.085729 -0.842259 60 138 20
-0.581192 0.535567 -0.578542 53 196 54
-0.405278 -0.158011 -0.769789 76 107 29
0.0278162 -0.994552 0.0296051 131 1 131
0.329683 -0.293298 0.403016 170 90 179
0.0634783 0.957032 0.37558 136 250 175
-0.203136 0.735181 0.308409 102 221 167
0.236419 -0.263154 0.134984 158 94 145
0.444718 0.410836 -0.5364 184 180 59
0.32857 -0.729999 -0.21923 169 34 100
0.221042 -0.362106 0.451787 156 81 185
0.0482022 -0.991377 0.514825 134 1 193
0.623331 -0.998292 0.312416 207 0 167
-0.287797 -0.840556 -0.453183 91 20 70
0.0597977 -0.43941 -0.574289 135 71 54
-0.0832163 -0.764776 0.321669 117 30 169
-0.308585 -0.69998 0.592928 88 38 203
0.438727 0.65281 0.00142797 183 211 128
-0.260825 -0.563173 -0.0983804 94 56 115
-0.0335285 0.0102776 0.653082 123 129 211
-0.482739 0.634184 -0.340347 66 208 84
0.190232 -0.522999 0.481462 152 61 189
-0.581562 0.237975 -0.731338 53 158 34
0.276295 0.690764 0.377669 163 216 176
0.645972 0.703128 -0.410311 210 217 75
0.12794 0.295047 -0.312251 144 165 88
0.252896 0.374105 0.108365 160 175 141
-0.315973 -0.125404 0.100366 87 112 140
-0.3817 -0.134334 0.203689 79 110 153
-0.517208 0.367055 -0.800858 62 174 25
0.0572908 -0.997644 0.138695 135 0 145
0.0322428 -0.31475 0.419143 132 87 181
-0.0712049 0.963699 0.54361 118 250 197
-0.0324189 -0.765084 0.680255 123 30 214
-0.306903 -0.152997 0.390922 88 108 177
-0.1489 -0.762331 0.0327516 109 30 132
0.0215312 -0.99346 0.369044 130 1 175
0.419855 0.121792 -0.625063 181 143 48
0.582913 -0.784049 0.0644518 202 28 136
0.220785 -0.39053 -0.521289 156 78 61
0.124391 0.0953293 -0.530225 143 140 60
0.318968 -0.424024 0.41176 168 73 180
0.236702 0.521188 0.469567 158 194 187
-0.36033 -0.869415 0.706061 82 17 218
0.318401 -0.471352 -0.532614 168 67 60
0.261622 -0.406129 -0.646475 161 76 45
-0.0628415 -0.959821 0.805087 119 5 230
0.337389 0.415141 -0.170925 171 180 106
0.59005 0.416373 -0.79669 203 181 26
-0.220744 -0.31041 0.154194 99 88 147
0.402684 0.32632 -0.728777 179 169 35
-0.35583 0.234364 0.328411 82 157 169
0.459397 0.523976 -0.405041 186 194 76
0.701993 0.437112 -0.686058 217 183 40
0.713588 0.680144 -0.484249 218 214 66
0.133914 0.284653 -0.391611 145 164 78
0.0390466 -0.769399 0.322093 132 29 169
0.258096 0.213533 -0.0436483 160 155 122
-0.138922 0.502485 -0.189418 110 192 103
-0.294689 -0.216283 0.120369 90 100 143
-0.619479 0.944497 -0.141016 49 248 110
0.126621 0.405547 -0.229839 144 179 98
-0.326397 0.835397 -0.246509 86 234 96
0.217233 0.424287 0.00558653 155 182 128
0.565675 0.561457 -0.706108 200 199 37
-0.27261 -0.432239 0.197449 93 72 153
-0.0209922 0.968615 0.593094 125 251 203
-0.398817 -0.763585 0.169791 77 30 149
0.364298 -0.781994 -0.10368 174 28 114
-0.214946 0.639975 -0.328484 100 209 86
0.755727 0.341085 -0.750476 224 171 32
-0.585511 -0.882912 0.459584 53 15 186
0.270533 0.621895 0.437343 162 207 183
0.255184 0.305056 -0.246699 160 166 96
0.308892 0.171871 0.0599503 167 149 135
-0.395909 0.57359 -0.60439 77 201 50
0.355747 -0.168783 0.0195743 173 106 130
-0.137534 0.473427 -0.198497 110 188 102
0.119979 -0.633397 -0.137459 143 47 110
0.256937 0.411058 0.137319 160 180 145
-0.198462 -0.653033 0.333979 102 44 170
0.156443 -0.657608 0.528807 147 44 195
0.015621 -0.25197 -0.57891 129 95 54
0.276129 0.367289 0.113453 163 174 142
0.224874 -0.0204261 -0.693582 156 125 39
0.721872 0.856845 -0.464507 220 237 68
-0.387773 -0.37649 -0.699811 78 79 38
0.310278 -0.996664 -0.135035 167 0 110
0.261626 0.106903 -0.131942 161 141 111
0.475041 -0.779315 0.111916 188 28 142
0.628552 -0.99878 0.141622 208 0 146
-0.291504 -0.46022 0.418325 90 69 181
0.133739 -0.439434 0.365436 145 71 174
0.0367422 -0.773431 -0.0380573 132 29 123
-0.166314 -0.45295 -0.530905 106 70 60
0.163042 -0.401259 0.426705 148 76 182
-0.132907 0.32424 -0.386619 111 169 78
0.510424 -0.997705 0.446859 193 0 184
-0.396715 0.82137 -0.432595 77 232 72
0.670527 -0.872092 0.2807 213 16 163
-0.62968 0.163709 -0.764642 47 148 30
-0.0123129 0.802607 0.741896 126 230 222
0.230863 0.915775 0.352572 157 244 172
-0.0917705 -0.387348 0.128576 116 78 144
-0.198201 0.45131 -0.0259776 102 185 124
0.562249 0.594984 -0.462486 199 203 69
0.21022 0.963111 0.384244 154 250 176
-0.497038 0.636328 -0.626168 64 209 48
0.729721 0.782099 -0.388073 221 227 78
-0.667613 0.868061 -0.147326 42 238 109
-0.65241 0.956512 -0.344406 44 249 84
0.508338 -0.0641871 -0.814245 192 119 24
-0.484595 0.145013 -0.81982 66 146 23
0.196571 -0.414579 -0.486076 153 75 66
0.195761 0.857274 0.375541 152 237 175
-0.409209 -0.314163 -0.100467 75 87 115
-0.321729 -0.374962 0.174975 86 80 150
-0.395336 -0.0499608 0.271884 77 121 162
-0.252424 -0.31883 -0.0170599 95 87 125
-0.0908395 -0.764778 0.456854 116 30 186
0.333235 -0.693274 -0.164826 170 39 106
-0.222406 -0.58212 0.308305 99 53 167
0.343546 0.544446 -0.581129 171 197 53
-0.379015 -0.382903 -0.0224984 79 79 125
0.405878 -0.238289 -0.0440831 179 97 122
0.632168 0.909005 -0.0918489 208 243 116
0.296752 -0.317558 -0.369503 165 87 80
-0.50798 -0.980627 0.469681 63 2 187
-0.116264 -0.765562 0.474583 113 30 188
0.377242 0.44124 -0.679711 176 184 41
-0.705195 0.234196 -0.808477 38 157 24
-0.597411 0.828977 -0.56761 51 233 55
-0.644889 0.631892 -0.512706 45 208 62
0.191706 -0.677397 -0.398479 152 41 77
0.345335 0.780698 -0.328696 172 227 86
0.42262 -0.852584 -0.383654 181 19 79
0.195282 0.871863 0.393644 152 239 178
-0.416183 0.543388 -0.0605045 74 197 120
-0.393293 -0.0316439 -0.620974 77 123 48
0.520218 0.184366 -0.695253 194 151 39
0.0962783 -0.994859 -0.12248 140 1 112
0.269558 0.501924 0.42591 162 191 182
-0.418215 -0.910473 -0.362284 74 11 81
-0.381414 -0.17934 -0.133837 79 105 110
-0.2253 -0.370289 -0.622116 99 80 48
0.378442 0.402939 -0.100083 176 179 115
0.0417513 -0.384039 0.220428 133 79 156
-0.681429 0.846337 -0.184561 41 235 104
0.112352 0.657986 0.698396 142 211 217
0.0722436 -0.517105 -0.0779632 137 62 118
0.478388 0.438427 -0.550292 188 183 57
0.227578 0.980093 0.227098 157 252 156
0.125349 -0.266806 0.439894 143 93 184
0.0884926 0.23011 -0.270695 139 157 93
-0.574815 0.750995 -0.255631 54 223 95
-0.17331 -0.527489 -0.115069 105 60 113
0.778075 0.483844 -0.707248 227 189 37
-0.0227578 -0.996869 0.164031 125 0 148
0.302804 0.353816 -0.181576 166 173 104
-0.249851 -0.23695 -0.494132 96 97 64
-0.783387 0.724853 -0.514219 28 220 62
-0.0419462 -0.174355 0.574221 122 105 201
-0.41492 -0.704562 0.0693873 75 38 136
-0.249428 -0.162632 -0.647216 96 107 45
-0.365716 -0.766507 0.589127 81 30 203
-0.219877 0.596537 0.364146 99 204 174
0.0714736 -0.771922 0.228593 137 29 157
0.50505 0.656963 -0.0836151 192 211 117
-0.305252 0.369181 -0.595673 89 175 52
-0.258636 0.428495 0.305783 95 182 166
-0.237268 -0.0793704 -0.252032 97 117 95
-0.271885 0.0693025 -0.628963 93 136 47
-0.622561 -0.878254 -0.0861886 48 16 117
0.19127 -0.76592 0.782137 152 30 227
0.363381 -0.759322 -0.0469305 174 31 122
-0.358915 -0.353527 0.228912 82 82 157
0.516528 -0.940426 0.587137 193 8 202
0.300743 -0.590628 -0.145741 166 52 109
0.29768 0.0664081 -0.0248577 165 136 124
0.191221 0.529557 -0.098193 152 195 115
-0.0877119 -0.763838 0.684819 116 30 215
-0.151716 -0.556656 0.364163 108 57 174
-0.151957 0.896759 0.592407 108 242 203
-0.170706 -0.66552 0.585201 106 43 202
-0.646481 0.686212 -0.402082 45 215 76
0.174598 0.101469 -0.622461 150 140 48
-0.21992 0.61744 0.312872 99 206 167
-0.175058 0.826338 0.323298 105 233 169
-0.102519 -0.388506 -0.560417 114 78 56
0.125718 0.368763 -0.280989 144 175 92
0.320331 0.289089 -0.696377 168 164 39
-0.247259 -0.983883 0.632387 96 2 208
-0.199489 0.109927 -0.273726 102 142 93
0.606483 -0.998828 0.268698 205 0 162
0.783179 0.517107 -0.751234 227 193 32
-0.234731 -0.48095 0.237978 98 66 158
-0.181431 -0.624549 -0.144615 104 48 109
0.200846 0.149136 0.60309 153 147 204
0.583108 0.758227 -0.20979 202 224 101
0.388198 -0.0092699 0.363039 177 126 174
0.742979 0.383839 -0.836196 222 176 21
-0.149814 -0.422867 0.245963 108 74 159
-0.417422 0.668106 -0.566063 74 213 55
-0.451831 0.52873 -0.402048 70 195 76
-0.462632 0.886839 -0.0314225 69 241 123
-0.175624 0.478391 0.0799877 105 188 138
0.313115 0.16015 -0.741131 167 148 33
0.292783 0.437759 0.263714 165 183 161
-0.0194527 -0.375371 0.239007 125 80 158
0.253347 -0.140735 0.43086 160 110 182
0.31971 -0.717383 0.568125 168 36 200
-0.0498451 -0.239363 0.515164 121 97 193
0.14582 -0.692028 -0.142484 146 39 109
-0.352405 0.369176 0.0640366 83 175 136
-0.0976803 -0.249859 0.459581 115 96 186
0.348546 -0.277159 -0.613574 172 92 49
0.35367 -0.68834 -0.0724504 173 40 118
0.319795 -0.100736 0.00893402 168 115 129
-0.342645 -0.990063 -0.066401 84 1 119
0.48611 -0.779127 0.148484 189 28 146
-0.14649 -0.637234 0.482555 109 46 189
0.558188 0.139213 -0.837934 199 145 21
0.503348 -0.777323 0.295559 192 28 165
0.0804779 0.313586 -0.176817 138 167 105
-0.151973 -0.690383 0.365803 108 39 174
0.624366 0.290423 -0.726912 207 165 35
0.313004 0.3542 -0.394943 167 173 77
0.368025 -0.205298 -0.741352 174 101 33
0.502453 -0.777608 0.352576 192 28 172
-0.142898 -0.766122 0.157215 109 30 148
0.24908 -0.00247011 -0.558448 159 127 56
0.064015 0.53709 0.555324 136 196 198
-0.523009 0.905435 -0.430351 61 243 73
0.315395 -0.16174 0.0356025 168 107 132
0.138786 -0.0312145 -0.600529 145 124 51
-0.0983957 0.209008 -0.361912 115 154 81
-0.47043 0.105054 -0.683894 68 141 40
0.562201 -0.973366 -0.222102 199 3 99
0.0368967 0.965135 0.397708 132 251 178
0.245709 0.992514 0.248713 159 254 159
0.382887 -0.777983 0.16459 176 28 148
0.311757 -0.224171 0.139597 167 99 145
-0.305722 -0.719205 0.548076 89 36 197
0.446315 -0.996749 0.325569 184 0 169
-0.464247 0.185524 -0.800899 68 151 25
0.722232 0.81746 -0.360041 220 232 82
0.524617 0.630823 -0.644577 194 208 45
0.320801 0.358598 -0.124015 168 173 112
-0.334227 -0.762976 0.205417 85 30 154
0.748551 0.819894 -0.508659 223 232 63
-0.0151591 -0.987227 0.739924 126 2 222
-0.374053 0.172594 0.264434 80 150 161
0.607907 -0.89564 -0.156518 205 13 108
0.411872 0.460212 -0.107326 180 186 114
-0.0816542 -0.13141 -0.526849 117 111 60
0.393506 0.164464 0.354511 178 148 173
-0.223771 0.468883 0.188735 99 187 152
0.143288 -0.0903741 -0.416993 146 116 74
-0.408384 -0.100092 -0.773935 75 115 29
0.435391 -0.783357 -0.243144 183 28 96
0.229231 0.0872337 -0.674969 157 139 41
-0.473517 -0.988316 -0.124028 67 1 112
-0.458687 0.872964 -0.414906 69 239 75
-0.295037 0.318142 -0.390926 90 168 78
-0.101949 0.432541 -0.207956 115 183 101
-0.240132 0.142361 -0.591683 97 146 52
0.259462 0.53746 -0.044019 161 196 122
0.226824 0.404458 -0.532698 156 179 60
0.696626 0.897593 -0.411032 216 242 75
-0.595685 -0.814095 -0.14377 52 24 109
-0.153255 0.550274 0.0608128 108 198 135
-0.101066 -0.986268 0.704168 115 2 217
-0.30993 0.286616 0.336054 88 164 170
0.293342 0.385514 0.198161 165 177 153
0.616833 -0.814014 0.438882 206 24 183
-0.251549 0.335008 0.472041 95 170 188
-0.143946 0.591424 0.569867 109 203 200
-0.189996 -0.994035 -0.239167 103 1 97
0.165522 0.966413 0.293171 149 251 165
-0.285236 0.224921 0.461135 91 156 186
-0.37549 0.420869 -0.0416083 80 181 122
0.460288 -0.997514 0.182915 186 0 151
0.241471 -0.442332 -0.398275 158 71 77
0.471954 0.634334 -0.624306 188 208 48
-0.40159 0.917225 -0.19662 76 244 102
-0.228054 -0.0521109 -0.606852 98 121 50
0.50686 0.928878 -0.280974 192 246 92
-0.258357 -0.302815 -0.429086 95 89 73
-0.388956 -0.986519 0.215729 78 2 155
-0.573078 -0.900105 0.483199 54 13 189
0.207663 -0.371036 0.000521898 154 80 128
0.225317 0.0977162 -0.198785 156 140 102
0.152523 -0.468351 0.390309 147 68 177
-0.0437609 -0.193086 -0.563011 122 103 56
0.313722 0.582765 -0.493152 167 202 65
-0.463169 -0.769312 0.00558183 68 29 128
0.166381 0.0995288 -0.363074 149 140 81
0.313945 -0.99563 0.369257 168 1 175
-0.182138 -0.985187 0.674481 104 2 213
0.386681 0.313447 -0.528082 177 167 60
0.16971 -0.470723 -0.546956 149 67 58
-0.245731 0.307634 -0.27081 96 167 93
0.183633 -0.720064 0.0935824 151 36 139
-0.211782 -0.986184 0.511116 100 2 193
0.309649 0.759438 -0.290339 167 224 90
0.0546492 -0.767985 0.589322 134 30 203
0.339512 0.105699 -0.584108 171 141 53
-0.338645 0.364853 0.0836825 84 174 138
-0.498496 0.720202 -0.242777 64 219 97
-0.0195817 0.790665 0.761875 125 228 225
-0.131142 -0.170836 0.533736 111 106 196
0.225788 -0.993803 0.501631 156 1 191
0.322852 0.300413 -0.0527342 169 166 121
-0.287168 -0.993328 -0.346051 91 1 83
0.562231 -0.905295 -0.232097 199 12 98
0.292163 0.29439 -0.102229 165 165 114
0.347215 -0.529658 -0.577741 172 60 54
-0.40357 -0.117742 -0.641641 76 112 46
0.246462 -0.0270908 -0.202474 159 124 102
-0.116405 -0.0622557 -0.483401 113 120 66
0.194643 0.543596 -0.176623 152 197 105
0.190687 0.421312 -0.431914 152 181 72
-0.0179644 -0.991655 0.433638 125 1 183
0.335259 -0.443742 -0.556317 170 71 57
-0.0968862 0.424839 -0.168864 115 182 106
0.712348 0.362286 -0.720603 218 174 36
-0.208771 -0.33605 0.163395 101 85 148
-0.511163 0.498351 -0.737966 62 191 33
-0.0766259 0.166751 -0.338616 118 149 84
0.398713 0.845058 -0.162747 178 235 107
0.0113915 0.97542 0.56217 129 252 199
-0.378577 -0.27095 0.0029906 79 93 128
-0.538327 0.606618 -0.438039 59 205 72
0.187234 0.229646 -0.556735 151 157 57
-0.357943 -0.143759 0.146425 82 109 146
0.29701 -0.664942 0.0728308 165 43 137
0.334474 -0.15613 0.0967243 170 108 140
0.116265 0.252137 -0.313599 142 160 88
-0.613489 0.0282796 -0.849735 49 131 19
0.117128 -0.947177 0.804258 142 7 230
-0.322846 -0.902787 0.730484 86 12 221
-0.0892394 0.581228 0.0529591 116 202 134
0.259027 0.215285 -0.020663 161 155 125
0.295496 -0.762847 0.382196 165 30 176
0.313911 -0.706844 0.667274 168 37 213
0.34708 -0.72822 0.115756 172 35 142
-0.0861868 0.410488 -0.237702 117 180 97
0.504842 -0.998085 0.175721 192 0 150
-0.00570689 0.630106 0.725252 127 208 220
0.188416 0.186358 -0.287735 152 151 91
-0.35304 0.0722375 -0.726926 82 137 35
0.162942 -0.771425 0.202425 148 29 153
-0.276371 -0.0690541 0.483191 92 119 189
-0.236072 0.725151 -0.220655 97 220 99
0.147495 0.78901 0.183044 146 228 151
0.594102 -0.0483527 -0.743634 203 121 33
0.0482593 -0.772326 -0.112603 134 29 113
0.225318 0.749964 0.577986 156 223 201
0.25423 -0.0313443 -0.177044 160 124 105
0.111133 -0.767507 0.589698 142 30 203
-0.160523 0.357033 -0.413464 107 173 75
-0.551973 -0.982222 0.287023 57 2 164
0.498272 -0.809928 -0.321445 191 24 87
-0.731955 0.356831 -0.783236 34 173 28
-0.364186 -0.383551 0.353178 81 79 173
0.0567681 0.910601 0.265055 135 244 161
-0.110573 -0.114474 0.588208 113 113 202
-0.625496 -0.944003 0.353587 48 7 173
-0.400723 0.42693 -0.683764 76 182 40
-0.331922 -0.797825 0.719203 85 26 219
-0.108111 -0.925087 0.804557 114 10 230
0.00664761 -0.988704 0.663004 128 1 212
-0.276008 0.0403024 -0.488511 92 133 65
0.03341 -0.997223 0.297313 132 0 165
0.277526 0.564803 0.355726 163 200 173
0.628496 0.115884 -0.751584 208 142 32
0.679513 -0.942939 0.225383 214 7 156
-0.225159 -0.991687 0.260658 99 1 161
0.200231 0.552417 0.526424 153 198 195
-0.572372 0.816713 -0.0779227 55 232 118
0.342218 0.164023 0.442852 171 148 184
0.304226 -0.0734091 -0.608117 166 118 50
-0.233133 -0.451683 0.202491 98 70 153
0.410904 -0.0306085 0.258947 180 124 161
0.554372 -0.99842 -0.0580129 198 0 120
0.374272 -0.822704 0.703133 175 23 217
-0.590851 0.954434 -0.180515 52 249 104
-0.0853845 -0.992503 -0.471488 117 1 67
-0.317224 -0.765126 0.582089 87 30 202
-0.307847 0.033717 -0.0364815 88 132 123
0.596062 -0.998751 0.180921 203 0 151
0.493017 0.521206 -0.522245 190 194 61
-0.0071727 0.772961 0.124239 127 226 143
-0.320156 0.0428315 -0.710379 87 133 37
0.114396 0.628589 0.653231 142 208 211
0.455668 -0.190477 -0.67349 186 103 42
0.588607 -0.998442 -0.0207975 203 0 125
0.400775 -0.442863 -0.649791 179 71 45
0.120714 -0.994294 0.0132087 143 1 129
0.166814 -0.780154 -0.394563 149 28 77
-0.37223 -0.196098 -0.744109 80 102 33
0.474268 -0.776493 0.278565 188 28 163
0.0741451 -0.144636 -0.539255 137 109 59
-0.465735 0.716144 -0.10434 68 219 114
0.278827 -0.65962 0.520131 163 43 194
0.0951005 0.0724003 0.656476 140 137 211
-0.332891 -0.282111 0.373216 85 92 175
0.299857 0.00898199 -0.576811 166 129 54
-0.472206 -0.9536 -0.309842 67 6 88
0.675027 -0.913538 0.260824 214 11 161
-0.33695 0.335771 0.125262 85 170 143
0.178941 0.801172 0.574903 150 230 201
0.118688 0.940778 0.306699 143 247 167
-0.0421273 -0.464495 0.00158123 122 68 128
0.35462 0.818125 -0.275041 173 232 92
0.548337 0.519103 -0.574456 197 194 54
-0.677254 0.387096 -0.748049 41 177 32
0.547684 -0.803775 0.548103 197 25 197
-0.163127 -0.264431 -0.542706 107 94 58
0.379658 -0.952852 -0.406283 176 6 76
-0.240527 -0.992541 0.233575 97 1 157
0.347008 0.807127 -0.171436 172 230 106
0.158864 0.433805 -0.0626977 148 183 120
0.136969 -0.364524 0.379543 145 81 176
-0.252288 -0.313667 0.420963 95 88 181
-0.394282 -0.224252 -0.104202 77 99 114
0.299404 -0.102536 0.0634894 166 114 136
0.391596 -0.163727 -0.0996399 177 107 115
-0.174881 0.869497 0.588667 105 238 203
-0.0262286 -0.773193 0.0655652 124 29 136
-0.526378 0.528792 -0.733333 60 195 34
-0.585849 -0.820099 -0.16308 53 23 107
-0.513787 0.0875828 -0.697315 62 139 39
-0.439849 0.0875633 -0.793401 71 139 26
0.394451 0.367156 -0.495107 178 174 64
-0.372294 -0.511412 -0.581852 80 62 53
0.456296 0.114964 -0.659169 186 142 43
-0.13469 -0.526624 -0.523852 110 60 61
0.296121 0.427361 -0.62235 165 182 48
0.686038 0.174426 -0.779318 215 150 28
0.220824 -0.349163 0.210658 156 83 154
-0.324846 -0.342386 -0.557415 86 84 56
-0.647051 0.825982 -0.58093 45 233 53
-0.373623 0.0679043 0.210073 80 136 154
-0.324505 -0.412676 -0.308044 86 75 88
0.0368484 -0.997649 0.108819 132 0 141
-0.174228 -0.743483 -0.392876 105 33 77
0.266302 -0.437496 0.228452 161 72 157
0.0786668 -0.784724 -0.483436 138 27 66
-0.343243 -0.283973 0.163882 84 91 148
0.32645 0.02632 0.110621 169 131 142
0.337468 -0.405972 0.270711 171 76 162
-0.593396 0.559068 -0.740206 52 199 33
-0.690347 0.896545 -0.176969 39 242 105
0.371663 -0.532143 -0.223701 175 60 99
0.445389 0.229503 -0.624853 184 157 48
0.300343 -0.995937 0.0538946 166 1 134
-0.243231 0.619844 -0.406885 96 207 76
0.521977 -0.778368 0.266249 194 28 161
-0.212656 -0.430196 0.217707 100 73 155
0.142169 -0.628334 0.466304 146 47 187
0.614961 -0.994663 -0.10226 206 1 114
-0.232934 -0.176178 0.385614 98 105 177
0.459246 -0.778664 0.132533 186 28 144
0.173994 -0.378523 0.436032 150 79 183
-0.173659 -0.578268 0.332435 105 54 170
0.247912 -0.671191 0.697551 159 42 216
-0.533345 -0.766046 0.367968 59 30 174
-0.675759 0.401378 -0.846386 41 179 20
-0.650932 0.57028 -0.763184 45 200 30
0.0182144 -0.51269 -0.577534 130 62 54
-0.363142 -0.09083 0.337126 81 116 170
0.293662 0.039729 0.502981 165 133 192
-0.600465 -0.770851 0.137623 51 29 145
0.356131 -0.996335 0.0295435 173 0 131
0.12141 -0.65405 -0.495686 143 44 64
0.383848 0.377815 -0.0528848 176 176 121
0.551041 0.369678 -0.792926 198 175 26
-0.534936 -0.934581 -0.243784 59 8 96
0.700505 0.775131 -0.32842 217 226 86
0.174882 -0.996346 -0.414328 150 0 75
-0.221605 0.477311 0.210861 99 188 154
0.0509213 -0.401441 0.170314 134 76 149
-0.453425 0.915999 -0.105747 70 244 114
0.315668 0.395001 -0.297469 168 178 90
-0.19431 0.453271 0.504406 103 185 192
0.23367 -0.263629 -0.556282 157 94 57
0.10358 -0.767923 -0.111487 141 30 113
0.494244 0.429865 -0.57287 191 182 54
0.499692 0.230699 -0.798083 191 157 26
-0.316389 0.777094 -0.365193 87 227 81
-0.545416 0.562423 -0.523936 58 199 61
-0.283974 0.30527 -0.0310295 91 166 124
-0.484954 0.696749 -0.604312 66 216 50
-0.484186 -0.984717 0.254178 66 2 160
0.311916 0.0500411 0.0534139 167 134 134
-0.150013 -0.817085 0.794501 108 23 229
-0.428223 -0.785629 0.651555 73 27 211
0.783807 0.543611 -0.710886 227 197 37
-0.249126 0.510696 -0.0413276 96 193 122
-0.403324 0.779725 -0.473648 76 227 67
-0.442856 -0.797244 0.638071 71 26 209
-0.20831 -0.308983 0.407792 101 88 179
0.592426 0.940457 -0.189208 203 247 103
-0.566851 -0.820328 0.488869 55 23 190
0.43057 -0.125784 -0.784002 182 111 28
-0.493947 0.0712567 -0.838465 65 137 21
0.379658 0.0126368 0.419057 176 129 181
-0.355453 -0.0212243 0.38653 82 125 177
0.283797 0.368809 0.135072 164 175 145
0.128006 -0.993913 0.0945597 144 1 140
0.673401 -0.972932 0.0494333 213 3 134
-0.450641 -0.126309 -0.669653 70 111 42
