ply
format ascii 1.0
comment Created by Open3D
element vertex 1214
property double x
property double y
property double z
property uchar red
property uchar green
property uchar blue
end_header
-0.0933454 -0.964044 -0.507706 116 5 63
-0.42888 -0.765072 0.268619 73 30 162
0.21826 0.209362 -0.224836 155 154 99
0.145758 0.356905 0.5786 146 173 201
-0.298546 -0.990427 -0.0210925 89 1 125
-0.389609 -0.763741 0.248688 78 30 159
-0.251596 -0.984546 0.519897 95 2 194
0.0323916 -0.768094 0.390394 132 30 177
-0.0687043 -0.277814 -0.57189 119 92 55
-0.386747 -0.224598 -0.748689 78 99 32
-0.14649 -0.637234 0.482555 109 46 189
0.454505 0.530272 -0.0965511 185 195 115
0.0822217 0.630193 0.678209 138 208 214
0.0936978 -0.204316 0.54299 139 101 197
0.0288051 -0.428148 0.078607 131 73 138
0.137801 -0.041564 -0.458753 145 122 69
0.125303 0.0726786 -0.547696 143 137 58
-0.282983 0.386234 -0.240003 91 177 97
-0.677256 0.91905 -0.17804 41 245 105
0.396595 -0.275065 -0.734172 178 92 34
0.303141 0.463405 -0.604734 166 187 50
0.606865 0.76851 -0.607126 205 225 50
0.00712412 -0.181023 -0.567657 128 104 55
0.00517941 -0.995069 -0.171119 128 1 106
-0.569007 0.283296 -0.846354 55 164 20
-0.157493 0.29144 0.558117 107 165 199
0.333931 -0.263536 0.381908 170 94 176
-0.39462 -0.429881 -0.592468 77 73 52
0.40047 -0.14471 -0.063866 179 109 119
-0.211118 -0.183065 0.384021 101 104 176
-0.162704 -0.380704 0.411018 107 79 180
0.016508 -0.696983 -0.13142 130 39 111
0.031861 0.975721 0.561074 132 252 199
0.428962 -0.149405 -0.776861 182 108 28
-0.639479 0.814497 -0.168813 46 231 106
0.19399 -0.992618 0.720636 152 1 219
-0.663749 0.288836 -0.760699 43 164 31
0.652613 -0.995947 0.279499 211 1 163
-0.69043 0.632997 -0.712446 39 208 37
-0.412586 0.443033 -0.467946 75 184 68
0.290846 -0.57741 -0.544351 165 54 58
-0.0106208 -0.838313 -0.523734 126 21 61
-0.592085 -0.966548 0.416873 52 4 181
-0.290977 -0.50476 -0.334141 90 63 85
0.0785911 0.525707 0.0577839 138 195 135
0.272423 0.624861 0.344424 162 207 171
0.264599 0.456261 -0.545622 161 186 58
-0.304323 0.217215 0.451767 89 155 185
0.682964 0.508243 -0.770875 215 192 29
0.276295 0.690764 0.377669 163 216 176
-0.556937 -0.0880432 -0.826288 56 116 22
0.410959 0.0776529 0.334822 180 137 170
0.52832 -0.779015 0.289731 195 28 164
-0.229202 -0.425083 0.203389 98 73 153
0.216252 0.779689 0.524068 155 227 194
-0.00670632 -0.767375 0.584666 127 30 202
-0.661722 0.943682 -0.351017 43 248 83
-0.222141 0.656525 0.364298 99 211 174
0.310361 -0.831978 -0.453234 167 21 70
0.123647 0.380134 -0.217599 143 176 100
0.579837 -0.998721 -0.149949 201 0 108
-0.170082 -0.686967 -0.437087 106 40 72
0.65405 -0.96036 -0.0411818 211 5 122
0.617794 0.701167 -0.653204 206 217 44
-0.340654 -0.0723856 -0.0668308 84 118 119
0.349727 0.43343 -0.159286 172 183 107
0.214267 -0.451419 -0.433971 155 70 72
-0.706179 0.493161 -0.802846 37 190 25
-0.511955 -0.984417 0.140178 62 2 145
-0.138714 0.236243 -0.417651 110 158 74
-0.528832 -0.190697 -0.734503 60 103 34
-0.453723 -0.988408 -0.0776666 70 1 118
0.476479 -0.776733 0.229288 188 28 157
-0.117424 -0.541121 -0.0968889 113 59 115
-0.209611 -0.991719 0.276628 101 1 163
-0.389195 0.574976 -0.13255 78 201 111
-0.330471 0.0620132 0.453832 85 135 185
0.677765 0.924312 -0.287587 214 245 91
-0.262341 0.23473 -0.411691 94 157 75
-0.459017 0.0965146 -0.673723 69 140 42
0.427358 0.485301 -0.471947 182 189 67
-0.268489 -0.427459 -0.434244 93 73 72
-0.0904587 -0.153138 -0.531596 116 108 60
-0.320666 -0.138063 0.380306 87 110 176
0.246389 0.39669 -0.585289 159 178 53
-0.596025 0.550121 -0.572693 52 198 54
-0.131672 -0.337413 0.364468 111 84 174
-0.309777 0.137121 0.478888 88 145 189
-0.403464 -0.386786 -0.603288 76 78 51
0.0380911 -0.784503 -0.49075 132 27 65
0.701933 0.716909 -0.668783 217 219 42
0.184766 -0.993477 0.545635 151 1 197
0.476161 0.235064 -0.645819 188 157 45
0.367132 0.559189 -0.611169 174 199 50
-0.577817 0.917876 -0.0532891 54 245 121
0.405118 -0.926111 -0.391987 179 9 78
-0.346449 -0.0940548 -0.00847784 83 116 126
-0.324083 0.214679 0.210767 86 155 154
0.431854 -0.997489 -0.0884191 183 0 116
-0.629995 0.641773 -0.493014 47 209 65
0.0101937 -0.295982 0.480042 129 90 189
0.136032 -0.363215 0.153675 145 81 147
0.334281 -0.230817 -0.718446 170 98 36
0.273052 0.35255 0.479887 162 172 189
0.483916 0.00387502 -0.817285 189 128 23
0.237167 0.178135 -0.0868471 158 150 116
0.156069 -0.00148746 -0.366399 147 127 81
-0.241601 -0.979614 0.743412 97 3 222
-0.638707 0.61613 -0.52789 46 206 60
0.783807 0.543611 -0.710886 227 197 37
-0.533664 -0.894428 -0.247142 59 13 96
-0.155521 -0.222154 0.425036 108 99 182
0.132738 -0.891821 0.801106 144 14 230
-0.147032 0.918642 0.55135 109 245 198
-0.61319 -0.838889 0.393989 49 21 178
0.322717 -0.900818 -0.443323 169 13 71
0.077937 -0.766052 0.710478 137 30 218
0.534498 0.86384 -0.473814 196 238 67
-0.368526 -0.991247 -0.25555 81 1 95
-0.253419 -0.878483 0.763853 95 15 225
0.611255 0.821511 -0.553935 205 232 57
-0.179153 0.213365 -0.483821 105 155 66
0.213157 -0.421049 -0.500243 155 74 64
0.234222 -0.0552713 0.51183 157 120 193
-0.339455 -0.281142 0.0142487 84 92 129
0.24333 -0.533571 -0.550131 159 59 57
-0.260895 -0.791641 0.755638 94 27 224
-0.201138 -0.67311 0.109178 102 42 141
0.030631 -0.535209 -0.570915 131 59 55
0.37627 0.270065 -0.739638 175 162 33
0.595337 0.328814 -0.713127 203 169 37
0.508461 -0.996969 0.507559 192 0 192
0.561707 0.938939 -0.329772 199 247 85
-0.321692 -0.150816 0.0952592 86 108 140
-0.354971 -0.384443 0.275031 82 78 163
-0.513787 0.0875828 -0.697315 62 139 39
0.325804 0.387027 -0.177754 169 177 105
0.359614 -0.342788 -0.703146 173 84 38
-0.584609 0.402114 -0.82451 53 179 22
0.228804 0.786156 0.293728 157 228 165
-0.195806 -0.76516 0.173053 103 30 150
-0.182433 -0.463078 -0.544635 104 68 58
0.0835516 0.451232 0.0429662 138 185 133
-0.600669 -0.981855 0.161529 51 2 148
0.12151 -0.996945 0.319915 143 0 168
-0.0128966 -0.40127 0.168497 126 76 149
0.32351 0.0100306 -0.59483 169 129 52
-0.602867 0.66992 -0.657151 51 213 44
0.429063 0.513267 -0.675692 182 193 41
-0.145074 -0.0266162 -0.51588 109 124 62
0.171256 0.944155 0.434567 149 248 183
0.32857 -0.729999 -0.21923 169 34 100
-0.193991 -0.114651 0.491 103 113 190
-0.2491 0.409151 0.415172 96 180 180
0.322852 0.300413 -0.0527342 169 166 121
0.715127 0.710934 -0.434781 219 218 72
0.249696 0.655443 0.250246 159 211 159
-0.574821 0.627938 -0.677323 54 208 41
-0.124883 0.441146 -0.347138 112 184 83
0.550164 0.156595 -0.727459 198 147 35
-0.402611 -0.271104 -0.101006 76 93 115
-0.622716 0.441773 -0.671692 48 184 42
-0.221695 -0.716103 0.691776 99 36 216
0.113035 -0.99541 -0.107582 142 1 114
-0.212196 0.264065 -0.260798 100 161 94
-0.435609 0.760164 0.0214951 72 224 130
-0.44748 0.87107 -0.0269103 70 239 124
0.167807 0.356387 -0.394965 149 173 77
-0.593396 0.559068 -0.740206 52 199 33
-0.566723 -0.767331 0.403731 55 30 179
-0.349903 0.173791 0.226151 83 150 156
0.290983 0.392695 0.410097 165 178 180
-0.156625 0.623652 0.0907625 108 207 139
-0.0349375 0.777349 0.763644 123 227 225
-0.389375 0.273136 -0.530466 78 162 60
0.174117 -0.995324 -0.0595873 150 1 120
0.712061 0.820921 -0.343092 218 232 84
0.320123 -0.108415 -0.743838 168 114 33
-0.206461 0.675168 -0.199342 101 214 102
0.113813 -0.11424 -0.577411 142 113 54
0.536414 0.0211332 -0.718494 196 130 36
0.141176 -0.0544931 -0.604233 145 121 50
-0.579556 0.946983 -0.140313 54 248 110
-0.285596 -0.266422 -0.676705 91 94 41
0.37966 0.711342 -0.0371197 176 218 123
-0.148451 -0.579681 0.426366 109 54 182
0.392237 -0.896152 0.69337 178 13 216
0.185597 -0.0989444 -0.649776 151 115 45
-0.177997 0.419366 0.517837 105 181 194
-0.305991 0.000329855 0.495263 88 128 191
0.214171 -0.25212 0.400534 155 95 179
-0.251332 -0.497919 -0.581407 95 64 53
-0.482316 0.289598 -0.796536 66 164 26
0.350812 -0.0655551 0.144795 172 119 146
0.26769 -0.323124 0.187382 162 86 151
0.237496 0.245202 -0.367181 158 159 81
0.138849 0.264001 0.610295 145 161 205
-0.485754 0.564711 -0.410457 66 200 75
-0.761947 0.842584 -0.400089 30 235 76
-0.232604 0.451226 0.420298 98 185 181
0.0681476 -0.769079 -0.0996474 136 29 115
0.296752 -0.317558 -0.369503 165 87 80
0.632827 -0.787453 0.0406836 208 27 133
-0.371902 -0.959652 -0.391962 80 5 78
0.17758 0.394266 -0.406733 150 178 76
0.189749 0.122151 -0.406083 152 143 76
0.300849 -0.431516 -0.650437 166 72 45
0.49851 0.653407 -0.234093 191 211 98
0.415621 0.574075 -0.642856 180 201 46
0.292163 0.29439 -0.102229 165 165 114
0.0930415 -0.402429 0.112781 139 76 142
0.279322 -0.172776 -0.718658 163 105 36
-0.00165558 -0.764307 0.712536 127 30 218
0.546613 -0.779845 0.179548 197 28 150
-0.11474 -0.995398 -0.285969 113 1 91
-0.220176 -0.718508 -0.334581 99 36 85
0.391905 -0.279992 -0.173307 177 92 105
-0.543062 0.623705 -0.430046 58 207 73
-0.249602 0.460307 0.35293 96 186 172
-0.288986 0.427529 -0.539696 91 182 59
0.619862 -0.977671 0.418513 207 3 181
0.776232 0.441197 -0.75951 226 184 31
0.458133 0.897352 -0.341445 186 242 84
-0.394086 -0.433501 -0.186048 77 72 104
-0.00673409 -0.772226 0.076771 127 29 137
-0.422096 0.387176 -0.513047 74 177 62
-0.372962 0.0300228 0.182591 80 131 151
-0.00806911 -0.966167 0.805408 126 4 230
0.334016 0.409466 -0.650396 170 180 45
0.533406 0.695073 -0.248119 196 216 96
0.658406 0.310503 -0.735568 211 167 34
-0.188079 -0.903691 -0.490519 104 12 65
0.259471 0.0748662 0.526852 161 137 195
0.219936 0.77048 0.570351 156 226 200
-0.561051 0.811978 -0.0590354 56 231 120
0.192949 -0.626284 0.342161 152 48 171
-0.225441 -0.0687827 -0.416489 99 119 74
-0.661819 -0.916872 0.134229 43 11 145
-0.240775 -0.991163 0.080496 97 1 138
0.250871 0.303776 0.499169 159 166 191
-0.153442 -0.440699 -0.0298496 108 71 124
-0.381892 0.767035 -0.0228685 79 225 125
-0.212579 -0.987501 0.471474 100 2 188
0.664046 0.83846 -0.21812 212 234 100
-0.285436 -0.25916 -0.526384 91 94 60
-0.260787 0.0656618 -0.148789 94 136 109
0.588905 0.173625 -0.730969 203 150 34
-0.194732 -0.623446 -0.443989 103 48 71
-0.387784 0.0556879 0.376347 78 135 175
0.269157 -0.0608402 0.478914 162 120 189
-0.0706941 0.77406 0.698537 118 226 217
-0.544386 -0.766968 0.32333 58 30 169
0.344139 -0.736144 -0.13885 171 34 110
0.0164998 -0.185593 0.573174 130 104 201
-0.65144 0.37059 -0.846324 44 175 20
-0.132619 -0.669846 0.506931 111 42 192
0.0607588 -0.772863 -0.0282936 135 29 124
-0.381821 -0.297457 -0.609014 79 90 50
0.0267091 0.799212 0.756811 131 229 224
-0.13931 0.951727 0.242292 110 249 158
0.326868 0.29333 -0.483917 169 165 66
0.0370448 0.191087 -0.331828 132 152 85
0.690722 0.12588 -0.81777 216 144 23
0.412021 -0.996579 0.0771549 180 0 137
0.218833 0.386511 -0.519528 155 177 61
-0.343486 -0.140063 -0.7307 84 110 34
0.397118 0.161051 0.261148 178 148 161
0.316364 0.194015 0.461171 168 152 186
0.258799 -0.432879 0.469345 160 72 187
0.339684 0.337229 0.101463 171 170 140
0.277689 -0.245307 0.152982 163 96 147
-0.166936 0.570163 -0.314751 106 200 87
-0.205603 -0.732783 0.147891 101 34 146
-0.667461 0.883634 -0.13509 42 240 110
-0.251953 -0.660503 0.515649 95 43 193
-0.719414 0.365814 -0.775139 36 174 29
-0.566956 0.431497 -0.795367 55 183 26
-0.532143 -0.984957 0.0400666 60 2 133
-0.231429 -0.559586 -0.519302 98 56 61
-0.204114 -0.437391 -0.0710707 101 72 118
0.201455 -0.995343 -0.00605952 153 1 127
0.238462 0.53182 0.163757 158 195 148
0.12867 -0.995839 0.413728 144 1 180
0.152995 0.0720846 -0.319015 147 137 87
0.22013 -0.0415911 -0.686621 156 122 40
0.242004 0.49537 -0.0249385 158 191 124
-0.191396 -0.988535 0.354788 103 1 173
0.213914 0.613677 0.540955 155 206 196
-0.650397 -0.883553 0.266992 45 15 162
-0.436108 0.639761 -0.00266601 72 209 127
-0.0860119 -0.324061 0.305104 117 86 166
-0.192935 0.797181 0.345667 103 229 172
-0.373209 0.563863 -0.202132 80 199 102
-0.246066 0.456199 0.266932 96 186 162
-0.310793 -0.145141 0.0357769 88 109 132
-0.000621331 -0.996553 0.299653 127 0 166
-0.0734864 0.907304 0.268992 118 243 162
0.240678 0.448087 0.00541127 158 185 128
-0.727897 0.408456 -0.846663 35 180 20
-0.704582 0.617505 -0.518869 38 206 61
-0.080838 -0.99081 0.393691 117 1 178
-0.286805 -0.285686 0.00754085 91 91 128
-0.461941 0.463006 -0.506732 69 187 63
0.362754 -0.0754259 -0.101286 174 118 115
-0.295983 0.0573968 0.507911 90 135 192
-0.489925 0.589018 -0.652796 65 203 44
0.261914 0.573637 0.23486 161 201 157
0.28744 0.650614 -0.427306 164 210 73
0.370946 0.772306 -0.0811459 175 226 117
0.398943 0.191753 -0.77263 178 152 29
-0.213402 0.651467 0.499202 100 211 191
-0.112217 -0.764542 0.430713 113 30 182
0.259145 0.323918 -0.625577 161 169 48
-0.593197 -0.897661 0.444008 52 13 184
0.263492 -0.796237 0.759136 161 26 224
-0.562467 0.710028 -0.332391 56 218 85
-0.21334 0.178276 -0.314951 100 150 87
-0.131804 -0.215697 0.48606 111 100 189
-0.387674 0.502911 -0.625264 78 192 48
-0.129141 -0.304612 0.342771 111 89 171
0.652444 0.862381 -0.494635 211 237 64
-0.301966 -0.731389 0.674604 89 34 214
-0.775501 0.712965 -0.532485 29 218 60
-0.111167 -0.21346 -0.537327 113 100 59
-0.399214 -0.0042381 0.325473 77 127 169
0.675402 0.844799 -0.526711 214 235 60
0.304631 -0.111284 0.108905 166 113 141
-0.634684 -0.918251 -0.0501402 47 10 121
-0.024824 -0.379543 -0.590718 124 79 52
0.312863 0.0110947 0.0590877 167 129 135
0.304217 0.26715 0.44473 166 162 184
0.208536 -0.337862 -0.639078 154 84 46
0.674197 -0.935389 0.268228 213 8 162
-0.256736 -0.0469021 -0.213679 95 122 100
0.104227 -0.994959 0.376854 141 1 176
-0.594933 -0.77147 0.115861 52 29 142
-0.34831 -0.647492 -0.184149 83 45 104
0.626719 0.0161751 -0.826189 207 130 22
0.245134 -0.681963 -0.341123 159 41 84
0.0911949 -0.975573 0.795995 139 3 229
0.286712 -0.587453 -0.472184 164 53 67
-0.485352 -0.977944 -0.272828 66 3 93
-0.186068 -0.761482 0.772491 104 30 226
-0.35726 -0.758671 -0.185846 82 31 104
-0.25392 -0.0914115 -0.635979 95 116 46
0.444713 -0.781835 0.545416 184 28 197
-0.036209 -0.602288 -0.550732 123 51 57
-0.728514 0.778798 -0.318139 35 227 87
-0.592342 -0.836911 0.440335 52 21 184
0.766456 0.832459 -0.45113 225 234 70
-0.182533 -0.160641 0.466396 104 107 187
0.348399 -0.205774 0.164059 172 101 148
0.258184 0.00144397 -0.719858 160 128 36
0.258637 -0.537109 0.47728 160 59 188
-0.303399 -0.638338 0.0559248 89 46 135
-0.0184846 -0.994681 -0.252031 125 1 95
0.00931064 0.625481 0.708489 129 207 218
0.173835 0.972475 0.355538 150 251 173
0.35014 -0.129909 -0.18594 172 111 104
0.259193 -0.352892 0.450645 161 83 185
-0.397244 -0.816339 -0.387241 77 23 78
-0.114695 -0.0480587 0.606591 113 121 205
0.215854 -0.290957 0.427893 155 90 182
0.378596 -0.174517 -0.63811 176 105 46
-0.710247 0.676184 -0.714909 37 214 36
-0.381867 -0.223233 -0.213738 79 99 100
-0.532046 0.932012 -0.367672 60 246 81
0.606168 0.787722 -0.188782 205 228 103
-0.33807 -0.261162 0.358969 84 94 173
0.218727 -0.0993926 -0.320955 155 115 87
-0.328684 0.0842744 -0.535501 86 138 59
-0.64957 0.352414 -0.741408 45 172 33
0.0621439 0.0169126 -0.477666 135 130 67
0.433603 0.76821 -0.506792 183 225 63
-0.161099 -0.322947 0.13788 107 86 145
-0.341542 -0.352032 -0.568972 84 83 55
0.487833 -0.127886 -0.694645 190 111 39
0.683796 0.570525 -0.609079 215 200 50
-0.244076 0.154815 -0.405941 96 147 76
-0.374896 0.274494 -0.705059 80 162 38
-0.342496 0.369175 -0.627366 84 175 48
-0.212072 -0.594891 -0.143378 100 52 109
-0.408966 -0.990315 -0.237382 75 1 97
0.0796907 -0.995771 -0.178231 138 1 105
-0.30443 -0.0773987 -0.688764 89 118 40
0.221492 -0.616147 -0.372832 156 49 80
-0.402828 0.396401 -0.704736 76 178 38
-0.163395 0.876216 0.623743 107 239 207
-0.260398 0.611682 -0.0786957 94 205 117
-0.383391 -0.140389 0.247232 79 110 159
0.282541 0.0272084 0.504821 164 131 192
0.472713 0.865681 -0.0756006 188 238 118
-0.194619 0.167428 0.574424 103 149 201
-0.200901 -0.0769918 -0.385489 102 118 78
-0.484343 0.196438 -0.812086 66 153 24
0.309058 -0.0490622 0.0470266 167 121 133
-0.239272 -0.55349 -0.114496 97 57 113
-0.0631156 -0.405697 0.105667 119 76 141
-0.151206 0.961561 0.407459 108 250 179
-0.461555 0.695806 -0.0983443 69 216 115
0.397564 0.647315 -0.0062128 178 210 127
-0.273085 0.327581 0.422588 93 169 181
-0.304012 -0.750382 0.153814 89 32 147
-0.170877 -0.982511 0.758662 106 2 224
-0.318495 0.202078 0.147264 87 153 146
-0.599314 0.95054 -0.332189 51 249 85
-0.111988 -0.984267 0.763564 113 2 225
0.358882 0.160609 0.420505 173 148 181
0.515456 -0.827503 0.58631 193 22 202
-0.647905 0.409892 -0.709375 45 180 37
0.256601 -0.105997 -0.57385 160 114 54
0.130604 -0.41833 -0.539874 144 74 59
-0.434445 0.820711 0.0082731 72 232 129
-0.211249 -0.192703 -0.443004 101 103 71
0.249712 -0.17019 -0.583526 159 106 53
-0.374406 -0.0813452 -0.610398 80 117 50
-0.252953 -0.641131 -0.0815865 95 46 117
0.426272 0.852331 -0.136003 182 236 110
0.17112 -0.761505 -0.360198 149 30 82
-0.0435309 -0.763193 0.717677 122 30 219
-0.322266 -0.333564 -0.341749 86 85 84
-0.564353 -0.775483 0.486606 56 29 190
-0.396751 -0.233564 -0.083879 77 98 117
-0.136712 0.97758 0.331751 110 252 170
0.303536 0.377944 0.227498 166 176 157
-0.521085 0.673048 -0.32276 61 213 86
0.51866 -0.784215 -0.0528978 194 28 121
0.143346 -0.232493 -0.452598 146 98 70
0.403717 -0.296493 -0.635474 179 90 46
0.315512 -0.715879 0.547056 168 36 197
-0.176253 -0.951578 0.787656 105 6 228
-0.168635 0.110658 0.598909 106 142 204
-0.298925 -0.677791 0.623534 89 41 207
-0.215284 0.123818 -0.189051 100 143 103
-0.131851 -0.736282 0.454052 111 34 185
-0.24992 -0.762853 0.715908 96 30 219
-0.465373 -0.27325 -0.668294 68 93 42
-0.501198 0.771104 0.0186264 64 226 130
0.126898 -0.196396 -0.571091 144 102 55
-0.200401 -0.315089 0.163393 102 87 148
0.763373 0.470601 -0.691581 225 188 39
-0.147427 0.546799 0.53632 109 197 196
0.689233 0.266916 -0.854207 215 162 19
0.260141 0.185723 -0.467402 161 151 68
0.598474 -0.998468 -0.00148327 204 0 127
0.302843 -0.766545 0.50721 166 30 192
0.663577 0.380754 -0.705446 212 176 38
-0.222144 0.0156597 -0.607095 99 129 50
-0.336462 -0.534915 -0.241352 85 59 97
-0.0678966 0.720226 0.749871 119 219 223
-0.419842 -0.763775 0.331867 74 30 170
0.401598 0.867816 -0.223234 179 238 99
-0.221605 0.477311 0.210861 99 188 154
0.23049 0.0373226 -0.508852 157 132 63
-0.287877 -0.991526 -0.144342 91 1 109
0.287716 -0.690534 -0.329227 164 39 86
0.281517 0.563108 0.310556 163 199 167
-0.52667 0.465511 -0.578749 60 187 54
0.479457 0.521442 -0.691445 189 194 39
-0.349214 0.227815 -0.51591 83 157 62
-0.290567 -0.866639 0.745958 90 17 223
0.536037 0.737226 -0.584053 196 221 53
-0.679859 0.149343 -0.823269 41 147 23
-0.253983 0.0903416 -0.624339 95 139 48
0.0979583 0.0389581 -0.481949 140 132 66
-0.38454 0.533339 -0.323546 78 196 86
0.481727 0.413889 -0.564376 189 180 56
0.213641 0.594109 -0.219634 155 203 99
0.389011 -0.38836 -0.0642408 177 78 119
0.486535 -0.20034 -0.78922 190 102 27
-0.657575 -0.895965 0.0483058 44 13 134
0.0807244 -0.734116 -0.481458 138 34 66
0.433116 -0.996266 0.512339 183 0 193
-0.209915 0.236565 -0.228607 101 158 98
0.0720222 -0.535963 -0.0906411 137 59 116
0.373463 -0.349046 -0.0377937 175 83 123
0.109281 0.0279504 -0.525081 141 131 61
0.216457 -0.038772 -0.535529 155 123 59
-0.126831 -0.444243 0.318068 111 71 168
-0.123962 -0.994567 0.177699 112 1 150
-0.295202 0.194952 -0.625785 90 152 48
-0.521964 0.804257 -0.533858 61 230 59
-0.355097 -0.236176 0.0141938 82 97 129
-0.253803 0.347529 -0.547362 95 172 58
-0.299291 -0.0845012 0.0624553 89 117 135
-0.213406 0.67327 0.304715 100 213 166
-0.00311909 -0.773773 -0.0756625 127 29 118
-0.314584 0.825187 -0.224893 87 233 99
-0.238803 0.296849 -0.183946 97 165 104
0.684105 -0.902269 0.174411 215 12 150
-0.424033 -0.791133 -0.368039 73 27 81
0.728918 0.688623 -0.665784 220 215 43
0.469312 0.608181 -0.0110757 187 205 126
-0.64038 0.186605 -0.766849 46 151 30
-0.312496 -0.0654085 0.0286412 88 119 131
0.344244 -0.351832 0.224542 171 83 156
-0.350413 -0.425376 -0.0333497 83 73 123
-0.232255 -0.289764 0.0197811 98 91 130
0.020654 -0.995488 -0.276117 130 1 92
-0.367504 -0.212781 0.213829 81 100 155
-0.168716 -0.975575 -0.486083 106 3 66
-0.123015 0.366433 -0.36373 112 174 81
0.425681 0.370912 -0.541898 182 175 58
-0.255659 0.0124893 -0.191787 95 129 103
0.261044 0.659127 -0.350538 161 212 83
-0.319505 0.370763 0.0985881 87 175 140
0.343315 0.419122 -0.237348 171 181 97
-0.141071 -0.623141 -0.132688 110 48 111
-0.0855531 -0.534294 -0.548188 117 59 58
0.183775 0.826948 0.578454 151 233 201
0.559359 -0.0256032 -0.839868 199 124 20
-0.166018 -0.763512 0.30133 106 30 166
-0.0264006 -0.119693 -0.545605 124 112 58
0.48879 0.873303 -0.41447 190 239 75
-0.286503 -0.779097 -0.434802 91 28 72
0.454854 -0.782951 0.619299 185 28 206
0.526409 -0.780938 0.435855 195 28 183
0.363268 -0.676244 0.00543602 174 41 128
0.345266 -0.781917 -0.279057 172 28 92
-0.145993 -0.7852 -0.458161 109 27 69
-0.274965 0.771489 -0.310208 92 226 88
-0.0183029 -0.993623 -0.0494166 125 1 121
-0.0718299 -0.170497 0.57053 118 106 200
0.332495 -0.644339 0.0113498 170 45 129
0.167105 0.1607 0.618109 149 148 206
-0.582904 0.126264 -0.73733 53 144 33
0.375716 0.484412 -0.196102 175 189 102
-0.281083 -0.406593 0.187686 92 76 151
0.0517732 -0.766902 0.462849 134 30 187
-0.473666 -0.985075 0.216509 67 2 155
-0.303687 0.0521532 -0.681958 89 134 41
0.111411 -0.360482 -0.55484 142 82 57
-0.405358 -0.349247 -0.614763 76 83 49
0.0034352 0.237472 -0.272398 128 158 93
-0.505734 0.94748 -0.109054 63 248 114
-0.710203 0.849236 -0.213673 37 236 100
0.307072 -0.00480758 -0.0231582 167 127 125
-0.0716845 -0.77289 0.0262655 118 29 131
0.299981 -0.787778 -0.409849 166 27 75
0.456418 0.675459 0.00626668 186 214 128
-0.0653236 -0.592782 -0.105124 119 52 114
0.409488 -0.0693206 0.281371 180 119 163
0.3706 -0.0444592 -0.759418 175 122 31
0.270653 0.595998 0.267938 162 203 162
0.615486 -0.788016 -0.0522213 206 27 121
-0.645386 0.909043 -0.108086 45 243 114
0.644557 0.737002 -0.324411 210 221 86
-0.0874072 0.313332 -0.313222 116 167 88
-0.403928 -0.338213 -0.18862 76 84 103
-0.276475 0.213883 -0.440945 92 155 71
0.150307 -0.767369 -0.0607921 147 30 120
0.1397 0.394987 -0.290244 145 178 90
-0.307711 0.525349 -0.00732451 88 194 127
0.248628 -0.996967 -0.217406 159 0 100
0.268128 -0.994293 0.702286 162 1 217
-0.100602 0.420028 -0.11211 115 181 113
0.460288 -0.997514 0.182915 186 0 151
0.243804 -0.575372 -0.305202 159 54 89
0.290505 -0.608559 0.371153 165 50 175
0.234985 -0.275338 0.0984047 157 92 140
-0.204481 0.0481264 -0.561191 101 134 56
-0.422961 -0.395414 -0.13108 74 77 111
0.256007 -0.994493 0.53643 160 1 196
0.363655 -0.954805 -0.416795 174 6 74
-0.377863 -0.676087 -0.0622166 79 41 120
-0.650661 0.76782 -0.608928 45 225 50
-0.363288 0.462757 -0.615539 81 187 49
0.0200002 -0.768556 0.334599 130 30 170
-0.761852 0.64453 -0.559254 30 210 56
0.55922 -0.786684 -0.0982449 199 27 115
0.37784 -0.782769 0.691951 176 28 216
-0.498379 -0.768255 0.159507 64 30 148
-0.406273 -0.336491 -0.0668044 76 85 119
0.24637 -0.45886 -0.619545 159 69 49
-0.25519 0.265679 0.484799 95 161 189
0.448479 0.737409 -0.00302886 185 222 127
-0.330232 -0.251124 -0.589291 85 95 52
0.253455 -0.238563 0.0967909 160 97 140
-0.334875 -0.613826 -0.241342 85 49 97
0.299527 0.382742 -0.349284 166 176 83
0.248535 -0.322328 -0.424851 159 86 73
-0.0816486 0.0720548 -0.423561 117 137 73
0.14496 -0.386812 0.270958 146 78 162
-0.595123 -0.0119189 -0.765921 52 126 30
0.000595691 -0.766903 0.527286 128 30 195
-0.188088 0.419759 -0.442041 104 181 71
0.289053 0.506038 -0.532595 164 192 60
0.0103407 -0.771066 0.191873 129 29 152
-0.494969 -0.771347 -0.130242 64 29 111
0.298018 -0.0483362 -0.134931 165 121 110
0.418221 0.309483 -0.739133 181 167 33
0.713981 0.203612 -0.805218 219 153 25
0.201933 0.523909 -0.36664 153 194 81
-0.387601 0.896261 -0.186548 78 242 104
0.064943 0.972796 0.520336 136 252 194
0.0595174 0.361753 0.605029 135 174 205
0.554719 0.608091 -0.667845 198 205 42
0.438121 0.797828 -0.0415612 183 229 122
-0.530424 0.245657 -0.833927 60 159 21
-0.0251578 -0.993135 -0.474014 124 1 67
-0.189577 -0.706113 0.0603364 103 37 135
-0.642396 -0.928311 0.299421 46 9 166
-0.159387 -0.412611 0.225561 107 75 156
0.0432875 0.459523 0.563631 133 186 199
-0.243363 -0.993643 -0.222844 96 1 99
-0.0201662 0.0287624 0.654297 125 131 211
-0.531927 0.404796 -0.630003 60 179 47
0.292293 -0.184713 0.102017 165 104 141
-0.449762 -0.833175 -0.340484 70 21 84
-0.475885 0.117874 -0.819179 67 143 23
0.625397 -0.957026 -0.114108 207 5 113
0.047898 0.0858835 0.657934 134 138 211
-0.192146 -0.681293 0.703035 103 41 217
-0.431677 0.578359 -0.0569461 72 201 120
-0.283855 -0.671736 0.582056 91 42 202
0.334208 -0.464533 -0.547587 170 68 58
-0.0209401 0.324356 0.623705 125 169 207
-0.406304 -0.704063 -0.0201023 76 38 125
-0.212648 0.500899 -0.427631 100 191 73
-0.380401 -0.985147 0.326427 79 2 169
0.766836 0.3602 -0.757326 225 173 31
0.462275 -0.781582 0.0256387 186 28 131
-0.136594 -0.892984 -0.504043 110 14 63
-0.323509 -0.210336 -0.573985 86 101 54
0.373268 -0.782509 -0.14188 175 28 109
-0.525777 0.152443 -0.69774 60 147 39
0.361889 0.163579 0.190796 174 148 152
0.261903 0.242355 -0.0567025 161 158 120
0.025714 -0.997889 0.180555 131 0 151
0.524617 0.630823 -0.644577 194 208 45
0.223509 0.793767 0.424587 156 229 182
-0.27891 -0.982166 0.693917 92 2 216
0.308431 -0.469213 0.425404 167 68 182
0.246757 0.662551 -0.309923 159 212 88
0.276004 0.317053 -0.365813 163 168 81
-0.397052 0.0287947 -0.777203 77 131 28
-0.301638 -0.99205 -0.208886 89 1 101
0.495003 -0.786903 -0.270579 191 27 93
0.117975 -0.768187 0.504047 143 30 192
-0.20831 -0.308983 0.407792 101 88 179
0.679513 -0.942939 0.225383 214 7 156
-0.623233 -0.977031 -0.0184374 48 3 125
0.142493 0.44501 -0.174499 146 184 105
0.180047 0.0888592 -0.267619 150 139 93
0.180417 0.552153 0.535588 151 198 196
0.0505301 -0.996146 0.32736 134 0 169
0.161381 -0.742981 -0.397758 148 33 77
0.181692 -0.705226 -0.402316 151 38 76
-0.348332 -0.207825 0.163138 83 101 148
0.486085 0.755243 -0.559901 189 224 56
-0.185112 0.561282 0.105332 104 199 141
0.415329 0.0225042 0.305337 180 130 166
-0.236866 0.220988 -0.355919 97 156 82
0.453201 0.905381 -0.227886 185 243 98
0.358246 -0.751939 -0.0726639 173 32 118
0.367496 -0.0997528 -0.130465 174 115 111
-0.563433 0.661202 -0.383245 56 212 79
0.334898 0.709687 -0.414049 170 218 75
-0.0565304 0.147471 0.646833 120 146 210
0.0871554 0.219141 -0.293988 139 155 90
-0.237813 0.696354 0.443238 97 216 184
0.453833 -0.99734 0.223086 185 0 156
0.471707 0.0869669 -0.669134 188 139 42
0.20713 0.158457 -0.419655 154 148 74
0.162768 -0.99646 -0.392589 148 0 77
0.53586 -0.780718 0.109755 196 28 141
-0.366175 0.863504 -0.191091 81 238 103
-0.445372 0.929882 -0.14969 71 246 108
-0.391817 -0.292823 -0.0254414 78 90 124
-0.32102 0.264263 0.285706 87 161 164
0.338872 0.751524 -0.404428 171 223 76
-0.779154 0.618108 -0.66476 28 206 43
-0.425496 0.937803 -0.204466 73 247 101
-0.0762493 -0.992649 -0.442982 118 1 71
0.595184 0.842599 -0.512526 203 235 62
0.308108 -0.390252 0.215042 167 78 155
0.114033 0.951126 0.592288 142 249 203
0.443524 -0.802728 -0.371232 184 25 80
-0.145706 -0.986886 0.595032 109 2 203
-0.257173 0.490879 -0.495855 95 190 64
0.283044 -0.495965 0.290914 164 64 165
-0.366725 -0.318063 0.228367 81 87 157
0.576324 -0.852556 -0.216528 201 19 100
0.249102 0.995554 0.302278 159 254 166
0.204603 0.2159 0.569043 154 155 200
-0.570156 -0.0237431 -0.844954 55 124 20
-0.424211 0.725416 -0.536452 73 220 59
-0.278301 -0.529799 0.290237 92 60 165
0.584756 -0.789964 0.487452 202 27 190
0.174351 -0.575799 -0.47827 150 54 67
0.0555016 -0.774274 0.0213289 135 29 130
-0.0824746 0.354478 0.590085 117 173 203
-0.0429545 0.639806 0.756326 122 209 224
0.316917 -0.0508322 -0.611139 168 121 50
-0.219058 0.630306 -0.138206 100 208 110
0.0436381 -0.247871 0.526445 133 96 195
-0.750307 0.83076 -0.314254 32 233 87
0.669293 -0.900626 0.0120007 213 13 129
0.379379 -0.134075 0.181695 176 110 151
-0.340286 -0.0900437 0.149626 84 116 147
-0.151277 -0.642339 0.370485 108 46 175
0.0202493 -0.995479 -0.409716 130 1 75
0.680179 -0.862521 0.237595 214 18 158
-0.288375 -0.119535 0.101148 91 112 140
0.648656 0.441172 -0.675914 210 184 41
-0.443951 0.934549 -0.283901 71 247 91
-0.348351 0.281823 0.176137 83 163 150
-0.617867 0.867473 -0.0684936 49 238 119
-0.164752 -0.730593 0.706102 106 34 218
-0.318299 -0.706918 -0.291329 87 37 90
-0.0166767 0.949235 0.658302 125 249 211
-0.303542 -0.697724 0.54853 89 39 197
0.3293 -0.681247 -0.183731 169 41 104
0.572015 0.24255 -0.722415 200 158 35
-0.396715 0.82137 -0.432595 77 232 72
-0.377207 -0.505597 -0.186024 79 63 104
-0.416322 -0.766296 0.498287 74 30 191
-0.547315 0.767387 -0.581891 58 225 53
-0.275598 0.449329 0.0295039 92 185 131
0.409258 -0.396968 -0.123372 180 77 112
0.442065 0.561456 -0.284831 184 199 91
-0.186051 -0.987962 0.428328 104 2 182
-0.120422 -0.46943 -0.539425 112 68 59
0.319439 0.668827 -0.471104 168 213 67
-0.50798 -0.980627 0.469681 63 2 187
0.262297 -0.660788 0.53536 161 43 196
-0.0316949 0.61829 0.651065 123 206 211
-0.442885 0.248401 -0.778349 71 159 28
-0.385289 0.208556 -0.738081 78 154 33
-0.345513 -0.965345 0.705273 83 4 217
-0.364636 -0.124206 0.318985 81 112 168
-0.345665 -0.763661 0.470437 83 30 187
-0.0317014 0.168383 -0.358046 123 149 82
-0.562019 -0.846234 0.49718 56 20 191
0.374262 -0.0632471 0.391242 175 119 177
0.487368 -0.997817 -0.0106652 190 0 126
-0.266864 -0.589429 -0.323536 93 52 86
0.620473 0.296067 -0.834299 207 165 21
-0.465738 0.645937 -0.0317119 68 210 123
0.129827 0.692594 0.114432 144 216 142
-0.0641421 -0.9925 -0.116575 119 1 113
0.351779 -0.239707 0.233649 172 97 157
-0.159493 -0.459631 0.39723 107 69 178
-0.0633191 -0.995837 0.279195 119 1 163
-0.0162838 0.436925 0.582868 125 183 202
-0.351415 -0.987424 0.144289 83 2 146
-0.240754 -0.507812 0.453582 97 63 185
0.680099 -0.954666 0.0979784 214 6 140
0.771078 0.798878 -0.500947 226 229 64
0.258938 0.519072 0.434452 161 194 183
0.172501 0.168285 -0.574782 149 149 54
-0.517131 0.637941 -0.64768 62 209 45
-0.392769 -0.0102283 -0.771115 77 126 29
-0.396962 0.898909 -0.256366 77 242 95
-0.458952 -0.98267 0.412893 69 2 180
-0.637398 -0.810251 -0.0331339 46 24 123
-0.170911 -0.343967 0.393317 106 84 178
-0.420943 0.521249 -0.367431 74 194 81
0.519202 -0.779325 0.144392 194 28 146
-0.252099 -0.992199 0.156239 95 1 147
0.374332 -0.258331 0.336122 175 95 170
0.18803 0.00255624 -0.666111 151 128 43
-0.22773 -0.432889 -0.585055 98 72 53
-0.762344 0.771313 -0.564451 30 226 56
-0.737461 0.887401 -0.263603 33 241 94
0.377523 -0.997376 -0.135377 176 0 110
0.455246 0.59016 -0.218405 186 203 100
0.582542 0.922558 -0.0833659 202 245 117
-0.46432 -0.860925 0.621958 68 18 207
-0.569706 0.882597 -0.0135794 55 240 126
0.228894 0.0417584 0.559088 157 133 199
-0.236821 0.569711 0.405122 97 200 179
0.164072 -0.772255 0.178025 148 29 150
0.343142 0.167308 -0.560622 171 149 56
0.313911 -0.706844 0.667274 168 37 213
-0.554204 -0.883889 0.510758 57 15 193
0.313901 -0.738611 0.473698 168 33 188
0.216639 -0.473673 0.266246 155 67 161
-0.279428 -0.332079 -0.530648 92 85 60
-0.322846 -0.902787 0.730484 86 12 221
-0.758065 0.834113 -0.477793 31 234 67
-0.190124 0.58304 0.153575 103 202 147
-0.121342 -0.346191 0.18177 112 83 151
-0.671537 0.191219 -0.874203 42 152 16
0.157019 -0.486949 -0.0801426 148 65 117
0.715597 0.663237 -0.500374 219 212 64
0.0341109 -0.593342 -0.556853 132 52 57
0.364544 -0.477102 -0.0930255 174 67 116
0.42605 -0.998075 -0.197296 182 0 102
0.753958 0.595688 -0.59564 224 203 52
0.163735 0.0301835 -0.328176 148 131 86
-0.174428 0.293926 -0.450808 105 165 70
0.300488 -0.762817 0.712215 166 30 218
0.170836 -0.398909 0.0162541 149 77 130
0.299393 0.710133 -0.340405 166 218 84
-0.159826 -0.985611 0.678006 107 2 214
-0.524669 -0.202111 -0.774787 61 102 29
0.149487 -0.504143 0.33616 147 63 170
0.761384 0.55289 -0.752851 225 198 32
-0.255369 -0.609425 0.477608 95 50 188
0.25852 0.249164 -0.649022 160 159 45
0.102461 -0.99693 -0.256075 141 0 95
-0.0415113 -0.0647274 0.640358 122 119 209
0.258852 -0.359643 -0.655209 161 82 44
0.186007 0.850757 0.323272 151 236 169
-0.245771 -0.259191 -0.496283 96 94 64
0.761328 0.65014 -0.552758 225 210 57
-0.415608 0.468468 -0.682127 75 187 41
0.0802828 -0.491293 -0.0548843 138 65 121
0.315775 -0.388975 0.44349 168 78 184
-0.20373 0.513557 -0.0768912 102 193 118
-0.0284467 0.373026 -0.0432365 124 175 122
0.328524 0.65731 -0.053128 169 211 121
0.0640003 0.237314 -0.259524 136 158 94
-0.0786074 -0.650915 -0.128811 117 45 111
-0.341411 0.145733 0.448878 84 146 185
0.508425 -0.997616 -0.132982 192 0 111
0.165398 -0.0754421 -0.494639 149 118 64
-0.174311 0.336226 0.550189 105 170 198
0.230374 -0.337627 -0.00240189 157 84 127
0.308566 0.342345 0.124795 167 171 143
0.101304 -0.503695 -0.546851 140 63 58
0.191111 0.979087 0.322458 152 252 169
-0.308767 -0.199326 0.114542 88 102 142
-0.202428 0.282155 0.52535 102 163 194
0.214194 -0.297958 0.120201 155 90 143
0.199852 -0.99406 0.19229 153 1 152
0.502581 -0.225116 -0.699709 192 99 38
-0.328478 -0.257205 -0.316253 86 95 87
0.0606885 -0.994805 -0.0411734 135 1 122
-0.0681177 -0.99013 0.465106 119 1 187
0.445389 0.229503 -0.624853 184 157 48
0.257074 0.12458 0.553875 160 143 198
0.0326025 -0.770203 0.266489 132 29 161
0.133324 0.392672 -0.00155862 144 178 127
-0.239897 -0.678561 0.557151 97 41 199
0.65567 -0.914889 0.343573 211 11 171
0.484859 0.460152 -0.732375 189 186 34
0.131441 0.323714 -0.337079 144 169 85
-0.188235 -0.516626 0.449205 104 62 185
-0.32558 -0.538346 -0.510962 86 59 62
0.410904 -0.0306085 0.258947 180 124 161
-0.43165 -0.845891 0.650331 72 20 210
0.19122 0.0246826 -0.297198 152 131 90
-0.476758 0.192045 -0.653566 67 152 44
0.227183 0.108832 -0.472549 156 141 67
0.431167 -0.996819 0.342402 182 0 171
0.168083 0.257632 -0.519194 149 160 61
-0.529853 0.202999 -0.689327 60 153 40
0.178711 -0.995949 0.350231 150 1 172
-0.361642 -0.501457 -0.0805557 81 64 117
-0.681494 0.50557 -0.655603 41 192 44
0.581084 0.77011 -0.0573487 202 226 120
0.221974 0.555492 0.489592 156 198 190
0.156727 -0.0312533 -0.629757 147 124 47
0.219447 -0.772016 0.19739 155 29 153
0.42677 0.500796 -0.0323774 182 191 123
0.310507 0.372097 0.297144 167 175 165
-0.304425 -0.732937 0.567595 89 34 200
0.338849 0.110963 -0.747648 171 142 32
0.554687 0.741034 -0.103892 198 222 114
-0.437701 0.908023 -0.119653 72 243 112
-0.581798 -0.798659 -0.173162 53 26 105
0.0342505 -0.676575 -0.522479 132 41 61
0.443436 -0.359644 -0.658405 184 82 44
-4.76484e-05 -0.374528 0.250088 127 80 159
0.532303 -0.107593 -0.720621 195 114 36
-0.223177 0.622562 0.473511 99 207 188
-0.649569 0.588989 -0.750823 45 203 32
-0.656121 0.940168 -0.393137 44 247 77
0.109546 0.944178 0.331469 141 248 170
-0.0597536 -0.994934 -0.318121 120 1 87
0.529596 0.209515 -0.695921 195 154 39
0.303417 0.102391 0.497454 166 141 191
-0.408308 -0.766605 0.570571 75 30 200
0.24132 0.169685 0.563114 158 149 199
0.12606 -0.111235 -0.451037 144 113 70
0.130283 0.284008 -0.348012 144 164 83
-0.739405 0.435174 -0.723689 33 183 35
-0.291649 -0.990105 0.016091 90 1 130
-0.175331 -0.0958228 0.52924 105 115 195
0.207525 -0.7637 0.745207 154 30 223
0.567731 0.902348 -0.412968 200 243 75
0.355056 -0.498653 -0.619802 173 64 48
0.275214 -0.664369 0.0887512 163 43 139
-0.329462 -0.446198 0.234764 85 71 157
0.286432 0.231672 -0.45955 164 157 69
-0.664524 0.752396 -0.310667 43 223 88
0.256303 -0.529502 -0.308619 160 60 88
0.502215 -0.78546 -0.22609 192 27 99
0.242644 -0.641638 -0.0829747 158 46 117
0.363849 0.236176 0.0925706 174 158 139
0.483426 0.813511 -0.480329 189 231 66
-0.391475 0.0777624 0.303741 78 137 166
-0.713513 0.566431 -0.758994 37 200 31
0.0987787 0.925015 0.667397 140 245 213
0.229231 0.0872337 -0.674969 157 139 41
0.12141 -0.65405 -0.495686 143 44 64
-0.168011 -0.994261 -0.248797 106 1 96
0.00228624 -0.997714 0.109695 128 0 141
0.265766 0.0681457 -0.123811 161 136 112
0.365681 0.184483 -0.753827 174 151 31
-0.712046 0.715863 -0.375956 37 219 80
0.371768 0.390814 0.00764718 175 177 128
-0.206035 0.756424 0.408027 101 224 180
-0.0585167 -0.985982 0.754542 120 2 224
-0.207574 -0.0140226 -0.361357 101 126 81
0.264522 -0.996977 -0.260007 161 0 94
-0.257759 -0.99325 -0.358861 95 1 82
0.513302 -0.998209 0.237023 193 0 158
0.636364 -0.844006 -0.101029 209 20 115
-0.11207 0.809588 0.172318 113 231 149
0.427119 0.167326 -0.789811 182 149 27
0.686126 0.785736 -0.297606 215 228 90
-0.120562 -0.750653 0.509966 112 32 193
-0.68468 0.938955 -0.255336 40 247 95
-0.155827 -0.766213 0.139546 108 30 145
-0.101098 0.781376 0.677186 115 227 214
0.669243 0.912716 -0.367691 213 244 81
-0.681429 0.846337 -0.184561 41 235 104
0.186004 0.818301 0.525461 151 232 194
0.470363 0.530017 -0.41956 187 195 74
-0.253386 0.212911 -0.581341 95 155 53
0.455067 0.298414 -0.60163 186 166 51
-0.591128 0.930397 -0.403479 52 246 76
0.300239 -0.994803 0.473384 166 1 188
0.390224 -0.77581 0.337753 177 29 171
-0.720301 0.609775 -0.570258 36 205 55
0.351432 -0.675761 -0.0594516 172 41 120
0.00631814 -0.994308 -0.129139 128 1 111
0.40822 0.519552 -0.297233 180 194 90
0.461719 0.914182 -0.276518 186 244 92
0.561756 -0.928873 -0.230577 199 9 98
-0.316691 -0.672659 -0.27055 87 42 93
-0.0819959 0.960616 0.456241 117 250 186
0.151999 0.193053 -0.51061 147 152 62
-0.274061 -0.319091 0.152028 93 87 147
0.139362 -0.149075 -0.437228 145 108 72
-0.0158881 -0.99483 -0.399875 125 1 77
0.398327 -0.028003 0.194086 178 124 152
-0.0176284 0.262659 0.641628 125 161 209
0.627425 0.942557 -0.318069 207 248 87
0.597645 0.89372 -0.451904 204 241 70
0.323643 -0.717919 -0.267536 169 36 93
0.132031 -0.672757 -0.14797 144 42 109
-0.305809 -0.0845835 -0.190914 89 117 103
0.331074 -0.937571 -0.435995 170 8 72
0.432846 0.536436 -0.0217859 183 196 125
-0.402732 -0.98717 0.0486056 76 2 134
0.532215 -0.86792 0.569019 195 17 200
0.535907 0.670218 -0.651486 196 213 44
0.0935602 -0.763608 0.753004 139 30 224
0.497635 0.365238 -0.619392 191 174 49
0.288092 0.337955 0.161529 164 171 148
0.165721 -0.99315 0.12559 149 1 144
-0.0863676 -0.988618 0.573171 116 1 201
0.611158 0.424685 -0.801949 205 182 25
0.246308 0.562112 -0.0608753 159 199 120
0.115859 -0.772405 0.025389 142 29 131
-0.506908 -0.986333 -0.0167994 63 2 125
-0.208614 0.434137 0.197837 101 183 153
0.212465 -0.595786 -0.479578 155 52 66
-0.380707 -0.980454 0.644738 79 2 210
-0.312166 -0.514745 -0.602474 88 62 51
-0.369443 -0.781785 -0.403588 80 28 76
-0.596007 0.732688 -0.624256 52 221 48
-0.200967 0.069676 -0.282225 102 136 92
0.108445 -0.281681 -0.551136 141 92 57
-0.53653 0.527861 -0.541278 59 195 58
-0.214535 -0.665324 -0.392085 100 43 78
0.504675 -0.0514127 -0.716442 192 121 36
0.186122 0.968548 0.255611 151 251 160
-0.33287 -0.0437982 -0.580679 85 122 53
0.271126 -0.0891963 -0.288455 162 116 91
0.221728 0.0464012 -0.226412 156 133 99
0.0211289 -0.761625 0.769551 130 30 226
0.544519 0.319739 -0.66599 197 168 43
-0.208671 0.0583722 -0.337599 101 135 84
0.177852 0.0373932 0.616477 150 132 206
-0.300891 -0.76372 0.512725 89 30 193
0.409002 -0.781528 0.557062 180 28 199
0.572533 0.663128 -0.349963 200 212 83
0.38287 0.120799 -0.608622 176 143 50
0.108085 -0.994952 0.097319 141 1 140
0.34149 -0.167296 0.0271143 171 106 131
0.230403 -0.477604 -0.402541 157 67 76
-0.0947206 -0.76487 0.394467 115 30 178
-0.17063 0.818175 0.417597 106 232 181
0.313129 -0.450603 -0.0722378 167 70 118
-0.332066 0.319821 0.00374215 85 168 128
0.365377 0.785113 -0.409354 174 228 75
0.263829 -0.774977 0.197983 161 29 153
0.254056 -0.156424 -0.384916 160 108 78
-0.00548917 -0.766261 0.464766 127 30 187
0.462573 0.619963 -0.262777 186 207 94
-0.272025 0.360252 0.250689 93 173 159
-0.330666 0.462522 0.0203917 85 186 130
0.106569 0.608813 0.622733 141 205 207
-0.265681 -0.686071 0.6777 94 40 214
0.0611555 0.391711 0.00606792 135 177 128
-0.451856 0.665967 -0.211165 70 212 101
0.685004 -0.876402 0.121955 215 16 143
-0.662173 -0.846762 0.157634 43 20 148
-0.36687 -0.879225 -0.403012 81 15 76
0.319824 -0.391852 -0.0454271 168 78 122
-0.231413 -0.510328 0.260776 98 62 161
0.091125 0.294208 0.61684 139 165 206
0.270668 0.519728 -0.0284609 162 194 124
-0.234018 -0.636692 -0.406581 98 46 76
0.102399 -0.299125 0.396629 141 89 178
-0.293843 -0.342118 -0.65957 90 84 43
0.281266 -0.739485 0.147326 163 33 146
0.370615 -0.433667 -0.67473 175 72 41
0.394063 -0.129467 0.255131 178 111 160
-0.334093 0.159084 -0.533348 85 148 59
0.62244 -0.910067 -0.125555 207 11 111
0.574474 0.815273 -0.016023 201 231 125
0.650464 0.0503611 -0.82892 210 134 22
0.107856 -0.76845 0.37645 141 30 175
-0.185344 -0.985627 0.601941 104 2 204
-0.185311 -0.491807 -0.521333 104 65 61
-0.368577 -0.178213 -0.203449 81 105 102
-0.120111 -0.666453 -0.493047 112 43 65
0.16288 0.819277 0.680423 148 232 214
0.296385 -0.291734 -0.689994 165 90 40
0.491104 0.561146 -0.677932 190 199 41
-0.217459 0.235919 0.541832 100 158 197
-0.15925 -0.351948 0.210108 107 83 154
0.365993 0.522838 -0.603917 174 194 51
0.348212 -0.50631 -0.544816 172 63 58
-0.531751 -0.820037 0.54355 60 23 197
-0.0956887 0.187534 -0.368608 115 151 81
0.15221 0.698123 0.676774 147 217 214
0.51616 0.423931 -0.589752 193 182 52
0.248278 -0.0690693 -0.255476 159 119 95
-0.323407 -0.646244 -0.119306 86 45 112
0.0176256 0.574009 0.0558935 130 201 135
-0.284431 0.799631 -0.245087 91 229 96
0.581487 0.629231 -0.459807 202 208 69
-0.229218 0.468381 -0.0259535 98 187 124
-0.136326 -0.995916 0.249731 110 1 159
-0.121538 -0.340186 0.254447 112 84 160
0.0915155 -0.714881 -0.142047 139 36 109
-0.214111 0.355157 0.518312 100 173 194
-0.130502 -0.100319 -0.508567 111 115 63
0.380112 -0.791122 -0.404246 176 27 76
0.15813 -0.993399 0.187825 148 1 151
-0.0017215 0.64372 0.781614 127 210 227
-0.2313 -0.0165001 -0.257581 98 125 95
-0.26149 -0.53397 -0.0922245 94 59 116
0.230251 0.208295 -0.639941 157 154 46
0.232905 -0.602995 0.338698 157 51 171
-0.0647257 0.246922 0.612239 119 159 206
-0.396568 0.102053 -0.768944 77 141 29
0.344389 0.658561 -0.503527 171 211 63
0.278314 0.138755 -0.715583 163 145 36
0.39113 -0.77628 0.418946 177 29 181
0.232813 -0.36811 0.212277 157 81 155
-0.762921 0.753101 -0.399105 30 224 77
0.332439 -0.289922 -0.716578 170 91 36
0.346741 0.354558 0.0647766 172 173 136
0.171285 0.477433 -0.348989 149 188 83
0.207013 -0.402985 -0.612367 154 76 49
0.414723 0.548665 -0.229899 180 197 98
0.126591 -0.682521 0.579741 144 40 201
0.199469 0.176543 -0.346412 153 150 83
-0.726214 0.291611 -0.846446 35 165 20
0.3057 0.587695 -0.0417217 166 202 122
0.705045 0.739379 -0.372966 217 222 80
0.567825 0.722148 -0.613915 200 220 49
-0.356626 -0.380605 0.231066 82 79 157
0.422636 -0.777915 0.185129 181 28 151
0.257165 0.655335 -0.224743 160 211 99
0.33324 -0.427498 0.265824 170 73 161
0.152834 -0.315799 0.395283 147 87 178
0.361334 0.809042 -0.226671 174 231 99
-0.778096 0.564448 -0.719434 28 199 36
-0.229077 -0.12166 -0.294601 98 112 90
-0.202957 -0.568869 -0.49719 102 55 64
-0.172469 -0.730255 -0.0521204 106 34 121
0.299486 -0.643978 -0.297136 166 45 90
0.0651264 -0.825863 -0.522324 136 22 61
-0.400862 -0.765665 0.639194 76 30 209
-0.0717595 -0.303391 0.379682 118 89 176
0.174479 0.60569 0.591415 150 205 203
0.177602 0.860581 0.262304 150 237 161
0.486315 -0.0167652 -0.709526 190 125 37
-0.404791 -0.374721 -0.197027 76 80 102
0.324552 0.128666 0.476862 169 144 188
0.448087 0.282568 -0.770508 185 164 29
-0.0325639 -0.906936 0.813586 123 12 231
-0.123759 -0.323962 -0.544956 112 86 58
0.0763329 -0.760974 0.80644 137 30 230
-0.120527 -0.770818 -0.086178 112 29 117
-0.24015 0.34473 0.474954 97 171 188
-0.58021 0.791607 -0.144622 54 228 109
-0.0709928 -0.996309 0.0753775 118 0 137
-0.0841588 0.76623 0.129423 117 225 144
-0.325893 -0.114348 -0.199185 86 113 102
-0.280467 -0.603933 -0.459697 92 50 69
-0.228767 0.695095 0.493115 98 216 190
-0.0549686 -0.99375 -0.194696 120 1 103
0.540414 -0.997927 -0.193646 196 0 103
-0.263276 -0.240334 0.390958 94 97 177
0.215726 0.144263 -0.162608 155 146 107
-0.0239361 0.073707 -0.454782 124 137 70
-0.407584 0.818398 -0.0168126 76 232 125
-0.291198 0.263963 0.0164766 90 161 130
0.327541 0.75488 -0.138429 169 224 110
0.219947 -0.99482 0.0645058 156 1 136
0.537301 0.476308 -0.585374 196 188 53
0.285226 -0.771944 0.361546 164 29 174
0.265377 0.433598 0.17012 161 183 149
0.645242 0.641686 -0.506043 210 209 63
-0.336915 -0.29215 -0.706349 85 90 37
0.175253 0.519357 -0.196389 150 194 102
0.172702 0.233381 0.59087 150 157 203
-0.292427 -0.0352599 -0.0910296 90 123 116
0.0229886 0.110848 -0.419848 130 142 74
-0.50429 -0.149079 -0.806816 63 108 25
0.0430294 0.588231 0.600139 133 202 204
0.374102 -0.996791 -0.0639022 175 0 119
-0.487743 0.500068 -0.514088 65 191 62
0.194241 -0.322184 0.204269 152 86 154
0.0724105 -0.994834 -0.132093 137 1 111
-0.296746 -0.475578 -0.065813 90 67 119
-0.233113 -0.301141 -0.44174 98 89 71
-0.271352 -0.202418 0.113279 93 102 142
-0.314215 0.563561 -0.0195339 87 199 125
0.0887555 0.753843 0.124163 139 224 143
0.315664 -0.0580458 0.0962307 168 120 140
-0.350332 -0.990889 -0.129878 83 1 111
-0.133747 0.736385 0.123191 110 221 143
0.449126 -0.997414 0.299078 185 0 166
-0.239649 0.224711 -0.0261996 97 156 124
-0.711591 0.902033 -0.432003 37 243 72
0.283109 -0.994786 0.339173 164 1 171
0.17619 -0.99454 0.0719114 150 1 137
-0.3448 0.145551 0.183572 84 146 151
0.281423 -0.648798 0.499978 163 45 191
0.676098 0.219219 -0.859823 214 155 18
-0.355101 -0.573402 -0.199568 82 54 102
0.581553 0.874667 -0.0359444 202 239 123
0.173064 0.924546 0.223222 150 245 156
0.511081 0.260586 -0.799693 193 161 26
0.160257 0.323988 -0.418669 148 169 74
0.172022 -0.865961 0.792181 149 17 229
0.00823708 0.819313 0.143987 129 232 146
-0.386872 -0.0160251 -0.611148 78 125 50
-0.0809052 -0.995761 0.21542 117 1 155
0.166266 -0.996959 -0.319645 149 0 87
-0.583609 0.847424 -0.0337006 53 236 123
0.501422 0.537407 -0.451332 191 196 70
-0.228299 -0.65567 0.629125 98 44 208
-0.10867 -0.784489 -0.464502 114 27 68
-0.360279 0.181786 0.393716 82 151 178
0.156488 0.106984 0.635124 147 141 208
0.538164 0.681682 -0.292608 196 214 90
0.0436402 -0.34391 -0.580107 133 84 54
0.411813 0.18022 -0.594601 180 150 52
0.147726 -0.995496 -0.130862 146 1 111
0.609692 0.781807 -0.227238 205 227 99
-0.646747 0.530141 -0.626124 45 195 48
0.238633 0.706894 0.537179 158 218 196
0.354535 -0.325085 0.385098 173 86 177
0.615516 0.422478 -0.665402 206 181 43
-0.390678 0.535393 -0.608632 78 196 50
-0.372809 0.459421 -0.00889759 80 186 126
0.19887 -0.944056 0.785222 153 7 228
0.336394 -0.657688 -0.250108 170 44 96
0.679516 -0.880316 0.0665734 214 15 136
0.00651079 -0.469066 -0.00164138 128 68 127
0.183683 0.374036 -0.46965 151 175 68
-0.607292 0.108197 -0.760798 50 141 30
0.294339 -0.599908 0.414435 165 51 180
-0.306587 -0.762561 0.23065 88 30 157
0.497557 0.535393 -0.512162 191 196 62
-0.375928 -0.324819 -0.24187 80 86 97
0.658538 -0.830146 0.332929 211 22 170
0.452509 -0.950427 0.647637 185 6 210
0.0446663 -0.392338 0.194543 133 77 152
0.0691177 0.87674 0.218233 136 239 155
-0.395729 0.226929 -0.574059 77 156 54
0.132727 0.0202243 -0.38533 144 130 78
-0.21866 -0.645789 0.0425894 100 45 133
-0.652787 -0.850076 0.0217047 44 19 130
-0.272835 -0.597544 -0.100505 93 51 115
-0.299654 -0.408721 -0.0441735 89 75 122
0.274751 -0.307348 -0.583368 163 88 53
0.287482 0.4459 0.233795 164 184 157
0.176264 -0.769914 0.262635 150 29 161
-0.168036 0.82345 0.56128 106 232 199
-0.304239 -0.729256 0.490186 89 35 190
0.164146 -0.722952 0.290909 148 35 165
0.336234 0.223242 0.0470953 170 156 134
-0.321116 0.756747 -0.408441 87 224 75
-0.0106435 0.315358 -0.159495 126 168 107
0.353831 -0.748904 0.0992878 173 32 140
-0.323381 0.471562 -0.216566 86 188 100
-0.509992 0.745329 -0.0206994 62 223 125
-0.28889 -0.457535 -0.622367 91 69 48
0.172961 0.134589 -0.310443 150 145 88
0.234688 -0.402526 -0.41831 157 76 74
-0.781827 0.771948 -0.49306 28 226 65
-0.455534 -0.925774 -0.328953 69 9 86
-0.27509 -0.677444 0.340871 92 41 171
-0.344492 0.184952 -0.704014 84 151 38
0.230293 0.596231 -0.331732 157 204 85
-0.306818 -0.983913 0.557341 88 2 199
-0.373003 0.129388 -0.575328 80 144 54
0.560769 -0.878482 -0.236946 199 15 97
-0.163038 -0.161693 0.497209 107 107 191
-0.231615 0.48971 0.422234 98 190 181
0.213518 -0.546807 -0.533803 155 58 59
