ply
format ascii 1.0
comment Created by Open3D
element vertex 1203
property double x
property double y
property double z
property uchar red
property uchar green
property uchar blue
end_header
0.372002 -0.679353 -0.646164 175 41 45
-0.0169996 -0.780705 -0.645928 125 28 45
0.0489949 -0.0667073 0.339528 134 119 171
0.283494 -0.130091 -0.291708 164 111 90
0.698764 0.861546 -0.202903 217 237 102
-0.245353 -0.529412 -0.346857 96 60 83
0.324796 -0.396372 -0.228691 169 77 98
0.188964 0.226507 0.679735 152 156 214
0.115141 0.59854 0.662116 142 204 212
0.201724 0.0519285 0.299476 153 134 166
0.286165 -0.238976 0.319402 164 97 168
-0.0310082 0.704947 0.437028 124 217 183
-0.658556 0.095533 -0.276399 44 140 92
-0.691477 0.306162 -0.21199 39 167 100
0.6477 0.759497 -0.0983064 210 224 115
-0.264307 -0.47718 -0.275611 94 67 92
0.249907 -0.231306 -0.302015 159 98 89
-0.2465 -0.0713993 -0.169076 96 118 106
0.430084 0.219169 -0.146027 182 155 109
0.428621 -0.895686 0.0668559 182 13 136
0.00150383 -0.0294871 -0.219879 128 124 99
-0.475208 -0.131027 -0.257548 67 111 95
-0.314181 0.912188 0.0328292 87 244 132
-0.239038 0.0964283 0.0281012 97 140 131
0.662659 -0.130902 -0.628666 212 111 47
0.685295 0.148913 -0.495305 215 146 64
-0.304515 -0.728915 -0.628236 89 35 47
-0.477931 -0.373658 -0.109636 67 80 114
0.208149 -0.503893 -0.469153 154 63 68
0.191031 0.583226 0.662599 152 202 212
0.598547 0.347436 -0.269876 204 172 93
-0.261149 -0.406823 -0.135713 94 76 110
-0.14149 -0.853623 0.256585 109 19 160
0.422954 0.0622967 -0.263696 181 135 94
0.214871 0.458367 0.730733 155 186 221
-0.1978 -0.886921 0.10795 102 14 141
-0.172521 -0.671672 -0.523062 106 42 61
0.663111 0.752554 -0.168237 212 223 106
0.635163 -0.259201 -0.185664 208 94 104
0.154408 0.605371 0.515668 147 205 193
0.327982 0.491606 0.458731 169 190 186
-0.117084 -0.884239 -0.141368 113 15 109
0.598526 0.851846 -0.100991 204 236 115
0.0724638 -0.170508 0.361338 137 106 174
0.355023 -0.435534 0.0175534 173 72 130
-0.218424 -0.148991 -0.276409 100 109 92
-0.289508 -0.967074 -0.0340898 91 4 123
0.458724 -0.329098 -0.413287 186 86 75
-0.109903 0.833261 0.426497 113 234 182
-0.0409303 0.00766248 -0.390339 122 128 78
0.687887 -0.201226 -0.587323 215 102 53
-0.443507 0.693965 0.0290723 71 216 131
-0.31413 -0.108054 0.345004 87 114 171
-0.136274 0.194112 0.130896 110 152 144
0.240669 0.369095 0.24208 158 175 158
-0.46903 0.156544 -0.130698 68 147 111
-0.0587553 -0.968898 0.219378 120 4 155
0.443397 -0.663261 -0.0702994 184 43 119
0.765664 0.290813 -0.59482 225 165 52
-0.472621 -0.568768 -0.0308697 67 55 124
0.102138 -0.688377 -0.584999 141 40 53
-0.324366 -0.660417 -0.476144 86 43 67
0.433357 -0.117672 -0.0552862 183 112 120
-0.185918 -0.927323 -0.503617 104 9 63
0.285389 0.165152 -0.120685 164 149 112
0.746049 0.634233 -0.488334 223 208 65
-0.0904184 -0.294193 -0.466866 116 90 68
-0.185452 -0.132047 0.293666 104 111 165
0.167889 -0.470876 -0.479824 149 67 66
0.538473 -0.8663 -0.0305233 196 17 124
-0.441311 -0.0551297 -0.308024 71 120 88
-0.213927 -0.199823 -0.217356 100 102 100
0.574179 -0.480568 -0.70553 201 66 38
-0.0285777 -0.0300547 -0.212978 124 124 100
0.545554 -0.0201386 0.267528 197 125 162
0.752855 0.456165 -0.302499 223 186 89
0.642992 -0.09332 -0.564159 209 116 56
0.130087 -0.993741 -0.356866 144 1 82
-0.142991 -0.204232 -0.273873 109 101 93
0.119579 -0.279696 0.290427 143 92 165
0.0415426 0.526079 0.724367 133 195 220
0.0798805 0.161673 -0.0735416 138 148 118
0.62623 -0.293132 -0.240305 207 90 97
0.436368 -0.736965 -0.648148 183 34 45
0.0982016 0.265507 -0.0745077 140 161 118
0.431689 -0.875318 -0.188732 183 16 103
0.586386 0.337647 -0.144391 202 171 109
-0.327377 0.744884 -0.0263862 86 222 124
0.505194 -0.0357635 -0.0403757 192 123 122
0.0110452 -0.478113 0.116135 129 67 142
0.223295 0.321197 0.521015 156 168 194
0.265141 0.217309 0.200314 161 155 153
0.135587 0.177583 -0.0611213 145 150 120
0.5775 -0.268831 0.176546 201 93 150
0.272438 0.503599 0.670721 162 192 213
-0.825684 0.432199 -0.260895 22 183 94
0.00263031 -0.0844432 0.35328 128 117 173
-0.492189 0.192577 -0.220104 65 152 99
0.340468 -0.153165 -0.169373 171 108 106
0.37431 -0.623824 -0.1523 175 48 108
0.63884 0.69464 -0.0911443 209 216 116
0.200769 -0.879065 0.22851 153 15 157
0.0756132 -0.180682 -0.362211 137 104 81
-0.095074 0.699361 0.443811 115 217 184
0.178113 0.576447 0.576217 150 201 201
-0.282393 0.140304 0.154222 91 145 147
0.308604 -0.75694 0.202089 167 31 153
0.733095 0.307292 -0.528767 221 167 60
-0.405584 -0.856017 -0.587357 76 18 53
0.144791 0.229031 0.620931 146 157 207
-0.327051 0.0939402 0.283651 86 139 164
-0.0232956 0.340526 0.543279 125 171 197
-0.149095 -0.708437 -0.484712 108 37 66
-0.306214 0.167264 -0.0332861 88 149 123
0.836853 0.635578 -0.509848 234 209 62
0.157827 -0.981906 0.346579 148 2 172
-0.156994 -0.736655 -0.488463 107 34 65
-0.18235 -0.720885 -0.539179 104 36 59
0.622864 0.0545878 -0.448421 207 134 70
0.693867 0.655888 -0.14356 216 211 109
0.362343 -0.697772 -0.626018 174 39 48
0.0717571 -0.95955 -0.544739 137 5 58
0.660975 -0.496182 -0.204885 212 64 101
0.52358 -0.868137 -0.00571871 194 17 127
0.0978618 0.144117 -0.188802 140 146 103
-0.286823 -0.976604 0.0887308 91 3 139
0.281218 -0.352202 -0.406951 163 83 76
0.507715 -0.0160257 -0.0399613 192 125 122
-0.287862 -0.19328 -0.310227 91 103 88
0.741778 0.237361 -0.381877 222 158 79
-0.477296 -0.317728 -0.50867 67 87 63
-0.186982 -0.335076 -0.144755 104 85 109
-0.0224179 -0.674887 -0.0281403 125 41 124
0.598728 0.269692 -0.305331 204 162 89
-0.00194371 0.436205 0.204478 127 183 154
0.299825 0.468804 0.51156 166 187 193
-0.243477 -0.63203 0.304627 96 47 166
-0.0633865 -0.0396632 -0.372899 119 122 80
0.729033 0.586587 -0.435754 220 202 72
-0.409435 0.894521 0.0735872 75 242 137
-0.451092 0.676315 0.0225435 70 214 130
-0.288598 0.828415 0.121621 91 233 143
-0.351178 -0.964452 -0.48641 83 5 65
0.660751 -0.300912 -0.668302 212 89 42
-0.263031 0.769799 0.00984813 94 226 129
-0.466766 0.308822 -0.168901 68 167 106
-0.161505 0.195253 -0.0625276 107 152 120
-0.0800336 -0.681051 0.200987 117 41 153
-0.391777 -0.757208 -0.502615 78 31 63
0.600911 -0.67828 -0.126957 204 41 111
0.276953 -0.613608 -0.0783313 163 49 118
0.648931 -0.565177 -0.104496 210 55 114
-0.646627 0.379822 -0.250084 45 176 96
0.165816 0.149248 -0.0813674 149 147 117
0.0628543 -0.993452 -0.352838 136 1 83
0.504116 -0.313493 -0.129867 192 88 111
0.115433 -0.168334 0.34238 142 106 171
0.767777 0.672948 -0.362257 225 213 81
-0.72102 0.481597 -0.147282 36 189 109
0.10128 0.289792 0.0255736 140 164 131
-0.094971 -0.973305 0.164961 115 3 149
-0.0187386 0.656517 0.499358 125 211 191
0.721461 0.659076 -0.416983 219 212 74
-0.31326 -0.00892285 0.0237435 88 126 131
0.621078 0.0134836 -0.319016 207 129 87
-0.634735 -0.0364803 -0.518452 47 123 61
0.769658 0.709454 -0.484117 226 218 66
0.614099 0.875484 -0.114203 206 239 113
-0.268986 -0.913866 0.113941 93 11 142
0.0108326 -0.0528688 0.342177 129 121 171
-0.314626 -0.473753 0.0427288 87 67 133
-0.159972 -0.0578575 0.315838 107 120 168
0.516331 -0.489285 0.156479 193 65 147
-0.438969 -0.659549 -0.10279 72 43 114
0.195766 -0.607636 -0.517149 152 50 62
0.668077 -0.109521 -0.731558 213 114 34
0.220629 -0.0673948 0.331988 156 119 170
0.632858 0.518155 -0.259927 208 194 94
-0.178452 0.965948 0.0780537 105 251 137
0.520196 -0.252832 -0.016612 194 95 125
0.202 0.586286 0.492949 153 202 190
0.0935922 -0.359431 -0.494997 139 82 64
-0.0583597 -0.974686 -0.298668 120 3 89
0.203262 0.443553 0.715814 153 184 219
-0.40209 -0.242404 -0.414868 76 97 75
0.551343 -0.349456 -0.489273 198 83 65
-0.491759 -0.440243 -0.589803 65 71 52
-0.0597495 0.906719 0.128258 120 243 144
-0.377348 0.122794 -0.0653146 79 143 119
0.0141405 0.435619 0.330606 129 183 170
-0.25208 -0.501692 -0.560347 95 64 56
0.337963 -0.445994 -0.185375 171 71 104
-0.0563691 -0.17856 -0.379406 120 105 79
-0.166489 -0.539636 -0.116842 106 59 113
0.694669 -0.0598811 -0.491938 216 120 65
-0.301632 -0.549956 0.260524 89 57 161
0.519182 0.151437 -0.181819 194 147 104
-0.179356 -0.301227 -0.196066 105 89 103
-0.364845 -0.032487 0.153475 81 123 147
0.69337 0.0608213 -0.630451 216 135 47
-0.139619 -0.935731 0.311585 110 8 167
0.485557 -0.573491 0.170047 189 54 149
-0.306181 0.0860893 0.0684419 88 138 136
-0.440366 -0.18273 -0.412245 71 104 75
-0.0844938 0.0410243 -0.319462 117 133 87
-0.322085 -0.330188 -0.403884 86 85 76
-0.159756 -0.515941 -0.287169 107 62 91
-0.0760673 0.480934 0.515011 118 189 193
0.69705 0.436867 -0.232363 216 183 98
0.181281 0.290698 0.72565 151 165 220
0.377195 -0.625922 -0.633504 176 48 47
-0.21988 0.836032 0.0158347 99 234 130
0.711072 0.306359 -0.517377 218 167 62
0.0904582 0.703943 0.461199 139 217 186
0.331878 -0.470427 -0.242442 170 68 97
0.228431 -0.549332 -0.499151 157 57 64
0.240745 0.28259 0.620372 158 164 207
-0.49432 0.0759545 -0.186232 64 137 104
-0.214327 -0.907314 -0.495453 100 12 64
-0.449879 -0.604274 -0.636745 70 50 46
0.0138657 -0.380929 -0.470606 129 79 67
-0.271795 0.944924 0.0506945 93 248 134
-0.453006 0.418565 -0.000185608 70 181 127
-0.0144014 -0.799975 0.323536 126 26 169
-0.156019 -0.477616 0.257923 108 67 160
0.356346 -0.156855 -0.150804 173 108 108
0.265605 -0.680476 0.169597 161 41 149
0.622803 -0.0197356 -0.488466 207 125 65
-0.000446884 0.451343 0.716685 127 185 219
0.361355 -0.388646 -0.136472 174 78 110
0.343178 -0.317399 -0.331394 171 87 85
-0.105537 -0.974861 -0.0543794 114 3 121
-0.33135 -0.0479175 -0.250137 85 121 96
-0.665966 0.232374 -0.330773 43 157 85
-0.0926734 -0.796103 0.350445 116 26 172
0.353178 -0.635237 -0.157491 173 47 107
-0.205413 -0.28349 0.0384438 101 91 132
0.454854 -0.690145 -0.420699 185 40 74
-0.271797 0.867598 -0.000825832 93 238 127
-0.236811 0.136798 -0.143089 97 145 109
0.559787 -0.617369 -0.0258708 199 49 124
-0.295619 0.185582 -0.00866222 90 151 126
0.275313 -0.772555 0.206144 163 29 154
0.346422 -0.988392 -0.0314925 172 1 123
0.598721 0.328527 -0.138518 204 169 110
0.60583 -0.152483 -0.548385 205 108 58
0.359356 -0.75673 -0.524199 173 31 61
0.531238 -0.0207819 -0.413831 195 125 75
0.611298 0.832461 -0.236159 205 234 97
0.507034 -0.24207 -0.499055 192 97 64
0.346912 -0.659511 0.131579 172 43 144
-0.0633246 0.439969 0.408427 119 184 180
0.130971 -0.512997 -0.539262 144 62 59
-0.185004 -0.417993 -0.552936 104 74 57
-0.12154 0.590285 0.449153 112 203 185
0.329039 0.17787 0.158324 169 150 148
-0.241881 -0.227461 -0.240064 97 98 97
0.275844 0.11472 -0.178009 163 142 105
0.606198 0.612026 -0.221173 205 206 99
0.538146 -0.268924 0.00347499 196 93 128
-0.51838 0.187708 -0.239433 61 151 97
-0.570761 0.365969 -0.0901517 55 174 116
-0.17688 0.170851 0.00787107 105 149 129
-0.10467 -0.904074 -0.148323 114 12 109
-0.0708073 -0.787344 0.346588 118 27 172
0.515292 -0.0813392 -0.308212 193 117 88
0.805104 0.45259 -0.471966 230 185 67
0.806439 0.219179 -0.5815 230 155 53
-0.690649 0.275477 -0.226859 39 163 99
0.631885 0.924094 -0.186906 208 245 104
-0.518424 0.0280416 -0.227874 61 131 98
-0.0925095 -0.0528417 -0.406059 116 121 76
-0.254285 -0.966197 0.142535 95 4 146
-0.361233 -0.233354 0.148589 81 98 146
-0.386913 -0.390923 -0.482324 78 78 66
-0.584682 -0.263376 -0.520276 53 94 61
0.315619 -0.783621 0.255917 168 28 160
-0.296235 -0.688715 -0.415339 90 40 75
-0.0216679 0.475811 0.712385 125 188 218
0.481894 -0.504328 -0.660982 189 63 43
-0.178046 0.199309 -0.0696256 105 153 119
-0.303532 -0.956952 -0.476986 89 5 67
-0.613554 -0.141969 -0.416911 49 109 74
0.142945 0.565 0.177342 146 200 150
-0.000486147 0.476576 0.285905 127 188 164
-0.366899 0.231818 -0.140825 81 157 110
-0.719757 0.398203 -0.189695 36 178 103
0.448803 -0.505064 0.287131 185 63 164
0.415365 0.0971211 -0.244648 180 140 96
-0.0911327 -0.251936 -0.431714 116 95 72
0.430384 -0.954637 0.122883 182 6 143
0.0225545 -0.844588 0.338966 130 20 171
0.579273 -0.923418 0.106253 201 10 141
0.342488 -0.552146 -0.571754 171 57 55
-0.4241 -0.467458 -0.581023 73 68 53
-0.319153 -0.762398 -0.575133 87 30 54
-0.291921 -0.318586 0.263928 90 87 161
-0.0733727 0.428517 0.307964 118 182 167
-0.193368 -0.904875 -0.471897 103 12 67
-0.356487 0.463825 -0.0288924 82 187 124
0.574617 -0.697196 -0.0757318 201 39 118
0.59389 -0.351112 -0.0701142 203 83 119
0.569576 -0.15256 0.00573928 200 108 128
0.758596 -0.0326162 -0.725473 224 123 35
-0.0908904 -0.0710715 -0.447004 116 118 71
0.169202 0.065273 0.315996 149 136 168
0.641967 -0.380452 -0.675462 209 79 41
0.479683 0.135949 0.167767 189 145 149
0.610224 -0.601112 -0.0366384 205 51 123
-0.0584841 0.828695 0.417416 120 233 181
0.0433249 0.484392 0.178592 133 189 150
-0.370354 -0.249854 -0.379518 80 96 79
0.31078 -0.930566 0.0765992 167 9 137
0.515068 -0.0785615 -0.0135057 193 117 126
-0.538225 0.255075 -0.127673 59 160 111
0.135675 0.416971 0.0339129 145 181 132
0.299326 -0.126351 0.33092 166 111 170
-0.111743 0.688332 0.307217 113 215 167
-0.163379 -0.734148 0.210136 107 34 154
-0.236605 -0.104804 -0.0674149 97 114 119
-0.325567 -0.953334 0.0365742 86 6 132
0.317299 -0.949429 -0.128308 168 6 111
-0.368178 -0.0681044 -0.19468 81 119 103
0.0214572 -0.987482 -0.297051 130 2 90
0.279796 0.400583 0.573537 163 179 201
0.744816 0.571797 -0.486478 222 200 65
-0.310148 -0.90065 0.125439 88 13 143
-0.313817 -0.727402 -0.386828 87 35 78
-0.173795 -0.416875 0.018006 105 74 130
-0.213138 0.901512 0.00477614 100 242 128
-0.375917 -0.880029 -0.57462 80 15 54
-0.135355 -0.153503 0.310028 110 108 167
0.142119 -0.344472 -0.389114 146 84 78
0.559119 -0.0472145 0.264718 199 121 161
-0.26227 0.909939 0.143219 94 244 146
0.449517 -0.365 -0.434421 185 81 72
0.42309 -0.577038 -0.537588 181 54 59
0.399312 0.153307 0.166123 178 147 149
-0.0957307 0.162525 -0.0985157 115 148 115
-0.0935596 0.826215 0.398386 116 233 178
0.562135 0.057279 -0.39109 199 135 78
-0.316219 -0.801814 -0.036158 87 25 123
0.447743 -0.482526 -0.513751 185 66 62
0.441545 0.107573 0.232737 184 141 157
-0.181335 0.96777 0.12022 104 251 143
0.615129 -0.254767 -0.630217 206 95 47
0.531767 -0.674387 -0.034549 195 42 123
-0.0927981 -0.552421 0.203261 116 57 153
0.10586 -0.757643 -0.0158817 141 31 125
0.448897 -0.647589 0.255189 185 45 160
-0.0369724 -0.549785 0.0610076 123 57 135
0.518736 0.171116 -0.297511 194 149 90
0.0184431 -0.318453 -0.510894 130 87 62
0.597098 -0.500201 -0.330983 204 64 85
-0.367163 0.18798 -0.0498797 81 151 121
0.235895 -0.8169 0.225594 158 23 156
0.584236 0.0944725 -0.378027 202 140 79
0.113066 -0.0140551 -0.225448 142 126 99
0.0168742 -0.836863 0.292218 130 21 165
-0.466699 0.027939 -0.265184 68 131 94
-0.0410319 0.678254 0.327201 122 214 169
-0.0578171 -0.98095 0.235971 120 2 158
-0.11928 -0.875857 -0.00175915 112 16 127
0.766616 0.531948 -0.366233 225 195 81
0.68474 0.643829 -0.353755 215 210 82
0.354049 -0.128901 -0.160234 173 111 107
0.348043 -0.98246 0.0435691 172 2 133
0.395625 -0.679515 -0.145209 178 41 109
0.496045 -0.311099 -0.23705 191 88 97
0.395122 -0.209958 0.250808 178 101 159
0.198001 0.316353 0.280971 153 168 163
-0.0179148 -0.16145 -0.407346 125 107 76
-0.761661 0.152548 -0.450447 30 147 70
-0.591946 0.0573374 -0.401533 52 135 76
0.766998 -0.00274997 -0.60905 225 127 50
0.157299 -0.92153 0.210416 148 10 154
0.49708 0.217983 -0.24401 191 155 96
0.562247 -0.327771 0.223029 199 86 156
0.0850659 0.167972 -0.11804 138 149 112
0.363703 0.153365 0.00771539 174 147 128
0.166298 -0.984211 0.299964 149 2 166
-0.168193 -0.341522 -0.346843 106 84 83
0.233678 -0.981134 -0.330775 157 2 85
-0.0614105 0.840159 0.427965 120 235 182
0.640265 -0.199346 -0.631414 209 102 47
-0.312072 -0.0235385 -0.152782 88 124 108
-0.43958 0.155835 -0.199018 71 147 102
-0.188079 0.0043801 -0.0947589 104 128 115
0.628809 -0.359624 -0.0669562 208 82 119
-0.293289 -0.208944 -0.319974 90 101 87
0.326236 -0.415004 -0.390085 169 75 78
0.286772 0.156356 -0.140662 164 147 110
-0.0841911 0.677932 0.307708 117 214 167
0.176604 -0.405905 0.182928 150 76 151
-0.448362 -0.622968 -0.168135 70 48 106
0.61683 0.419567 -0.26247 206 181 94
0.328325 0.219292 0.0441574 169 155 133
0.232948 0.352782 0.263355 157 172 161
-0.403898 -0.696387 -0.022981 76 39 125
-0.0893051 -0.084537 -0.260702 116 117 94
0.720359 0.580404 -0.208706 219 202 101
-0.155516 -0.767803 0.313259 108 30 167
0.439242 -0.460289 -0.595353 184 69 52
0.397107 0.0518592 -0.0521157 178 134 121
0.258359 0.195457 -0.012477 160 152 126
0.0889686 0.185414 0.325892 139 151 169
0.346481 0.183433 -0.13622 172 151 110
-0.114587 -0.669585 -0.497388 113 42 64
0.0557431 0.304856 0.299879 135 166 166
-0.623358 0.705038 0.00823617 48 217 129
-0.193793 -0.946213 0.200282 103 7 153
0.45192 -0.873257 0.101058 185 16 140
0.104878 0.694346 0.262779 141 216 161
0.50113 -0.343317 -0.111637 191 84 113
-0.358879 -0.150104 0.101378 82 108 140
-0.352117 0.409279 -0.0108445 83 180 126
0.0756361 -0.94368 0.410842 137 7 180
-0.0289892 -0.289553 -0.502421 124 91 63
0.154494 -0.966059 -0.481488 147 4 66
0.516686 -0.520012 -0.0425508 193 61 122
-0.413322 0.732578 -0.0444911 75 221 122
0.0109002 -0.596448 -0.53312 129 51 60
0.0178215 -0.855174 0.370778 130 18 175
0.682394 0.0274965 -0.713383 215 131 37
-0.269571 -0.220222 -0.244466 93 99 96
0.211014 0.0239644 -0.190051 154 131 103
0.339568 -0.5241 -0.545693 171 61 58
-0.34538 -0.196493 -0.332467 83 102 85
0.596718 0.00630805 0.148678 204 128 146
0.822078 0.627354 -0.582704 232 207 53
-0.811436 0.310295 -0.410574 24 167 75
-0.43477 -0.367262 -0.536066 72 81 59
0.524004 -0.32543 -0.4573 194 86 69
0.250463 0.465932 0.675207 159 187 214
-0.0570427 -0.985441 0.317815 120 2 168
-0.231771 -0.0238402 -0.227117 98 124 99
-0.115389 0.601943 0.41278 113 204 180
-0.475815 0.235095 -0.198068 67 157 102
-0.238614 -0.507474 -0.4255 97 63 73
-0.162907 -0.512352 -0.304418 107 62 89
0.160184 0.409974 0.414459 148 180 180
-0.414012 -0.699921 -0.2414 75 38 97
0.363903 -0.877885 -0.402667 174 16 76
0.126475 -0.0702798 -0.249672 144 119 96
0.684012 0.215164 -0.45285 215 155 70
0.154131 0.202529 0.665654 147 153 212
0.155864 0.0372376 -0.184166 147 132 104
0.279487 -0.603971 0.278313 163 50 163
0.618101 0.932488 -0.0986902 206 246 115
0.701549 0.498848 -0.390644 217 191 78
-0.299211 0.684313 0.0542223 89 215 134
0.42735 -0.998622 -0.0434565 182 0 122
0.671624 0.0607354 -0.522228 213 135 61
0.009403 -0.853259 0.259421 129 19 161
-0.122325 -0.828523 -0.695405 112 22 39
0.707179 0.877565 -0.220107 218 239 99
-0.349951 0.900593 0.03208 83 242 132
0.805783 0.265456 -0.552337 230 161 57
-0.195044 -0.103135 -0.372844 103 114 80
0.0694703 0.271372 0.728807 136 162 220
0.0790051 0.327988 0.0573653 138 169 135
-0.691776 0.0117896 -0.456267 39 129 69
0.189807 0.501347 0.754385 152 191 224
0.337995 -0.241454 -0.282061 171 97 92
-0.584131 0.221718 -0.30767 53 156 88
0.327227 -0.891423 0.0102581 169 14 129
0.475261 0.0868217 -0.190007 188 139 103
-0.601334 -0.115674 -0.519242 51 113 61
-0.262696 -0.806378 -0.447977 94 25 70
-0.57267 0.125054 -0.215041 54 143 100
0.545811 -0.252019 -0.429454 197 95 73
-0.429825 -0.404983 -0.198322 73 76 102
-0.340337 -0.334286 -0.334203 84 85 85
0.3062 -0.324036 -0.232993 167 86 98
0.652464 -0.100776 -0.747725 211 115 32
0.338805 -0.159716 0.310165 171 107 167
-0.378783 -0.202898 -0.356625 79 102 82
0.0683352 -0.148914 -0.354349 136 109 82
-0.0514174 -0.414762 0.188258 121 75 152
-0.579411 -0.325368 -0.503838 54 86 63
0.442679 -0.157444 -0.38607 184 107 78
-0.425504 0.481518 0.0483315 73 189 134
0.27961 -0.790334 0.330849 163 27 170
-0.332896 -0.151615 0.06931 85 108 136
-0.321782 -0.771774 -0.128111 86 29 111
-0.361128 0.828194 0.0798634 81 233 138
0.187801 -0.77683 0.341675 151 28 171
0.144582 -0.945581 -0.514256 146 7 62
-0.102995 -0.572704 -0.483504 114 54 66
-0.0535569 -0.444084 -0.484013 121 71 66
-0.108584 0.0431929 -0.352935 114 133 83
0.62044 -0.234192 0.108695 207 98 141
0.000654853 -0.987316 0.291873 128 2 165
-0.302253 -0.767667 -0.603016 89 30 51
-0.115831 -0.667407 -0.129779 113 42 111
0.311454 0.692298 0.513391 167 216 193
0.481904 -0.76018 -0.375024 189 31 80
-0.315014 -0.0642944 -0.175612 87 119 105
0.455885 -0.797626 -0.288949 186 26 91
0.0478218 -0.0340434 0.335561 134 123 170
-0.633576 0.105434 -0.257336 47 141 95
0.733258 0.67019 -0.441891 221 213 71
0.519524 -0.0208472 -0.279217 194 125 92
0.53169 -0.235558 -0.40652 195 97 76
0.526336 -0.436291 -0.394539 195 72 77
-0.473718 0.0596268 -0.253079 67 135 95
-0.0922459 0.5481 0.505672 116 197 192
0.296453 0.62892 0.336181 165 208 170
0.263569 0.436282 0.412138 161 183 180
0.454432 -0.214002 0.264648 185 100 161
0.117975 -0.571943 -0.52582 143 55 60
-0.658935 0.544556 -0.177158 43 197 105
0.634183 -0.482529 -0.268413 208 66 93
-0.464322 -0.539384 -0.0542315 68 59 121
-0.297094 0.135917 -0.16005 90 145 107
-0.698967 0.0353868 -0.396203 38 132 77
-0.276121 0.0253623 -0.207594 92 131 101
0.0467354 -0.461473 -0.473885 133 69 67
0.329924 -0.339067 -0.20166 170 84 102
-0.264677 -0.143022 -0.204869 94 109 101
0.0114429 0.478969 0.754237 129 189 224
-0.0545653 -0.739968 -0.101688 121 33 115
0.56744 -0.143064 0.279297 200 109 163
0.626852 0.758711 -0.25935 207 224 94
-0.0943432 -0.820497 0.366442 115 23 174
0.367111 -0.609107 0.109281 174 50 141
-0.194766 0.158086 0.19049 103 148 152
0.200779 -0.742912 0.2283 153 33 157
-0.0917096 0.599071 0.368555 116 204 174
0.110363 -0.418754 0.168571 142 74 149
0.658034 0.22141 -0.271375 211 156 93
-0.0893716 -0.28066 -0.341379 116 92 84
-0.362735 -0.563492 0.0857099 81 56 138
0.837779 0.536439 -0.663893 234 196 43
0.641515 -0.403315 -0.0790487 209 76 117
0.752663 0.139532 -0.687547 223 145 40
0.518214 0.103114 -0.330297 194 141 85
0.218116 -0.841303 -0.201359 155 20 102
0.28909 0.764152 0.435718 164 225 183
0.441076 -0.00529068 -0.210956 184 127 101
0.428428 -0.910647 0.119205 182 11 143
0.529122 0.951135 -0.0069859 195 249 127
0.631706 0.395886 -0.290964 208 178 90
-0.0626078 -0.723472 0.28392 120 35 164
-0.201216 -0.975466 0.137199 102 3 145
-0.0149191 0.635667 0.525559 126 209 195
-0.415194 0.317839 -0.0131736 75 168 126
-0.517738 -0.448909 -0.607856 61 70 50
-0.669745 0.32062 -0.187181 42 168 104
-0.138278 -0.26981 -0.285572 110 93 91
-0.000345478 -0.0582738 -0.406671 127 120 76
-0.682747 0.371928 -0.175515 40 175 105
-0.0270925 -0.804526 0.237613 124 25 158
-0.481034 0.413204 -0.16541 66 180 106
-0.325842 0.0715017 -0.099837 86 137 115
-0.0523248 0.0203394 0.264146 121 130 161
-0.149577 -0.476989 0.139735 108 67 145
-0.492326 0.555918 -0.018774 65 198 125
-0.0067675 -0.152997 0.368662 127 108 175
-0.109898 -0.961224 0.263129 113 5 161
0.514327 0.294671 -0.17656 193 165 105
0.506028 0.973707 -0.0111239 192 252 126
0.441923 -0.800164 -0.0709922 184 25 118
-0.00125991 -0.721269 -0.0537704 127 36 121
0.0364252 0.514442 0.209232 132 193 154
0.0713974 -0.939476 0.247429 137 8 159
0.482105 -0.615948 -0.687457 189 49 40
-0.327445 -0.208493 -0.257414 86 101 95
-0.164856 -0.713198 0.188256 106 37 152
0.733802 0.790175 -0.27823 221 228 92
0.712714 0.453459 -0.421975 218 185 74
-0.0053616 -0.0137169 0.310954 127 126 167
0.133369 -0.759958 -0.583593 145 31 53
0.614392 -0.280871 -0.646847 206 92 45
0.363395 -0.3107 -0.163363 174 88 107
0.606837 0.85618 -0.225116 205 237 99
0.179176 0.3643 0.719795 150 174 219
-0.215562 -0.422031 0.287818 100 74 164
0.0403756 -0.850944 0.310081 133 19 167
0.650038 -0.427611 -0.0951638 210 73 115
-0.258267 -0.0246316 -0.0400401 95 124 122
-0.0843964 -0.128992 -0.304085 117 111 89
0.0750057 0.0283176 -0.28644 137 131 91
0.592544 -0.381569 -0.325194 203 79 86
-0.477127 0.445733 -0.143811 67 184 109
0.510293 -0.313869 -0.43941 193 87 71
0.367727 -0.585626 0.11197 174 53 142
0.142735 -0.220839 -0.316982 146 99 87
-0.387808 -0.0159453 0.235052 78 125 157
-0.512144 -0.641468 -0.656021 62 46 44
-0.509803 -0.561233 -0.653767 63 56 44
0.194093 -0.256521 0.330397 152 95 170
-0.0897651 0.6369 0.40397 116 209 179
0.361696 -0.211777 -0.38121 174 100 79
-0.219078 -0.47831 -0.070339 100 67 119
-0.11566 0.970765 0.124958 113 251 143
0.472205 -0.769309 -0.293838 188 29 90
-0.274735 -0.397124 -0.0528893 92 77 121
-0.364684 0.0256341 0.0594082 81 131 135
0.583896 -0.368022 -0.322109 202 81 86
0.231822 -0.675753 0.273815 157 41 162
0.319084 0.577017 0.293348 168 201 165
0.485336 -0.754028 -0.308385 189 31 88
-0.27224 -0.401123 -0.425673 93 76 73
-0.415458 -0.352215 -0.520033 75 83 61
0.336374 -0.400988 0.152694 170 76 147
0.556048 -0.966103 0.0991468 198 4 140
-0.00374515 -0.673518 -0.559551 127 42 56
-0.825256 0.447992 -0.225534 22 185 99
0.0871724 -0.372343 -0.508989 139 80 63
-0.244552 -0.610408 0.00628549 96 50 128
-0.273027 0.048153 -0.101154 93 134 115
-0.355546 0.458306 0.000493273 82 186 128
-0.215707 0.075382 0.272856 100 137 162
-0.435944 0.820847 -0.0142566 72 232 126
0.0382737 0.246753 0.00515852 132 159 128
-0.465188 -0.636308 -0.539181 68 46 59
0.456397 -0.248144 0.263477 186 96 161
-0.324506 0.244832 -0.118101 86 159 112
0.806905 0.332791 -0.444212 230 170 71
0.634848 -0.104171 -0.557228 208 114 56
0.184554 0.388089 0.687658 151 177 215
0.537303 -0.896383 0.0319762 196 13 132
-0.151155 -0.149485 0.286057 108 108 164
0.561989 -0.617609 -0.366819 199 49 81
0.404662 -0.378883 0.241803 179 79 158
0.12802 0.624935 0.555093 144 207 198
0.377885 -0.777845 -0.128273 176 28 111
0.350711 0.040084 0.241252 172 133 158
0.0392809 -0.979403 -0.269691 133 3 93
-0.00740443 0.449244 0.702181 127 185 217
0.319389 0.199142 0.011342 168 153 129
0.255886 -0.781599 0.350183 160 28 172
-0.562132 0.697236 -0.080097 56 216 117
0.171581 0.271638 0.292512 149 162 165
0.0854951 0.407115 0.390857 138 179 177
0.371438 0.00252432 -0.105241 175 128 114
-0.731247 0.602954 -0.11297 34 204 113
-0.620603 0.303973 -0.149585 48 166 108
-0.441539 -0.435983 0.0784692 71 72 138
0.510022 -0.343955 -0.459152 193 84 69
-0.633575 0.287434 -0.281033 47 164 92
0.671564 -0.348612 -0.178786 213 83 105
-0.279801 -0.164261 -0.000352172 92 107 127
0.575001 -0.339009 -0.636313 201 84 46
0.0113356 0.282071 0.639162 129 163 209
-0.307257 -0.678997 0.044554 88 41 133
0.3111 -0.546285 0.219016 167 58 155
-0.324239 -0.0929073 0.278679 86 116 163
-0.287969 0.296305 0.0119869 91 165 129
-0.159332 -0.208405 -0.219374 107 101 100
-0.126928 0.205578 0.0742332 111 154 137
0.417672 -0.930229 -0.210371 181 9 101
0.588518 0.0296997 0.270685 203 131 162
0.377006 -0.741096 -0.504324 176 33 63
0.207039 0.148818 -0.125382 154 146 112
-0.0871528 -0.563525 0.0108584 116 56 129
-0.348527 0.606578 -0.0265804 83 205 124
0.681407 0.460711 -0.141157 214 186 110
0.445466 -0.603228 -0.0687715 184 51 119
0.109159 -0.965077 -0.507054 141 4 63
0.046274 -0.761182 -0.0379043 133 30 123
-0.109054 0.595268 0.295567 114 203 165
-0.640552 -0.137016 -0.500701 46 110 64
-0.334267 -0.947779 -0.510271 85 7 62
0.349839 -0.512292 -0.569283 172 62 55
-0.291975 -0.727057 -0.443217 90 35 71
-0.844565 0.276101 -0.36602 20 163 81
-0.0885235 -0.668694 -0.0742309 116 42 118
-0.68542 0.170159 -0.277668 40 149 92
0.754537 0.311331 -0.570767 224 167 55
0.335996 -0.646293 -0.578536 170 45 54
-0.0584 0.764651 0.382535 120 225 176
0.112424 0.375596 0.0138121 142 175 129
0.522237 -0.338213 -0.080044 194 84 117
0.428682 -0.422991 -0.362946 182 74 81
0.764165 0.652144 -0.529765 225 211 60
0.250927 0.525455 0.713263 159 194 218
-0.667662 0.442981 -0.234614 42 184 98
0.577336 0.88166 -0.195319 201 240 103
-0.403159 0.278319 -0.140792 76 163 110
-0.603095 0.508528 -0.170653 51 192 106
-0.14853 -0.107775 0.287065 109 114 164
-0.161886 0.161243 0.193716 107 148 152
0.580825 0.0241547 0.144406 202 131 146
-0.238452 -0.888665 -0.626171 97 14 48
-0.384654 0.352323 0.039008 78 172 132
0.095569 -0.993565 -0.327772 140 1 86
0.0104941 -0.530396 0.0916697 129 60 139
-0.0849759 -0.115574 -0.320305 117 113 87
-0.425996 0.25012 -0.0631492 73 159 119
0.676973 0.409894 -0.378688 214 180 79
-0.564481 -0.300471 -0.540364 56 89 59
0.777067 0.514017 -0.389877 227 193 78
0.361126 0.179825 -0.113504 174 150 113
-0.375279 0.632612 0.0742213 80 208 137
-0.129687 -0.0526713 -0.470983 111 121 67
0.539012 0.805054 -0.16084 196 230 107
-0.102671 0.0525442 -0.197696 114 134 102
-0.433438 0.646073 0.0236509 72 210 131
-0.00906364 -0.916171 0.196091 126 11 153
0.25046 -0.972622 -0.35016 159 3 83
-0.257508 -0.467183 -0.00874744 95 68 126
-0.365342 -0.35862 -0.177004 81 82 105
0.0548397 0.599196 0.539232 134 204 196
-0.321237 -0.437967 0.196623 87 72 153
0.371329 -0.664088 0.141205 175 43 146
-0.139171 -0.487812 0.211893 110 65 155
0.661368 0.00830345 -0.534489 212 129 59
0.375543 -0.414796 -0.253926 175 75 95
-0.0501038 0.104882 0.25564 121 141 160
0.375115 -0.108896 0.292835 175 114 165
-0.333907 -0.339986 0.0141091 85 84 129
-0.0995562 -0.647171 0.300122 115 45 166
0.0402402 -0.626323 0.042002 133 48 133
-0.395738 0.595862 0.0607327 77 203 135
0.670193 0.511904 -0.128546 213 193 111
-0.30137 -0.52199 -0.333736 89 61 85
-0.416011 0.167772 -0.183919 74 149 104
-0.0658175 0.471097 0.39349 119 188 178
0.48673 -0.425203 -0.0903737 190 73 116
0.315731 -0.916274 -0.411312 168 11 75
0.335284 -0.768301 0.261306 170 30 161
-0.123078 0.903939 0.125226 112 243 143
0.28733 0.446112 0.612976 164 184 206
-0.302737 -0.477061 -0.441816 89 67 71
0.642893 -0.605014 -0.178399 209 50 105
-0.508069 -0.00420915 -0.312988 63 127 88
0.332917 -0.880734 -0.0116944 170 15 126
0.0107676 0.31136 0.634692 129 167 208
0.405029 -0.435303 0.0476237 179 72 134
-0.663033 -0.146805 -0.592154 43 109 52
-0.0539423 -0.738823 0.237309 121 33 158
0.537767 -0.507266 -0.562794 196 63 56
0.109623 0.68458 0.421753 141 215 181
0.0880498 -0.603127 -0.594871 139 51 52
-0.360089 -0.0990618 -0.286679 82 115 91
0.702427 0.625096 -0.382669 217 207 79
-0.400632 -0.674295 -0.154742 76 42 108
0.561333 -0.0647183 0.0306105 199 119 131
-0.315708 -0.924675 -0.00285693 87 10 127
-0.356836 0.294426 0.0284678 82 165 131
-0.108617 0.573981 0.26465 114 201 161
0.356526 -0.685915 -0.505888 173 40 63
-0.508174 -0.190617 -0.339321 63 103 84
0.461315 -0.444938 -0.637548 186 71 46
-0.333091 -0.00451515 -0.14595 85 127 109
-0.0407604 0.529411 0.658622 122 195 211
0.644997 0.74998 -0.28204 210 223 92
-0.0434527 -0.970553 -0.268958 122 4 93
0.353979 0.81468 0.441599 173 231 184
-0.426967 0.869527 0.027293 73 238 131
0.0905609 0.579742 0.650088 139 201 210
0.805122 0.202279 -0.593879 230 153 52
-0.267234 -0.48675 -0.29496 93 65 90
0.495309 -0.710825 -0.627972 191 37 47
0.361605 -0.220947 -0.129426 174 99 111
-0.178564 -0.909263 -0.387048 105 12 78
-0.773719 0.337758 -0.265515 29 171 94
0.40224 0.0294769 -0.165693 179 131 106
0.381218 0.159081 0.159219 176 148 148
0.492319 -0.62142 -0.574373 190 48 54
-0.0522361 0.442091 0.595712 121 184 203
0.763732 0.692975 -0.492223 225 216 65
0.640338 0.328285 -0.144888 209 169 109
0.172214 0.2725 0.0232241 149 162 130
0.0734732 0.124899 -0.205577 137 143 101
0.288545 0.577604 0.501325 164 201 191
0.600749 -0.311141 -0.0763746 204 88 118
0.238408 -0.882811 0.377577 158 15 176
0.265582 -0.202246 -0.30616 161 102 88
0.28189 -0.376307 0.168435 163 80 149
-0.146426 -0.198907 -0.202379 109 102 102
-0.157845 -0.563759 0.326801 107 56 169
-0.230138 -0.978074 0.0695048 98 3 136
-0.482193 -0.0880176 -0.257331 66 116 95
-0.284897 -0.217123 -0.247128 91 100 96
0.740989 0.403063 -0.480174 222 179 66
-0.337689 -0.0324071 0.0487658 84 123 134
-0.114492 -0.552225 -0.505322 113 57 63
0.297095 -0.603238 0.141786 165 51 146
0.216305 -0.840109 0.238242 155 20 158
0.649678 0.270612 -0.368525 210 162 81
0.348393 0.175634 0.0105867 172 150 129
-0.202727 -0.454821 -0.481534 102 70 66
-0.284035 -0.420191 -0.443309 91 74 71
-0.075313 -0.769116 -0.148353 118 29 109
-0.106288 -0.103136 -0.358008 114 114 82
-0.361676 0.0451968 -0.115897 81 133 113
-0.202847 -0.515456 -0.557247 102 62 56
-0.254303 -0.430144 -0.192502 95 73 103
-0.667525 0.683366 -0.0205351 42 215 125
0.325635 -0.95084 -0.459282 169 6 69
0.16249 -0.57647 0.0648178 148 54 136
0.657446 0.513853 -0.34428 211 193 84
-0.100052 -0.871433 -0.187967 115 16 104
0.733454 0.845392 -0.258419 221 235 95
0.157638 -0.911909 -0.215854 148 11 100
0.519818 0.0266573 -0.000195 194 131 127
-0.702239 0.523353 -0.205204 38 194 101
0.597505 -0.126387 0.192212 204 111 152
-0.774844 0.304312 -0.291721 29 166 90
-0.354049 0.436425 -0.0163837 82 183 125
0.755475 0.048294 -0.531369 224 134 60
0.503347 -0.715616 -0.237774 192 36 97
0.552527 -0.494929 -0.584625 198 64 53
0.637094 0.343175 -0.320352 209 171 87
0.503559 0.199404 -0.263612 192 153 94
0.645905 0.630671 -0.281118 210 208 92
-0.0878783 -0.0762553 -0.350078 116 118 83
0.104343 -0.0515474 -0.340849 141 121 84
-0.29864 0.0900059 0.32533 89 139 169
-0.323766 -0.675086 -0.471437 86 41 67
0.315014 -0.768872 -0.187749 168 29 104
-0.483526 -0.465694 -0.161484 66 68 107
0.118567 -0.941666 -0.221888 143 7 99
-0.0540792 0.510145 0.608164 121 193 205
-0.276553 -0.772882 -0.636149 92 29 46
0.212206 -0.404868 0.178976 155 76 150
0.459001 -0.637036 -0.563084 186 46 56
0.510567 -0.288841 -0.423309 193 91 74
0.190082 -0.841586 0.395473 152 20 178
0.458075 -0.0610805 0.297943 186 120 165
0.486447 -0.975407 -0.120228 190 3 112
0.648667 -0.280512 -0.150714 210 92 108
-0.227502 -0.976938 0.0946225 98 3 140
-0.324112 -0.557662 -0.344595 86 56 84
0.617674 0.455843 -0.248535 206 186 96
0.751259 0.428081 -0.317981 223 182 87
-0.367768 -0.519042 0.0881585 81 61 139
0.509549 -0.38528 0.0448566 192 78 133
0.318509 0.68647 0.447203 168 215 185
0.155571 -0.952157 0.220815 147 6 156
0.27198 0.257794 0.119894 162 160 143
-0.598611 0.033927 -0.292227 51 132 90
-0.417858 0.149687 -0.101409 74 147 115
0.337797 0.760941 0.48209 171 225 189
-0.52988 0.748928 -0.0497207 60 223 121
-0.248769 0.22079 0.140805 96 156 145
0.035662 -0.0542033 -0.329632 132 121 85
0.553286 0.975408 -0.0632978 198 252 119
0.342215 0.195913 0.12714 171 152 144
0.602866 0.571406 -0.168192 204 200 106
0.288828 -0.495133 -0.334336 164 64 85
0.521017 -0.19321 -0.00995434 194 103 126
-0.35345 0.485502 0.0138493 82 189 129
-0.172231 -0.309485 0.28995 106 88 164
0.109943 0.466459 0.0714897 142 187 137
0.483507 0.136406 0.0721242 189 145 137
0.316632 -0.22751 -0.196315 168 98 102
-0.191539 0.0614898 -0.192994 103 135 103
-0.366376 -0.667646 -0.330362 81 42 85
0.317251 -0.783182 0.285556 168 28 164
0.607416 0.0493072 0.231082 205 134 157
0.569498 -0.512716 -0.704325 200 62 38
-0.317033 0.760307 -0.0233183 87 224 125
0.274155 -0.875596 -0.206113 162 16 101
-0.327888 -0.0175543 0.265374 86 125 161
0.0771106 -0.34617 -0.456816 137 83 69
-0.111313 -0.913812 -0.188542 113 11 103
-0.138186 -0.947036 -0.487487 110 7 65
-0.315584 -0.447196 0.0385966 87 70 132
-0.33632 -0.956253 0.0594653 85 6 135
0.488347 -0.109498 -0.0394614 190 114 122
0.0924973 -0.911702 -0.166037 139 11 106
0.343047 0.73439 0.338273 171 221 171
-0.455319 -0.550958 -0.257248 69 57 95
0.256992 -0.117898 -0.252876 160 112 95
0.389174 0.0565992 -0.135058 177 135 110
0.286089 0.418345 0.42259 164 181 181
0.0980209 -0.187379 -0.378022 140 104 79
-0.0782099 -0.0584755 -0.3693 118 120 80
-0.346944 -0.938908 0.119869 83 8 143
-0.238122 -0.868761 -0.253759 97 17 95
-0.400325 0.812124 -0.0201639 76 231 125
0.0326046 0.574927 0.276186 132 201 163
0.0263786 -0.875771 0.248308 131 16 159
-0.214778 -0.84041 0.0240938 100 20 131
-0.373443 0.88392 0.110915 80 240 142
0.812167 0.312342 -0.469681 231 167 68
0.732636 -0.038012 -0.539541 221 123 59
-0.23414 -0.443676 0.111476 98 71 142
-0.101289 0.207083 0.0385189 115 154 132
0.135651 0.234312 -0.0333463 145 157 123
-0.24588 0.881116 0.00491471 96 240 128
-0.055578 0.94335 0.0972913 120 248 140
0.225563 0.607118 0.463839 156 205 187
0.274269 -0.360725 0.19163 162 82 152
0.472202 -0.955586 -0.168754 188 6 106
-0.394336 -0.487642 -0.275755 77 65 92
0.104676 0.286991 -0.0506539 141 164 121
0.0103891 0.602095 0.383386 129 204 176
0.310235 0.727647 0.339373 167 220 171
-0.24956 -0.702921 -0.00429516 96 38 127
-0.335262 -0.242834 0.241127 85 97 158
-0.279169 -0.865816 -0.0166993 92 17 125
-0.0329847 0.693374 0.381629 123 216 176
0.419186 -0.658729 0.281297 181 44 163
0.437127 -0.175269 -0.302983 183 105 89
0.0624739 0.00937306 -0.240806 135 129 97
-0.31969 -0.348925 -0.0883693 87 83 116
0.432637 0.210217 -0.190427 183 154 103
-0.500073 -0.0644791 -0.263507 64 119 94
-0.217889 -0.138133 0.30352 100 110 166
0.437861 -0.0102596 -0.0574429 183 126 120
-0.581743 0.71071 0.00302161 53 218 128
0.364151 -0.828813 -0.160516 174 22 107
0.661388 -0.549766 -0.185524 212 57 104
0.355967 -0.988674 -0.129767 173 1 111
0.202635 -0.744044 -0.553227 153 33 57
0.0947574 0.516032 0.143818 140 193 146
0.326417 -0.94601 -0.0464148 169 7 122
0.354321 -0.479063 0.196795 173 66 153
0.378252 0.190755 0.0563069 176 152 135
-0.265204 -0.0439254 0.304168 94 122 166
0.754158 0.775967 -0.410967 224 226 75
-0.08803 -0.956096 -0.272462 116 6 93
-0.0100394 -0.766659 -0.632028 126 30 47
0.108286 0.651851 0.504364 141 211 192
-0.0341225 0.256766 0.0416897 123 160 133
0.259718 -0.857695 0.353821 161 18 173
0.355686 -0.325754 -0.166981 173 86 106
0.374782 -0.526997 0.295658 175 60 165
0.394386 0.187773 -0.182953 178 151 104
0.0813496 0.171411 -0.0897571 138 149 116
0.647317 0.29197 -0.355685 210 165 82
-0.0634007 0.807634 0.443262 119 230 184
-0.318023 0.888356 0.0126455 87 241 129
-0.275061 -0.542858 0.164028 92 58 148
-0.03607 -0.980927 0.259212 123 2 161
-0.190386 -0.889997 0.0803825 103 14 138
0.23499 0.227175 0.246042 157 156 159
0.198748 -0.104326 -0.262464 153 114 94
0.483231 -0.550668 -0.0486748 189 57 121
0.750009 0.539052 -0.507832 223 196 63
0.523008 -0.940919 0.0840805 194 8 138
0.626615 0.317113 -0.318981 207 168 87
-0.240627 -0.424518 0.285083 97 73 164
0.459717 -0.925013 0.159014 186 10 148
0.480119 -0.316755 -0.41941 189 87 74
0.529538 -0.195152 -0.381637 195 103 79
0.00571504 0.528518 0.732583 128 195 221
0.310094 -0.316433 -0.307497 167 87 88
0.420085 -0.0878073 -0.245935 181 116 96
0.380449 -0.276885 -0.129607 176 92 111
0.813668 0.729069 -0.420276 231 220 74
-0.71528 0.481881 -0.237748 36 189 97
0.598879 -0.438176 -0.32879 204 72 86
0.0899341 0.467905 0.115798 139 187 142
0.646971 -0.0279919 -0.401373 210 124 76
0.119552 0.436438 0.730595 143 183 221
0.30698 -0.941797 -0.423127 167 7 74
0.0483502 -0.279284 -0.451875 134 92 70
-0.171189 -0.778033 -0.602055 106 28 51
-0.287012 -0.857082 -0.573949 91 18 54
0.289279 0.668288 0.525751 164 213 195
0.322321 0.15874 -0.0748956 169 148 118
0.129675 0.499307 0.0764608 144 191 137
0.703645 0.760885 -0.240557 217 225 97
0.368978 0.597636 0.429346 175 204 182
-0.611513 0.600889 -0.0565238 50 204 120
0.374841 -0.997844 -0.0220559 175 0 125
-0.506733 -0.37939 -0.00833574 63 79 126
0.131226 -0.144572 -0.291888 144 109 90
0.359937 -0.317368 0.211872 173 87 155
-0.0256049 -0.882199 -0.188685 124 15 103
0.233752 0.600026 0.405911 157 204 179
-0.542039 -0.417171 -0.600174 58 74 51
0.58695 0.413279 -0.198129 202 180 102
0.0141863 -0.910087 0.214785 129 11 155
-0.8493 0.347442 -0.31486 19 172 87
-0.37929 -0.17074 -0.337737 79 106 84
-0.0206936 0.67719 0.449219 125 214 185
-0.322724 0.217886 -0.137116 86 155 110
-0.319362 0.912338 0.122864 87 244 143
-0.304656 0.108517 -0.0749815 89 141 118
0.753719 0.742309 -0.32485 224 222 86
-0.348437 0.522678 0.0222108 83 194 130
0.541573 -0.253252 0.0061888 197 95 128
-0.705253 0.599101 -0.0654396 38 204 119
-0.282268 -0.0348574 -0.154518 92 123 108
0.438485 -0.848994 -0.0375759 183 19 123
-0.626445 0.590844 -0.0646115 48 203 119
0.31051 0.74989 0.395915 167 223 178
0.314874 -0.386883 -0.252624 168 78 95
0.679722 0.166592 -0.470812 214 149 67
-0.0794277 0.125705 -0.144854 117 144 109
0.342163 -0.386107 -0.484511 171 78 66
0.611701 -0.556595 -0.272461 205 57 93
-0.215196 -0.481891 -0.572472 100 66 55
0.367819 -0.393483 -0.40665 174 77 76
-0.130118 0.0203029 -0.215561 111 130 100
0.0920373 0.25828 -0.0607129 139 160 120
-0.330604 -0.987472 -0.413905 85 2 75
-0.639567 0.21155 -0.31892 46 154 87
0.722219 0.706335 -0.410965 220 218 75
0.487579 -0.159202 -0.328419 190 107 86
-0.68362 0.472151 -0.133336 40 188 110
-0.114989 -0.884865 -0.0933627 113 15 116
-0.568485 -0.232226 -0.428129 55 98 73
-0.277989 0.943307 0.126556 92 248 144
0.58074 -0.37632 -0.0704078 202 80 119
-0.55172 -0.460482 -0.569793 57 69 55
-0.113537 -0.295453 -0.272775 113 90 93
0.15282 -0.596307 0.0415752 147 51 133
0.291312 -0.782907 -0.54157 165 28 58
0.378639 -0.547693 0.304336 176 58 166
-0.266946 0.188348 -0.122966 93 152 112
0.516592 -0.7007 -0.244698 193 38 96
-0.732331 0.606555 -0.0730515 34 205 118
0.670402 0.259193 -0.26607 213 161 94
0.454752 -0.931825 -0.186704 185 9 104
0.74317 0.759375 -0.30416 222 224 89
-0.154275 -0.642352 -0.513313 108 46 62
-0.236841 -0.854405 -0.646604 97 19 45
0.37009 -0.983428 0.0224089 175 2 130
-0.170442 0.163777 -0.11168 106 148 113
0.0820472 0.1505 -0.138089 138 147 110
-0.311227 -0.391682 -0.436452 88 78 72
0.750035 0.214988 -0.41129 223 155 75
0.299654 0.445851 0.313901 166 184 168
0.239195 -0.432561 -0.384653 158 72 78
0.283544 -0.816503 0.251869 164 23 160
-0.0457822 -0.971822 -0.590477 122 4 52
-0.32688 -0.48511 0.264577 86 66 161
0.664439 0.758526 -0.307233 212 224 88
0.598504 0.00312432 0.128879 204 128 144
-0.312521 -0.605751 -0.484633 88 50 66
0.457218 -0.847235 0.0429574 186 19 133
0.34468 -0.328402 0.184566 171 86 151
-0.185466 -0.320637 -0.17273 104 87 105
-0.380472 -0.0330362 0.237394 79 123 158
0.105482 -0.559664 -0.585648 141 56 53
0.808775 0.502402 -0.703629 231 192 38
-0.339196 -0.161464 0.0814073 84 107 138
0.610437 -0.0947073 0.277921 205 115 163
0.590164 -0.317488 -0.640034 203 87 46
0.185072 -0.982713 -0.40448 151 2 76
0.3306 -0.782006 -0.557433 170 28 56
-0.234553 -0.000212367 0.315668 98 127 168
0.321626 -0.465973 -0.463472 169 68 68
-0.364686 -0.337274 -0.1045 81 84 114
-0.360132 -0.0186089 -0.160363 82 125 107
-0.219466 -0.799074 -0.0329397 100 26 123
-0.111659 0.187286 0.168559 113 151 149
0.122216 0.208484 -0.0969554 143 154 115
-0.0156151 -0.465268 0.126905 126 68 144
0.506732 -0.567364 -0.695882 192 55 39
-0.319621 -0.793213 -0.114638 87 26 113
0.132368 0.288425 0.0192547 144 164 130
0.577816 0.347239 -0.246499 201 172 96
0.372783 -0.0718866 -0.135034 175 118 110
0.446325 -0.784176 -0.235991 184 28 97
-0.581105 0.248413 -0.136979 53 159 110
0.33666 0.0656359 0.247707 170 136 159
-0.0944626 0.51677 0.393598 115 193 178
0.359814 0.0747182 0.25292 173 137 160
-0.180143 -0.370905 0.053117 105 80 134
0.110427 -0.140641 -0.373434 142 110 80
-0.487522 -0.0570221 -0.331739 65 120 85
0.0832917 0.351983 0.0626486 138 172 135
0.0807696 -0.315156 -0.517805 138 87 61
0.124169 -0.759019 -0.0336936 143 31 123
-0.350866 -0.127572 -0.296526 83 111 90
-0.178247 -0.512423 0.321648 105 62 169
-0.219779 -0.485856 0.318961 99 66 168
-0.0980859 0.752669 0.461902 115 223 186
0.14335 0.526672 0.0907532 146 195 139
0.478455 -0.170287 -0.420001 189 106 74
-0.160263 -0.814858 -0.0602729 107 24 120
0.0803669 -0.915926 0.407176 138 11 179
-0.282225 0.0637974 -0.0944363 92 136 115
0.48835 -0.692226 -0.659937 190 39 43
0.338962 0.544916 0.41049 171 197 180
-0.279811 -0.0159433 -0.143434 92 125 109
-0.685608 0.0276295 -0.449838 40 131 70
0.346672 -0.694301 -0.592651 172 39 52
0.418499 -0.656143 -0.547117 181 44 58
-0.388946 0.723189 -0.0422144 78 220 122
0.297346 0.106483 -0.191605 165 141 103
0.39491 0.163827 -0.10146 178 148 115
0.54118 -0.943291 -0.0652584 197 7 119
0.102839 -0.861967 -0.104011 141 18 114
0.247808 -0.765344 0.203528 159 30 153
-0.477163 -0.485446 -0.0532807 67 66 121
0.589919 0.0775325 -0.393948 203 137 77
-0.10929 -0.18249 -0.235204 114 104 98
-0.243341 -0.852941 -0.0214797 96 19 125
0.0558478 0.472335 0.762073 135 188 225
-0.503238 -0.512329 -0.559595 63 62 56
0.334954 -0.714212 -0.550831 170 36 57
-0.201306 -0.302868 0.0359428 102 89 132
-0.432489 -0.625795 -0.259116 72 48 94
0.606829 0.527872 -0.202725 205 195 102
-0.419347 -0.663436 -0.171296 74 43 106
-0.179654 -0.651645 0.154312 105 44 147
0.0635569 0.580059 0.614407 136 201 206
-0.142138 -0.620079 -0.510555 109 48 62
-0.045024 0.384001 0.515776 122 176 193
-0.290435 -0.978974 0.0148624 90 3 129
0.156261 -0.00693742 0.31249 147 127 167
-0.300286 -0.237905 0.0456343 89 97 133
-0.546419 0.569329 -0.12642 58 200 111
0.541565 -0.126721 -0.0111924 197 111 126
-0.00326138 0.354492 0.150544 127 173 147
-0.140575 -0.460233 0.213845 110 69 155
-0.197027 -0.519823 -0.392497 102 61 77
-0.00264002 0.138721 -0.0979178 127 145 115
-0.836519 0.314768 -0.388471 21 168 78
0.107852 0.325807 0.770495 141 169 226
-0.0473117 0.386674 0.465231 121 177 187
0.567121 0.0288462 0.0715368 200 131 137
0.0610251 -0.892052 0.370554 135 14 175
0.24159 0.596417 0.586747 158 204 202
0.692497 0.385006 -0.203176 216 177 102
0.579977 -0.34697 -0.301591 201 83 89
-0.567386 0.0252451 -0.360319 55 131 82
0.651672 0.441194 -0.30112 211 184 89
0.402342 -0.843735 -0.0578475 179 20 120
-0.113803 0.656478 0.344666 113 211 171
0.344193 -0.228453 -0.381725 171 98 79
-0.367362 -0.355219 -0.442422 81 82 71
0.321588 0.478364 0.354763 169 188 173
0.219287 -0.881832 -0.20694 155 15 101
-0.318698 0.0938202 -0.18679 87 139 104
-0.60878 0.023789 -0.307687 50 131 88
-0.106812 0.694121 0.350305 114 216 172
0.721211 0.635171 -0.416442 219 208 74
-0.127197 -0.687606 0.326177 111 40 169
0.370962 0.0512242 -0.0831843 175 134 117
-0.267152 -0.826389 -0.147803 93 22 109
0.467621 -0.834346 0.017094 187 21 130
-0.136079 -0.529797 0.293102 110 60 165
-0.171088 -0.877082 0.0613486 106 16 135
0.531047 -0.301042 -0.27828 195 89 92
-0.430801 -0.450662 -0.233114 73 70 98
0.256298 -0.478918 -0.408645 160 66 75
0.276338 0.640898 0.540588 163 209 196
0.491343 0.249929 -0.137841 190 159 110
0.479553 -0.715312 -0.6034 189 36 51
-0.302661 -0.977608 0.0653478 89 3 136
-0.614564 0.108421 -0.391712 49 141 78
0.493835 -0.0574122 0.285254 190 120 164
-0.394506 -0.705751 -0.0480169 77 38 121
-0.133705 -0.451907 0.0646741 110 70 136
0.590915 -0.940296 0.116611 203 8 142
0.350604 -0.676673 -0.544026 172 41 58
-0.338923 0.632818 -0.0214902 84 208 125
0.804701 0.756516 -0.405734 230 224 76
-0.0740064 0.171585 -2.05047e-05 118 149 127
-0.521244 -0.0908708 -0.38645 61 116 78
0.386127 -0.406603 -0.236892 177 76 97
0.297807 0.44528 0.36808 165 184 174
-0.146022 -0.560884 0.128534 109 56 144
0.639509 0.82599 -0.263742 209 233 94
0.23388 -0.620758 -0.522693 157 48 61
0.239599 0.323114 0.186718 158 169 151
-0.299103 -0.576087 0.0456995 89 54 133
0.777968 0.538863 -0.39285 227 196 77
0.0230913 0.266442 0.642089 130 161 209
0.629286 -0.305305 -0.0801044 208 89 117
-0.460983 -0.0890012 -0.33259 69 116 85
0.510865 0.101879 0.106246 193 140 141
0.0131777 -0.960197 -0.232781 129 5 98
0.305836 -0.678656 0.151492 166 41 147
-0.00265141 0.490595 0.743203 127 190 222
0.365545 -0.444686 -0.0641618 174 71 119
0.0510797 -0.955618 0.400707 134 6 179
-0.189553 -0.740959 -0.0643767 103 33 119
0.211521 -0.151206 -0.266015 154 108 94
-0.125172 -0.154347 -0.243044 112 108 97
-0.235009 -0.585303 -0.00710071 98 53 127
0.544609 -0.518005 -0.391535 197 61 78
0.285455 -0.816952 -0.194392 164 23 103
-0.0955397 -0.319179 -0.504706 115 87 63
0.0748866 -0.754845 -0.61599 137 31 49
0.434885 -0.987025 -0.137468 183 2 110
-0.152899 -0.184779 -0.430029 108 104 73
0.244965 -0.0352516 0.30906 159 123 167
0.507795 -0.369952 -0.47536 192 80 67
-0.356397 -0.318811 -0.411893 82 87 75
-0.188412 -0.439893 -0.470017 103 71 68
-0.358783 -0.28345 0.210612 82 91 154
0.0365132 -0.498779 -0.489224 132 64 65
0.693323 -0.104143 -0.51984 216 114 61
-0.249817 -0.739806 -0.00569258 96 33 127
-0.149844 0.170799 -0.00878576 108 149 126
0.0332051 0.315835 0.0799438 132 168 138
0.227513 -0.897205 0.225977 157 13 156
-0.0683694 -0.817495 0.3682 119 23 174
-0.411113 -0.653335 -0.144653 75 44 109
0.0515296 -0.430257 0.174017 134 73 150
0.581386 0.874939 -0.0688424 202 239 119
0.590977 0.0130897 0.116437 203 129 142
-0.261519 -0.243362 0.294549 94 96 165
-0.627615 0.319933 -0.263403 47 168 94
0.125155 0.645657 0.631878 143 210 208
-0.000250447 0.0326288 0.29289 127 132 165
0.503207 -0.733881 -0.316648 192 34 87
0.359949 -0.82758 -0.586776 173 22 53
-0.296346 -0.954249 -0.442393 90 6 71
0.118845 -0.887147 0.238729 143 14 158
0.167229 0.442254 0.751003 149 184 223
