ply
format ascii 1.0
comment Created by Open3D
element vertex 1203
property double x
property double y
property double z
property uchar red
property uchar green
property uchar blue
end_header
0.0529072 -0.654971 -0.624024 134 44 48
0.24822 0.444912 0.435368 159 184 183
0.467946 -0.850284 -0.0609259 187 19 120
0.598154 -0.384536 0.126123 204 78 144
-0.257771 0.0611742 0.288884 95 135 164
0.353173 0.101864 -0.061051 173 140 120
0.598154 -0.385176 0.158675 204 78 148
-0.256337 0.0602909 0.288884 95 135 164
0.598154 -0.378279 0.163356 204 79 148
-0.256337 0.0611742 0.287638 95 135 164
-0.28889 -0.637735 -0.573746 91 46 54
-0.211609 -0.915388 -0.63885 101 11 46
0.0529072 -0.646833 -0.629564 134 45 47
0.142425 -0.784457 -0.061051 146 27 120
-0.293877 -0.630557 -0.565608 90 47 55
0.642726 -0.435245 -0.077327 209 72 118
-0.207509 -0.915388 -0.643156 101 11 45
0.247075 0.459937 0.663233 159 186 212
-0.28889 -0.630557 -0.567823 91 47 55
0.646983 -0.435245 -0.0851311 210 72 117
0.0529072 -0.645377 -0.630712 134 45 47
0.241219 0.459937 0.671371 158 186 213
0.0529072 -0.638695 -0.636718 134 46 46
-0.256337 0.0658819 0.280746 95 136 163
-0.256337 0.0693123 0.274775 95 136 163
0.0529072 -0.636613 -0.63885 134 46 46
0.349391 0.110002 -0.061051 172 142 120
0.0529072 -0.630557 -0.644436 134 47 45
0.640301 -0.427107 -0.077327 209 73 118
0.0529072 -0.622419 -0.645845 134 48 45
0.24822 0.462919 0.663233 159 187 212
0.142425 -0.751387 -0.0366369 146 32 123
0.24822 0.464723 0.671371 159 187 213
0.417886 -0.687523 0.215642 181 40 155
0.137185 -0.744489 -0.0284989 145 33 124
-0.125382 -0.858422 0.231918 112 18 157
-0.256337 0.0704369 0.272608 95 136 162
0.297048 0.623426 0.476058 165 207 188
-0.158681 -0.0120678 0.306043 107 126 167
0.142425 -0.740245 -0.0284989 146 33 124
0.541188 -0.32048 0.231918 197 87 157
0.541188 -0.313175 0.237254 197 88 158
0.297048 0.638974 0.539306 165 209 196
0.297048 0.647112 0.536121 165 210 196
0.419118 -0.685926 0.207504 181 40 154
0.247284 0.484351 0.34585 159 189 172
-0.202765 -0.182966 -0.101741 102 104 115
0.191253 0.402971 0.685073 152 179 215
-0.201433 -0.182966 -0.093603 102 104 116
0.419118 -0.686955 0.215642 181 40 155
-0.2028 -0.182966 -0.085465 102 104 117
0.644692 -0.402693 -0.085465 210 76 117
0.541188 -0.305037 0.00149702 197 89 128
0.646983 -0.402693 -0.0907867 210 76 116
0.640377 -0.402693 -0.077327 209 76 118
0.539154 -0.305037 0.240056 196 89 158
-0.256514 0.0937263 0.240056 95 139 158
0.541188 -0.305037 0.238903 197 89 158
-0.256337 0.0937263 0.240164 95 139 158
-0.117991 -0.850284 0.225719 112 19 156
0.134971 -0.695661 0.00405318 145 39 128
-0.207509 -0.899456 0.174951 101 13 150
0.24822 0.500627 0.342947 159 191 171
-0.207509 -0.899112 0.174173 101 13 150
-0.202295 -0.174828 -0.085465 102 105 117
0.140166 -0.687523 0.00405318 145 40 128
0.643769 -0.386417 -0.671402 210 78 42
0.24822 0.508765 0.345616 159 192 172
0.536355 -0.296899 -0.00408487 196 90 127
-0.203203 -0.174828 -0.077327 102 105 118
-0.256337 0.101864 0.0520588 95 140 134
0.541188 -0.296899 -0.0014744 197 90 127
0.142425 -0.687523 0.00087491 146 40 128
-0.158681 0.00420815 0.326787 107 128 169
0.191253 0.417132 0.443506 152 181 184
0.24822 0.510358 0.34585 159 193 172
0.191253 0.419247 0.440422 152 181 184
0.24822 0.516903 0.346819 159 193 172
0.142425 -0.68443 0.00405318 146 40 128
0.59147 -0.353865 0.191228 203 82 152
0.598154 -0.353865 0.183184 204 82 151
-0.261671 0.110002 0.0691573 94 142 136
0.240114 0.525041 0.34585 158 194 172
0.646048 -0.378279 -0.671402 210 79 42
0.24822 0.525041 0.347448 159 194 172
-0.256337 0.110002 0.0629936 95 142 136
0.414994 -0.671247 0.26447 180 42 161
-0.122251 -0.834008 0.34585 112 21 172
0.416356 -0.671247 0.272608 181 42 162
-0.117991 -0.834008 0.35008 112 21 172
0.416814 -0.671247 0.280746 181 42 163
-0.28889 -0.603305 0.26447 91 51 161
0.241633 0.525041 0.728337 158 194 220
0.0497122 -0.598005 -0.55747 134 51 56
0.24822 0.533179 0.348246 159 195 172
0.245814 0.533179 0.712061 159 195 218
-0.119034 -0.82587 0.353988 112 22 173
0.241947 0.533179 0.720199 158 195 219
-0.158681 0.0123461 0.326215 107 129 169
-0.117991 -0.82587 0.354992 112 22 173
0.314501 0.402971 0.394678 168 179 178
0.241747 0.533179 0.728337 158 195 220
0.317366 0.411109 0.38654 168 180 177
0.24822 0.541317 0.347146 159 197 172
0.320804 0.411109 0.394678 168 180 178
0.0529072 -0.594389 -0.55747 134 52 56
0.646983 -0.375677 -0.671402 210 80 42
0.191253 0.427385 0.692529 152 182 216
0.0529072 -0.589867 -0.551232 134 52 57
0.321462 0.411109 0.398263 168 180 178
0.0896865 0.297177 0.0366052 139 165 132
0.0529072 -0.583902 -0.549332 134 53 57
0.0935973 0.297177 0.0334781 139 165 132
0.0529072 -0.581729 -0.548788 134 53 58
0.593535 -0.345727 0.191228 203 83 152
0.0529072 -0.581729 0.051994 134 53 134
0.598154 -0.345727 0.183099 204 83 151
0.419118 -0.666752 0.280746 181 42 163
0.0529072 -0.577746 -0.549332 134 54 57
0.465065 -0.777042 -0.606298 187 28 50
0.416303 -0.663109 0.288884 181 43 164
0.419118 -0.663109 0.283727 181 43 164
0.0475466 -0.573591 -0.541194 134 54 58
0.0452604 -0.573591 0.0528813 133 54 134
0.191253 0.429821 0.695785 152 182 216
0.184622 0.435523 0.703923 151 183 217
0.0529072 -0.580302 0.0528813 134 54 134
0.0475301 -0.573591 0.0610192 134 54 135
0.191253 0.435523 0.701806 152 183 217
0.0529072 -0.578244 0.0610192 134 54 135
0.142425 -0.614281 -0.529299 146 49 60
0.0529072 -0.581249 0.0772954 134 53 137
0.320735 0.427385 0.443506 168 182 184
0.141597 -0.606143 -0.524918 146 50 61
0.321462 0.427385 0.442535 168 182 184
0.142425 -0.607138 -0.524918 146 50 61
-0.199371 -0.134138 0.29445 102 110 165
0.142425 -0.606143 -0.524323 146 50 61
0.191253 0.437291 0.703923 152 183 217
0.418484 -0.654971 0.280746 181 44 163
0.142425 -0.601396 -0.524918 146 51 61
0.419118 -0.654971 0.276949 181 44 163
0.142425 -0.598005 -0.525509 146 51 60
0.413406 -0.654971 0.288884 180 44 164
0.320298 0.435523 0.451644 168 183 185
-0.117991 -0.808164 -0.655126 112 24 44
-0.292341 -0.581729 -0.541194 90 53 58
-0.199371 -0.12907 0.297022 102 111 165
-0.117991 -0.807265 -0.646988 112 25 45
0.316317 0.435523 0.459782 168 183 186
0.136743 -0.589867 -0.524918 145 52 61
0.142425 -0.589867 -0.531271 146 52 60
0.142425 -0.591254 0.0447432 146 52 133
0.597163 -0.337589 0.126123 204 84 144
0.141882 -0.589867 0.0528813 146 52 134
0.321462 0.439672 0.297022 168 184 165
0.598154 -0.34014 0.126123 204 84 144
-0.125863 -0.801456 0.329574 111 25 170
-0.118581 -0.801456 0.337712 112 25 171
0.142425 -0.595513 0.0691573 146 52 136
-0.500478 -0.456375 0.0203292 64 69 130
-0.117991 -0.801456 0.338208 112 25 171
0.318248 0.443661 0.410954 168 184 180
0.467946 -0.772664 -0.606298 187 29 50
-0.256337 0.139188 0.199366 95 145 153
0.320399 0.443661 0.419092 168 184 181
0.319656 0.443661 0.42723 168 184 182
0.142425 -0.589447 0.0528813 146 52 134
-0.290442 -0.581729 0.272608 90 53 162
-0.117991 -0.793318 0.343314 112 26 171
-0.28889 -0.581729 0.274559 91 53 163
0.184552 0.476213 0.769027 151 188 226
-0.117991 -0.78518 0.215749 112 27 155
-0.5925 -0.362003 -0.549332 52 81 57
0.191253 0.476213 0.766167 152 188 225
-0.263987 0.150692 0.117985 94 147 143
-0.117991 -0.78518 0.343217 112 27 171
-0.262868 0.150692 0.126123 94 147 144
0.321462 0.451799 0.28328 168 185 164
-0.260196 0.150692 0.134261 94 147 145
-0.28889 -0.575659 -0.541194 91 54 58
-0.257911 0.150692 0.142399 95 147 146
0.0529072 -0.524763 -0.511602 134 61 62
-0.593409 -0.353865 -0.549332 52 82 57
0.450903 -0.809594 -0.581884 185 24 53
0.0505187 -0.516625 -0.508642 134 62 63
0.0529072 -0.516625 -0.510923 134 62 62
-0.256337 0.145644 0.174951 95 146 150
-0.117991 -0.777042 0.209803 112 28 154
0.048221 -0.508487 -0.508642 134 63 63
-0.593628 -0.345727 -0.549332 52 83 57
-0.594189 -0.345727 -0.541194 52 83 58
0.594235 -0.329451 0.126123 203 85 144
0.317704 0.451799 0.410954 168 185 180
0.191253 0.500627 0.755688 152 191 224
0.321462 0.446254 0.419092 168 184 181
0.597873 -0.329451 0.134261 204 85 145
0.318485 0.451799 0.435368 168 185 183
0.0464988 -0.500349 -0.500504 133 64 64
0.317475 0.451799 0.443506 168 185 184
0.595162 -0.329451 0.150537 203 85 147
-0.596002 -0.337589 -0.541194 52 84 58
0.316671 0.451799 0.451644 168 185 185
-0.293287 -0.573591 0.26447 90 54 161
0.321462 0.459937 0.282914 168 186 164
-0.256337 0.154946 0.142399 95 147 146
0.0517779 -0.492211 -0.500504 134 65 64
0.0529072 -0.49547 -0.492366 134 64 65
-0.256337 0.150916 0.150537 95 147 147
-0.59619 -0.329451 -0.541194 51 85 58
0.320168 0.459937 0.362126 168 186 174
-0.596931 -0.329451 -0.533056 51 85 60
0.321462 0.459937 0.358322 168 186 173
0.0529072 -0.492204 -0.51678 134 65 62
-0.209369 -0.858422 -0.443538 101 18 71
0.0529072 -0.489223 -0.508642 134 65 63
0.349322 0.468075 0.410954 172 187 180
-0.207509 -0.860126 -0.443538 101 18 71
0.352974 0.468075 0.419092 173 187 181
-0.597869 -0.321313 -0.533056 51 87 60
0.351969 0.468075 0.42723 172 187 182
0.348925 0.468075 0.435368 172 187 183
0.346678 0.476213 0.402816 172 188 179
-0.0121969 -0.435245 -0.436286 126 72 72
0.0529072 -0.475935 -0.480782 134 67 66
0.351631 0.476213 0.410954 172 188 180
0.314882 0.459937 0.459782 168 186 186
0.354014 0.471842 0.419092 173 188 181
0.0522473 -0.475935 0.109847 134 67 142
0.500498 -0.979449 0.0772954 191 3 137
0.418687 -0.614281 0.30516 181 49 166
0.0529072 -0.475935 0.110306 134 67 142
0.354014 0.476213 0.416634 173 188 181
-0.0189789 -0.427107 -0.443538 125 73 71
0.500498 -0.978752 0.0854333 191 3 138
0.0529072 -0.467797 -0.476903 134 68 67
0.461655 -0.752627 -0.215673 186 32 100
-0.0153892 -0.427107 -0.4354 126 73 72
0.419118 -0.614281 0.304979 181 49 166
0.350866 0.476213 0.435368 172 188 183
-0.0121969 -0.433356 -0.4354 126 72 72
0.354014 0.476213 0.427587 173 188 182
0.0529072 -0.471214 0.109847 134 67 142
0.460728 -0.752627 -0.207535 186 32 101
-0.0121969 -0.427107 -0.432784 126 73 72
0.314207 0.468075 0.38654 168 187 177
0.0510261 -0.467797 0.109847 134 68 142
0.0529072 -0.467797 0.109504 134 68 141
0.0529072 -0.464962 -0.47609 134 68 67
-0.122923 -0.744489 0.199366 112 33 153
0.0529072 -0.459659 -0.474031 134 69 67
0.350743 0.484351 0.42723 172 189 182
0.0529072 -0.467478 0.109847 134 68 142
0.500043 -0.972354 0.150537 191 4 147
-0.117991 -0.744489 0.198685 112 33 153
-0.0137728 -0.418969 -0.4354 126 74 72
0.348222 0.484351 0.435368 172 189 183
0.498459 -0.972354 0.158675 191 4 148
-0.0121969 -0.418969 -0.433179 126 74 72
0.348803 0.500627 0.42723 172 191 182
0.591605 -0.321313 0.126123 203 87 144
0.0529072 -0.454183 -0.47609 134 70 67
0.596324 -0.321313 0.134261 204 87 145
0.595743 -0.321313 0.142399 203 87 146
0.0454705 -0.451521 -0.467952 133 70 68
0.590629 -0.321313 0.150537 203 87 147
0.467946 -0.745708 -0.215673 187 32 100
-0.29583 -0.565453 0.231918 90 55 157
0.467946 -0.748199 -0.207535 187 32 101
-0.349801 -0.475935 0.0691573 83 67 136
-0.296678 -0.565453 0.240056 90 55 158
0.142425 -0.459659 0.111673 146 69 142
-0.296693 -0.565453 0.248194 90 55 159
0.321462 0.475255 0.394678 168 188 178
0.142425 -0.455692 -0.459814 146 69 69
0.321462 0.476213 0.394368 168 188 178
0.142425 -0.457116 -0.451676 146 69 70
0.351278 0.516903 0.451644 172 193 185
-0.345856 -0.467797 -0.408692 83 68 75
0.354014 0.516903 0.448151 173 193 185
0.317868 0.476213 0.484196 168 188 189
-0.117991 -0.728213 0.324152 112 35 169
0.321462 0.476213 0.477525 168 188 188
0.191253 0.572158 0.533024 152 200 195
0.354014 0.525041 0.392276 173 194 178
0.419118 -0.598005 0.120817 181 51 143
0.142425 -0.45458 0.117985 146 70 143
0.191253 0.569046 0.541162 152 200 196
0.191253 0.573137 0.5493 152 201 198
-0.353189 -0.467797 0.0772954 82 68 137
0.354014 0.533179 0.393753 173 195 178
0.539814 -0.223656 0.231918 196 99 157
-0.345856 -0.460373 -0.402848 83 69 76
-0.117991 -0.720075 0.323613 112 36 169
-0.207509 -0.83878 -0.183121 101 21 104
-0.345856 -0.459659 -0.402352 83 69 76
-0.207509 -0.834008 -0.176537 101 21 105
0.191253 0.572594 0.573714 152 201 201
-0.207509 -0.834008 -0.17397 101 21 105
0.191253 0.573869 0.568563 152 201 200
0.536599 -0.215518 0.0121911 196 100 129
0.594134 -0.313175 0.134261 203 88 145
0.354014 0.540138 0.402816 173 196 179
0.191253 0.573756 0.581852 152 201 202
0.594001 -0.313175 0.142399 203 88 146
0.541188 -0.215518 0.0186888 197 100 130
-0.345856 -0.459659 0.0681691 83 69 136
0.191253 0.573869 0.582225 152 201 202
0.541188 -0.222329 0.231918 197 99 157
0.18767 0.573869 0.646957 151 201 210
-0.117991 -0.711937 0.326357 112 37 169
0.191253 0.572162 0.646957 152 200 210
0.541188 -0.216672 0.240056 197 100 158
0.354014 0.545386 0.410954 173 197 180
0.191253 0.573869 0.642769 152 201 209
0.320396 0.492489 0.321436 168 190 168
0.18678 0.573869 0.655095 151 201 211
-0.345856 -0.451521 -0.396775 83 70 77
0.136339 -0.427107 -0.533056 145 73 60
-0.207509 -0.833058 -0.174983 101 21 105
0.191253 0.573869 0.649663 152 201 210
-0.0121969 -0.362003 -0.456271 126 81 69
0.348992 0.549455 0.42723 172 198 182
0.354014 0.548703 0.419092 173 197 181
0.350511 0.549455 0.419092 172 198 181
0.346905 0.549455 0.435368 172 198 183
-0.0121969 -0.353865 -0.457655 126 82 69
0.54002 -0.20738 0.0121911 196 101 129
-0.117991 -0.703799 0.327184 112 38 169
0.135321 -0.418969 -0.533056 145 74 60
-0.0160001 -0.345727 -0.467952 125 83 68
0.313585 0.492489 0.402816 167 190 179
0.541188 -0.211755 0.26447 197 101 161
-0.117991 -0.695661 -0.139028 112 39 110
-0.0121969 -0.351649 -0.459814 126 83 69
0.321462 0.492489 0.405208 168 190 179
-0.345856 -0.447782 -0.39471 83 70 77
0.318123 0.492489 0.476058 168 190 188
-0.117991 -0.695661 0.326183 112 39 169
-0.345856 -0.443383 -0.392589 83 71 77
-0.256337 0.225728 0.109847 95 156 142
0.321462 0.492489 0.470761 168 190 188
-0.257407 0.232073 0.117985 95 157 143
0.500498 -0.923526 0.0488215 191 10 134
0.315314 0.500627 0.321436 168 191 168
-0.256337 0.232073 0.116456 95 157 142
-0.117991 -0.687523 -0.138386 112 40 110
0.500498 -0.925189 0.0610192 191 10 135
-0.256337 0.231889 0.126123 95 157 144
0.191253 0.574931 0.565576 152 201 200
0.348376 0.573869 0.476058 172 201 188
-0.345856 -0.435245 -0.389279 83 72 78
0.321462 0.500627 0.408965 168 191 180
0.541188 -0.199242 0.277043 197 102 163
-0.117991 -0.679385 -0.137359 112 41 110
0.350495 0.582007 0.38654 172 202 177
0.191253 0.575657 0.638819 152 201 209
0.500498 -0.918631 0.0366052 191 10 132
0.191253 0.578818 0.655095 152 201 211
0.592443 -0.296899 0.134261 203 90 145
0.500498 -0.915388 0.0324897 191 11 132
0.087639 0.394833 0.0854333 139 178 138
-0.117991 -0.671247 -0.135327 112 42 110
0.0935973 0.394833 0.0808304 139 178 138
0.305186 -0.918184 -0.427262 166 10 73
0.500498 -0.922511 0.0447432 191 10 133
-0.210938 -0.777042 -0.663264 101 28 43
0.305186 -0.915388 -0.431868 166 11 72
-0.207509 -0.778209 -0.663264 101 28 43
0.305186 -0.92337 -0.419124 166 10 74
-0.291301 -0.541039 0.18309 90 59 151
0.349517 0.582007 0.476058 172 202 188
0.354014 0.582007 0.468722 173 202 187
-0.28889 -0.541039 0.180081 91 59 150
0.0909668 0.402971 0.0854333 139 179 138
0.346979 0.590145 0.378402 172 203 176
0.0935973 0.402971 0.0794126 139 179 138
0.305186 -0.909939 -0.443538 166 11 71
-0.117991 -0.668832 -0.134293 112 42 110
0.319536 0.508765 0.500472 168 192 191
0.354014 0.583935 0.38654 173 202 177
-0.117991 -0.663109 -0.130191 112 43 111
0.354014 0.590145 0.381151 173 203 176
0.321462 0.508765 0.495233 168 192 191
0.305186 -0.90725 -0.449427 166 12 70
-0.345856 -0.418969 -0.380359 83 74 79
0.315445 0.508765 0.50861 168 192 192
0.305186 -0.913373 -0.4354 166 11 72
0.590537 -0.288761 0.134261 203 91 145
0.052426 -0.329451 -0.427262 134 85 73
0.354014 0.598283 0.381392 173 204 176
0.0529072 -0.330217 -0.427262 134 85 73
0.305186 -0.90118 -0.459814 166 13 69
0.0529072 -0.329451 -0.428092 134 85 73
0.305186 -0.899112 -0.462825 166 13 68
0.305186 -0.906173 -0.451676 166 12 70
0.378428 -0.83887 -0.0284989 176 21 124
-0.345856 -0.415207 -0.378434 83 75 79
0.494197 -0.90725 0.0284672 191 12 131
0.378428 -0.836936 -0.0203609 176 21 125
0.0529072 -0.329451 -0.426267 134 85 73
0.500498 -0.912281 0.0284672 191 11 131
0.541188 -0.174828 -0.022955 197 105 125
0.378428 -0.834997 -0.0122228 176 21 126
-0.117991 -0.654971 -0.126262 112 44 111
0.500498 -0.90725 0.0216209 191 12 130
0.378428 -0.834008 -0.00899754 176 21 126
0.305186 -0.895111 -0.467952 166 13 68
0.321462 0.516903 0.400532 168 193 179
0.319386 0.516903 0.500472 168 193 191
0.305186 -0.890974 -0.473191 166 14 67
0.0487435 -0.321313 -0.427262 134 87 73
0.321462 0.516903 0.497439 168 193 191
0.0529072 -0.321313 -0.433259 134 87 72
0.3136 0.525041 0.337712 167 194 171
-0.0998804 -0.0934481 -0.459814 115 116 69
-0.296348 -0.524763 0.199366 90 61 153
0.0529072 -0.322355 -0.419124 134 86 74
-0.28889 -0.524763 0.191886 91 61 152
0.0529072 -0.321313 -0.418579 134 87 74
0.305186 -0.888908 -0.47609 166 14 67
-0.0935771 -0.0934481 -0.454018 116 116 70
0.305186 -0.882836 -0.482414 166 15 66
0.0935973 0.411109 0.732758 139 180 221
0.110334 -0.182966 -0.321468 142 104 87
0.305186 -0.880722 -0.484228 166 15 66
0.319228 0.525041 0.394678 168 194 178
0.321462 0.525041 0.397161 168 194 178
0.305186 -0.874698 -0.48899 166 16 65
0.496152 -0.899112 0.0203292 191 13 130
0.112486 -0.182966 -0.31333 142 104 88
0.500498 -0.906042 0.0203292 191 12 130
0.0935973 0.419247 0.729739 139 181 221
0.500498 -0.899112 0.0129157 191 13 129
-0.290331 -0.516625 0.199366 90 62 153
-0.28889 -0.516625 0.19132 91 62 152
0.0529072 -0.313175 -0.414408 134 88 75
-0.295595 -0.516625 0.207504 90 62 154
-0.589996 -0.158552 -0.471945 52 107 67
-0.0935771 -0.0934481 -0.236821 116 116 97
0.0935973 0.427385 0.734154 139 182 221
-0.589996 -0.150414 -0.474188 52 108 67
0.598154 -0.267159 0.142399 204 93 146
-0.0121969 -0.231794 -0.51459 126 98 62
-0.0935771 -0.0864013 -0.47609 116 116 67
-0.0935771 -0.0853101 -0.481027 116 117 66
-0.0121969 -0.228 -0.51678 126 98 62
0.321462 0.527546 0.394678 168 195 178
-0.0121969 -0.223656 -0.520228 126 99 61
0.31693 0.533179 0.492334 168 195 190
0.414637 -0.532901 -0.134293 180 60 110
-0.589996 -0.14597 -0.47609 52 109 67
-0.589996 -0.142276 -0.477827 52 109 67
0.0500357 -0.296899 -0.508642 134 90 63
-0.0121969 -0.218643 -0.524918 126 100 61
-0.0982913 -0.0853101 -0.337744 115 117 84
0.497295 -0.890974 0.0121911 191 14 129
0.321145 0.541317 0.484196 168 197 189
-0.0935771 -0.0861218 -0.329606 116 117 85
0.500498 -0.897941 0.0121911 191 13 129
-0.589996 -0.134138 -0.481585 52 110 66
0.0529072 -0.296899 -0.506064 134 90 63
-0.0935771 -0.0853101 -0.330746 116 117 85
0.500498 -0.890974 0.00884722 191 14 129
-0.59337 -0.134138 -0.484228 52 110 66
-0.293718 -0.508487 0.199366 90 63 153
0.31718 0.541317 0.492334 168 197 190
-0.293642 -0.508487 0.207504 90 63 154
0.463527 -0.630557 0.231918 187 47 157
0.31607 0.541317 0.500472 168 197 191
-0.293096 -0.508487 0.297022 90 63 165
0.462814 -0.630557 0.240056 187 47 158
-0.0935771 -0.0853101 -0.234634 116 117 98
0.464623 -0.630557 0.256332 187 47 160
0.466204 -0.630557 0.26447 187 47 161
0.463773 -0.630557 0.272608 187 47 162
-0.0935771 -0.0787563 -0.492366 116 117 65
-0.117991 -0.622419 -0.478284 112 48 67
-0.0935771 -0.077172 -0.493499 116 118 65
-0.199371 0.00420815 0.331806 102 128 170
0.0529072 -0.293162 -0.508642 134 90 63
-0.0935771 -0.0846526 -0.484228 116 117 66
0.417472 -0.524763 -0.134293 181 61 110
0.321462 0.546865 0.492334 168 197 190
0.46009 -0.622419 0.191228 186 48 152
-0.0935771 -0.0816835 -0.345882 116 117 83
0.463119 -0.622419 0.207504 187 48 154
-0.0145476 -0.191104 -0.451676 126 103 70
-0.199371 0.0123461 0.334744 102 129 170
0.49721 -0.882836 0.00405318 191 15 128
0.0935973 0.468075 0.75179 139 187 223
0.500498 -0.884581 0.00405318 191 15 128
-0.0935771 -0.0818291 -0.337744 116 117 84
-0.0121969 -0.194105 -0.451676 126 103 70
-0.293254 -0.500349 0.297022 90 64 165
0.0529072 -0.280623 -0.537477 134 92 59
-0.0121969 -0.191104 -0.44788 126 103 70
0.500498 -0.882836 0.00149902 191 15 128
-0.117991 -0.614281 -0.477631 112 49 67
-0.207509 -0.703814 0.280746 101 38 163
0.0935973 0.476213 0.748788 139 188 223
0.467946 -0.622969 0.240056 187 48 158
0.350776 0.728492 0.34585 172 220 172
0.354014 0.723075 0.34585 173 220 172
0.318876 0.557593 0.410954 168 199 180
0.464805 -0.622419 0.248194 187 48 159
0.321462 0.551684 0.410954 168 198 180
0.0935973 0.484351 0.748002 139 189 223
0.460352 -0.622419 0.256332 186 48 160
0.419118 -0.520978 -0.134293 181 61 110
0.321462 0.557593 0.415818 168 199 181
0.462354 -0.622419 0.26447 186 48 161
-0.0935771 -0.069034 -0.49397 116 119 65
0.500126 -0.882836 0.109847 191 15 142
-0.0179516 -0.182966 -0.443538 125 104 71
0.500498 -0.883222 0.109847 191 15 142
-0.0121969 -0.182966 -0.447605 126 104 70
-0.392671 -0.671247 -0.142431 77 42 109
0.0529072 -0.272484 -0.539888 134 93 59
-0.386546 -0.677815 -0.142431 78 41 109
0.320643 0.565731 0.394678 168 200 178
0.0935973 0.500627 0.743729 139 191 222
0.28891 -0.608908 0.297022 164 50 165
0.317052 0.565731 0.402816 168 200 179
0.319292 0.565731 0.410954 168 200 180
0.0935973 0.508765 0.741193 139 192 222
0.321462 0.565731 0.413556 168 200 180
0.466171 -0.614281 0.199366 187 49 153
-0.295185 -0.484073 -0.467952 90 66 68
0.497136 -0.874698 -0.077327 191 16 118
-0.211262 -0.695661 0.272608 101 39 162
0.0529072 -0.264346 -0.539008 134 94 59
0.500498 -0.880032 -0.077327 191 15 118
-0.207509 -0.701436 0.272608 101 38 162
-0.296698 -0.484073 -0.459814 90 66 69
-0.0121969 -0.170081 -0.51678 126 106 62
0.500498 -0.874698 -0.0801573 191 16 117
-0.0935771 -0.0632343 -0.492366 116 119 65
-0.0935771 -0.060896 -0.491666 116 120 65
-0.214136 -0.695661 0.288884 100 39 164
0.320855 0.573869 0.38654 168 201 177
0.500498 -0.881129 -0.061051 191 15 120
0.321462 0.573869 0.384271 168 201 176
0.318708 0.573869 0.394678 168 201 178
0.321462 0.573162 0.402816 168 201 179
0.463467 -0.614281 0.256332 187 49 160
-0.207703 -0.687523 -0.085465 101 40 117
0.500498 -0.875102 -0.0284989 191 16 124
0.321462 0.573869 0.401805 168 201 179
-0.207509 -0.688433 -0.085465 101 40 117
0.321462 0.568465 0.410954 168 200 180
-0.207509 -0.687523 -0.0856724 101 40 117
0.598154 -0.239932 0.205018 204 97 154
-0.207509 -0.687523 -0.0837957 101 40 117
0.500498 -0.87818 -0.0122228 191 16 126
0.0935973 0.533179 0.718932 139 195 219
0.500498 -0.880091 -0.00408487 191 15 127
0.492368 -0.874698 0.0121911 190 16 129
0.321462 0.576274 0.38654 168 201 177
0.321462 0.577511 0.394678 168 201 178
0.419118 -0.500349 -0.137983 181 64 110
-0.289776 -0.475935 -0.467952 91 67 68
-0.629746 -0.142276 -0.443538 47 109 71
-0.28889 -0.477617 -0.459814 91 67 69
0.0935973 0.540804 0.712061 139 196 218
0.321462 0.590145 0.287891 168 203 164
-0.215056 -0.687523 0.272608 100 40 162
0.0529072 -0.256208 -0.373946 134 95 80
0.467946 -0.612071 0.215642 187 49 155
-0.0161826 -0.150414 -0.402848 125 108 76
-0.0121969 -0.150414 -0.408795 126 108 75
0.321462 0.598283 0.28912 168 204 164
0.598154 -0.238583 0.207504 204 97 154
-0.207509 -0.687162 -0.085465 101 40 117
0.598154 -0.235944 0.215642 204 97 155
-0.208318 -0.679385 -0.077327 101 41 118
0.59171 -0.231794 0.22378 203 98 156
-0.207509 -0.683722 -0.077327 101 40 118
0.412958 -0.492211 0.280746 180 65 163
0.598154 -0.231794 0.220044 204 98 156
-0.207509 -0.679385 -0.0787156 101 41 117
0.321462 0.606308 0.297022 168 205 165
0.316274 0.606422 0.451644 168 205 185
-0.28889 -0.474079 -0.467952 91 67 68
-0.094726 -0.04462 -0.47609 115 122 67
-0.0935771 -0.0453812 -0.47609 116 122 67
-0.28889 -0.467797 -0.470832 91 68 67
0.321462 0.606422 0.444341 168 205 184
0.0935973 0.57263 0.663233 139 201 212
0.0935973 0.573869 0.660034 139 201 212
0.299305 -0.760766 0.321436 166 31 168
0.321462 0.607695 0.443506 168 205 184
0.351888 0.850562 0.459782 172 236 186
-0.11943 -0.565453 -0.0366369 112 55 123
-0.215563 -0.679385 0.297022 100 41 165
-0.117991 -0.568824 -0.0366369 112 55 123
0.419118 -0.489675 0.256332 181 65 160
-0.208029 -0.679385 0.30516 101 41 166
-0.28889 -0.467797 0.0107538 91 68 129
0.321462 0.614559 0.440633 168 206 184
-0.207509 -0.679385 0.305878 101 41 166
0.249952 -0.915388 0.313298 159 11 167
-0.207745 -0.671247 -0.077327 101 42 118
0.0935973 0.578525 0.655095 139 201 211
0.419118 -0.48422 0.280746 181 66 163
-0.207509 -0.671247 -0.0775419 101 42 118
0.0479811 -0.223656 -0.370296 134 99 80
0.354014 0.918162 0.0121911 173 245 129
-0.123188 -0.557315 -0.0366369 112 56 123
0.0529072 -0.215518 -0.369161 134 100 80
0.354014 0.91594 0.0203292 173 244 130
-0.199371 0.0774503 0.270401 102 137 162
0.0490707 -0.20738 -0.362158 134 101 81
0.0529072 -0.211037 -0.362158 134 101 81
0.0529072 -0.20738 -0.356076 134 101 82
-0.293847 -0.459659 0.0121911 90 69 129
0.541188 -0.060896 0.0113783 197 120 129
-0.28889 -0.459659 0.00710188 91 69 128
0.538395 -0.060896 0.248194 196 120 159
0.0529072 -0.20652 -0.35402 134 101 82
0.199391 -0.97613 0.38654 153 3 177
0.0906292 0.598283 0.598128 139 204 204
0.0505339 -0.199242 -0.345882 134 102 83
0.541188 -0.060896 0.246313 197 120 159
0.0529072 -0.202562 -0.345882 134 102 83
0.199391 -0.972354 0.390925 153 4 177
0.0529072 -0.199242 -0.340798 134 102 84
-0.100547 -0.028344 -0.419124 115 124 74
-0.208895 -0.663109 -0.069189 101 43 119
-0.349511 -0.337589 0.18309 83 84 151
-0.207509 -0.663109 -0.0720404 101 43 118
-0.347966 -0.337589 0.191228 83 84 152
0.0488809 -0.191104 -0.337744 134 103 84
-0.345856 -0.337589 0.196096 83 84 153
0.0529072 -0.197431 -0.337744 134 102 84
-0.199371 0.0937263 0.276404 102 139 163
0.0529072 -0.191104 -0.330242 134 103 85
0.199391 -0.968006 0.394678 153 4 178
0.305186 -0.720075 -0.183065 166 36 104
0.0890497 0.606422 0.565576 139 205 200
-0.28889 -0.451521 0.013469 91 70 129
0.465788 -0.573591 0.150537 187 54 147
0.199391 -0.964216 0.397635 153 5 178
0.0935973 0.606422 0.570228 139 205 200
0.467946 -0.573591 0.151839 187 54 147
-0.294352 -0.451521 0.272608 90 70 162
0.305186 -0.711937 -0.18268 166 37 104
0.0935973 0.601321 0.598128 139 204 204
0.0492622 -0.182966 -0.329606 134 104 85
0.0529072 -0.190396 -0.329606 134 103 85
-0.199371 0.101864 0.275458 102 140 163
0.0529072 -0.182966 -0.324522 134 104 86
0.305186 -0.711937 0.33518 166 37 170
-0.210202 -0.654971 -0.069189 101 44 119
-0.207509 -0.654971 -0.0720246 101 44 118
0.199391 -0.956078 0.401174 153 6 179
0.321402 0.671526 0.42723 168 213 182
-0.0966549 -0.0120678 -0.451676 115 126 70
0.305186 -0.703799 -0.180796 166 38 104
-0.0935771 -0.0120678 -0.448665 116 126 70
0.31596 0.671526 0.435368 168 213 183
0.0512112 -0.174828 -0.321468 134 105 87
0.541188 -0.04462 0.281652 197 122 163
0.467786 -0.565453 0.150537 187 55 147
-0.0121969 -0.0547705 -0.248225 126 121 96
-0.351492 -0.329451 0.174951 83 85 150
0.467946 -0.565453 0.15081 187 55 147
0.0529072 -0.178414 -0.321468 134 105 87
0.0529072 -0.174828 -0.318966 134 105 87
-0.0121969 -0.0559114 -0.240087 126 120 97
0.305186 -0.70874 0.337712 166 37 171
0.305186 -0.703799 0.341608 166 38 171
0.315292 0.671526 0.443506 168 213 184
0.305186 -0.695661 -0.178247 166 39 105
0.199391 -0.94794 0.402016 153 7 179
-0.0121969 -0.04462 -0.377963 126 122 79
0.541188 -0.0364819 -0.0241074 197 123 124
-0.208896 -0.646833 -0.069189 101 45 119
-0.0963505 -0.00392991 -0.451676 115 127 70
0.541188 -0.0364819 0.283244 197 123 164
-0.0935771 -0.00392991 -0.449563 116 127 70
0.0524247 -0.16669 -0.31333 134 106 88
0.0529072 -0.16757 -0.31333 134 106 88
0.0529072 -0.16669 -0.31281 134 106 88
0.321353 0.679664 0.435368 168 214 183
0.256358 -0.885957 0.288884 160 15 164
-0.0121969 -0.0364819 -0.378182 126 123 79
-0.0935771 -0.00392991 0.274945 116 127 163
0.314481 0.679664 0.443506 168 214 184
0.537078 -0.028344 -0.0284989 196 124 124
0.314972 0.679664 0.451644 168 214 185
0.199391 -0.941161 0.402816 153 8 179
0.199391 -0.939802 0.40313 153 8 179
-0.248199 -0.983112 -0.0447749 96 2 122
-0.0121969 -0.0360189 -0.378434 126 123 79
-0.0935771 0.00420815 0.275629 116 128 163
0.0512743 -0.158552 -0.31333 134 107 88
0.378428 -0.725456 0.231918 176 35 157
-0.0121969 -0.028344 -0.382673 126 124 79
-0.213147 -0.638695 -0.061051 100 46 120
0.0529072 -0.158552 -0.310932 134 107 88
0.199391 -0.931664 0.403351 153 9 179
-0.207509 -0.638695 0.325024 101 46 169
0.0508148 -0.150414 -0.31333 134 108 88
0.362152 -0.988669 -0.109879 174 1 113
0.32088 0.687802 0.443506 168 215 184
-0.0935771 0.0123461 0.277124 116 129 163
0.358403 -0.98863 -0.101741 173 1 115
0.0529072 -0.150414 -0.309551 134 108 88
0.362152 -0.99226 -0.101741 174 1 115
0.316047 0.687802 0.451644 168 215 185
-0.214289 -0.630557 -0.061051 100 47 120
-0.34657 -0.321313 0.150537 83 87 147
-0.0935771 0.020138 -0.402848 116 130 76
0.250274 -0.86656 0.370264 159 17 175
-0.34909 -0.321313 0.158675 83 87 148
0.256358 -0.86656 0.362674 160 17 174
-0.0935771 0.0204841 -0.402242 116 130 76
0.0510237 -0.142276 -0.31333 134 109 88
-0.350387 -0.321313 0.240056 83 87 158
0.0529072 -0.142276 -0.308301 134 109 88
-0.345856 -0.321313 0.245997 83 87 159
-0.215279 -0.622419 -0.061051 100 48 120
0.320276 0.69594 0.451644 168 216 185
-0.0935771 0.0234798 -0.39471 116 130 77
-0.345856 -0.313175 0.143721 83 88 146
-0.0935771 0.0286222 -0.389614 116 131 78
0.0525219 -0.134138 -0.305192 134 110 89
-0.215572 -0.614281 -0.061051 100 49 120
0.0529072 -0.135661 -0.305192 134 110 89
0.0529072 -0.134138 -0.304523 134 110 89
0.0875681 0.638974 0.516748 139 209 193
0.362152 -0.988326 -0.00408487 174 1 127
0.321462 0.704078 0.505334 168 217 192
0.0040791 -0.394555 -0.428089 128 77 73
0.362152 -0.9841 0.00405318 174 2 128
0.378428 -0.705637 0.191228 176 38 152
-0.345856 -0.308442 0.134261 83 88 145
0.321462 0.712216 0.503769 168 218 192
-0.345856 -0.305037 0.129716 83 89 144
0.199391 -0.890974 0.396564 153 14 178
-0.0935771 0.0326408 -0.386572 116 132 78
0.378428 -0.709497 0.199366 176 37 153
-0.0935771 0.0367602 -0.381052 116 132 79
0.052102 -0.126 -0.31333 134 111 88
-0.00257549 -0.386417 -0.4354 127 78 72
0.0504835 -0.126 -0.297053 134 111 90
0.0529072 -0.12883 -0.297053 134 111 90
0.0040791 -0.390804 -0.427262 128 78 73
0.591659 -0.150414 0.22378 203 108 156
0.0529072 -0.126 -0.294861 134 111 90
0.0040791 -0.386417 -0.42635 128 78 73
0.541188 0.00420815 0.264504 197 128 161
0.09305 0.647112 0.288884 139 210 164
0.0935973 0.647112 0.287253 139 210 164
0.199391 -0.882836 0.399075 153 15 178
0.0040791 -0.381903 -0.427262 128 79 73
-0.199371 0.161587 0.0854333 102 148 138
-0.0935771 0.0380362 -0.378434 116 132 79
-0.199371 0.164521 0.0935714 102 148 139
-0.117991 -0.507389 0.199366 112 63 153
0.0935973 0.64663 0.492334 139 210 190
0.0040791 -0.378279 -0.428717 128 79 73
-0.199371 0.166968 0.0985724 102 149 140
-0.109853 0.516903 0.415155 113 193 180
0.0477836 -0.117862 -0.297053 134 112 90
0.0935973 0.644689 0.500472 139 210 191
-0.199371 0.165809 0.158675 102 149 148
0.0935743 0.647112 0.50861 139 210 192
0.0529072 -0.120512 -0.288915 134 112 91
0.0935973 0.647112 0.508551 139 210 192
0.199391 -0.877755 0.240056 153 16 158
0.0529072 -0.117862 -0.28568 134 112 91
0.199391 -0.874698 0.246974 153 16 159
0.590316 -0.142276 0.22378 203 109 156
0.199391 -0.874698 0.406827 153 16 179
0.00246157 -0.370141 -0.451676 128 80 70
0.0040791 -0.37237 -0.451676 128 80 70
0.732269 -0.0934481 -0.59816 221 116 51
0.0040791 -0.371941 -0.443538 128 80 71
0.0040791 -0.373956 -0.4354 128 80 72
0.321462 0.743702 0.38654 168 222 177
0.19377 -0.86656 0.248194 152 17 159
-0.28889 -0.410831 0.255347 91 75 160
0.321462 0.744768 0.388163 168 222 177
0.199391 -0.86656 0.245084 153 17 159
0.0935973 0.652483 0.297022 139 211 165
0.0529072 -0.114155 -0.280778 134 113 92
0.497095 -0.711937 -0.223811 191 37 99
0.0935973 0.653583 0.30516 139 211 166
0.500498 -0.711937 -0.228849 191 37 98
0.321462 0.752906 0.398516 168 223 178
0.256358 -0.817732 0.350251 160 23 172
0.0529072 -0.109724 -0.276473 134 114 92
-0.199371 0.168974 0.101709 102 149 140
0.500498 -0.713709 -0.215673 191 37 100
-0.0194794 0.0204841 0.280746 125 130 163
0.500498 -0.711937 -0.218102 191 37 100
0.734877 -0.0853101 -0.59816 221 117 51
-0.735172 0.606422 -0.077327 34 205 118
-0.199371 0.173312 0.109847 102 150 142
0.321462 0.757255 0.402816 168 224 179
0.256358 -0.809594 -0.198549 160 24 102
0.199391 -0.858422 0.236374 153 18 158
-0.199371 0.175106 0.117234 102 150 142
-0.254009 -0.915388 0.101709 95 11 140
-0.0121969 0.0243593 -0.39471 126 131 77
0.499747 -0.703799 -0.63885 191 38 46
-0.0121969 0.0204841 0.284154 126 130 164
-0.0197679 0.0286222 -0.386572 125 131 78
0.321462 0.761044 0.406036 168 225 179
0.321462 0.767025 0.410954 168 225 180
-0.199371 0.174972 0.126123 102 150 144
-0.0121969 0.0286222 -0.389397 126 131 78
0.321462 0.769182 0.412423 168 226 180
-0.199371 0.175106 0.122187 102 150 143
0.256358 -0.809594 0.354175 160 24 173
-0.248199 -0.907572 0.0610192 96 12 135
-0.200285 0.175106 0.134261 102 150 145
-0.248199 -0.90725 0.0603657 96 12 135
-0.199371 0.174391 0.134261 102 150 145
0.0935973 0.65525 0.507985 139 211 192
-0.248199 -0.90975 0.0691573 96 12 136
0.500498 -0.706759 -0.223811 191 37 99
0.0873525 0.65525 0.516748 139 211 193
0.0529072 -0.104296 -0.272639 134 114 93
-0.199371 0.167893 0.150537 102 149 147
-0.296084 -0.402693 0.248194 90 76 159
0.0529072 -0.101586 -0.27083 134 115 93
-0.248199 -0.911398 0.0772954 96 11 137
-0.731681 0.614559 -0.077327 34 206 118
-0.248199 -0.912076 0.0854333 96 11 138
-0.248199 -0.911264 0.0935714 96 11 139
0.378428 -0.686409 0.297022 176 40 165
-0.0121969 0.0301124 -0.386572 126 131 78
-0.24844 -0.90725 0.101709 96 12 140
0.378428 -0.685091 0.30516 176 40 166
0.500498 -0.70217 -0.63885 191 38 46
0.736501 -0.0788945 -0.59816 221 117 51
-0.0935771 0.0774503 0.257529 116 137 160
-0.723319 0.215797 -0.31333 35 155 88
0.0935973 0.656661 0.313298 139 211 167
0.0529072 -0.0934481 -0.265344 134 116 94
0.597257 -0.126 0.191228 204 111 152
-0.720204 0.211107 -0.31333 36 154 88
0.598154 -0.127905 0.191228 204 111 152
-0.724213 0.215797 -0.305192 35 155 89
-0.199371 0.175306 0.117985 102 150 143
-0.720204 0.208281 -0.305192 36 154 89
0.0529072 -0.0924468 -0.264501 134 116 94
0.0932254 0.663388 0.34585 139 212 172
-0.205576 0.183244 0.134261 101 151 145
0.0935973 0.663388 0.344997 139 212 171
0.199391 -0.842146 0.391607 153 20 177
0.0529072 -0.0853101 -0.258042 134 117 95
0.089052 0.663388 0.353988 139 212 173
0.256358 -0.78518 0.347681 160 27 172
0.541188 0.0302052 0.22378 197 131 156
0.0883502 0.663388 0.362126 139 212 174
0.541188 0.0287775 0.231918 197 131 157
0.0880134 0.663388 0.370264 139 212 175
0.0876324 0.663388 0.378402 139 212 176
0.0529072 -0.0826965 -0.256363 134 117 95
-0.1241 -0.451521 -0.35402 112 70 82
0.0881337 0.663388 0.38654 139 212 177
0.0529072 -0.077172 -0.253724 134 118 95
0.0891332 0.663388 0.394678 139 212 178
0.199391 -0.834008 0.237496 153 21 158
0.0903642 0.663388 0.402816 139 212 179
0.0529072 -0.069034 -0.249264 134 119 96
0.0529072 -0.069034 0.337944 134 119 171
0.256358 -0.777042 0.352718 160 28 172
0.0529072 -0.0673964 -0.248225 134 119 96
0.0929901 0.663388 0.419092 139 212 181
-0.118546 -0.443383 -0.35402 112 71 82
0.0935064 0.663388 0.42723 139 212 182
-0.207509 -0.549177 0.328223 101 57 169
0.0529072 -0.060896 -0.244809 134 120 96
0.464963 -0.484073 0.256332 187 66 160
0.467946 -0.487172 0.272608 187 65 162
0.597792 -0.117862 0.191228 204 112 152
0.467946 -0.484073 0.267753 187 66 162
0.362152 -0.939802 -0.213111 174 8 100
0.315058 0.850562 0.443506 168 236 184
0.59517 -0.117862 0.199366 203 112 153
-0.254729 -0.899112 0.0447432 95 13 133
-0.250744 -0.899112 0.0528813 96 13 134
-0.117991 -0.442689 -0.35402 112 71 82
-0.248199 -0.899112 0.0574217 96 13 135
-0.207509 -0.533485 -0.39471 101 59 77
0.086954 0.663388 0.516748 139 212 193
0.321462 0.857631 0.443506 168 237 184
0.256358 -0.760766 0.200596 160 31 153
0.370678 -0.654971 0.321436 175 44 168
-0.207509 -0.53655 -0.386572 101 59 78
0.378428 -0.654971 0.317601 176 44 168
0.467946 -0.483756 0.256332 187 66 160
0.0498963 -0.0202059 0.321436 134 125 168
-0.12361 -0.427107 -0.329606 112 73 85
-0.214299 -0.532901 0.321436 100 60 168
0.59756 -0.109724 0.191228 204 114 152
-0.117991 -0.427107 -0.335928 112 73 85
-0.207509 -0.532901 0.3253 101 60 169
0.590703 -0.109724 0.199366 203 114 153
0.0525637 -0.0120678 0.321436 134 126 168
0.199391 -0.809594 0.37518 153 24 175
-0.0935771 0.156017 -0.0284989 116 147 124
0.0529072 -0.00392991 -0.215816 134 127 100
0.0935973 0.665192 0.410954 139 212 180
0.256358 -0.744489 0.344428 160 33 171
0.0529072 -0.00372481 -0.215673 134 127 100
-0.123677 -0.418969 -0.329606 112 74 85
0.0935973 0.6654 0.42723 139 212 182
0.0529072 0.00420815 -0.21017 134 128 101
-0.117991 -0.420531 -0.329606 112 74 85
-0.0957466 0.15883 0.00405318 115 148 128
0.0040791 -0.231794 -0.512898 128 98 62
-0.117991 -0.418969 -0.328473 112 74 86
0.25596 -0.736351 -0.158707 160 34 107
0.324016 -0.98863 -0.35402 169 1 82
0.0529072 0.00778518 -0.207535 134 128 101
-0.253205 -0.890974 0.0366052 95 14 132
0.248293 -0.736351 -0.150569 159 34 108
0.0529072 0.0123461 -0.204041 134 129 101
0.00054401 -0.223656 -0.508642 128 99 63
0.0040791 -0.226979 -0.508642 128 99 63
0.256358 -0.736351 0.341963 160 34 171
0.0040791 -0.223656 -0.504655 128 99 63
0.199391 -0.795164 0.362126 153 26 174
0.378428 -0.638695 0.326952 176 46 169
0.199391 -0.793318 0.3607 153 26 173
0.256358 -0.735129 -0.158707 160 34 107
0.0877211 0.671526 0.516748 139 213 193
-0.209419 -0.524763 0.321436 101 61 168
0.192629 -0.78518 -0.134293 152 27 110
0.461105 -0.459659 0.240056 186 69 158
-0.207509 -0.526353 0.321436 101 60 168
0.3296 -0.980492 0.0739835 170 2 137
0.0040791 -0.216343 -0.508642 128 100 63
-0.207509 -0.524763 0.320466 101 61 168
-0.0935771 0.160291 0.00405318 116 148 128
0.533641 0.0693123 0.134261 196 136 145
0.256358 -0.728213 0.34013 160 35 171
0.0040791 -0.215518 -0.437107 128 100 72
0.199391 -0.78518 0.355547 153 27 173
0.541188 0.0612776 0.134261 197 135 145
-0.123766 -0.410831 -0.329606 112 75 85
0.199391 -0.779027 -0.134293 153 28 110
-0.117991 -0.410831 -0.323565 112 75 86
-0.251222 -0.882836 0.0284672 95 15 131
0.592428 -0.0934481 0.272608 203 116 162
-0.207509 -0.516625 0.318835 101 62 168
-0.253061 -0.882836 0.0528813 95 15 134
0.256358 -0.722642 0.337712 160 35 171
-0.345856 -0.223656 0.209846 83 99 154
0.256358 -0.720075 0.336334 160 36 170
0.594324 -0.0934481 0.280746 203 116 163
0.536012 0.0774503 0.150537 196 137 147
0.541188 0.0721675 0.150537 197 137 147
-0.00143458 -0.20738 -0.451676 127 101 70
0.256358 -0.711937 0.334404 160 37 170
0.0893472 0.679664 0.516748 139 214 193
-0.00273817 -0.20738 -0.443538 127 101 71
-0.349505 -0.215518 0.199366 83 100 153
0.598154 -0.0853101 0.183236 204 117 151
-0.117991 -0.404223 -0.321468 112 76 87
-0.386546 -0.435245 0.0955707 78 72 140
-0.34611 -0.215518 0.207504 83 100 154
-0.248199 -0.875076 -0.00408487 96 16 127
-0.117991 -0.402693 -0.3211 112 76 87
-0.345856 -0.217922 0.215642 83 100 155
-0.207509 -0.508487 0.318406 101 63 168
0.598154 -0.0913768 0.280746 204 116 163
-0.248199 -0.874698 -0.00532014 96 16 127
-0.345856 -0.217447 0.22378 83 100 156
0.00254286 -0.199242 -0.443538 128 102 71
-0.248199 -0.877484 0.00405318 96 16 128
-0.248199 -0.878589 0.0121911 96 15 129
-0.248819 -0.874698 0.0203292 96 16 130
0.461205 -0.435245 -0.142431 186 72 109
0.254597 -0.695661 0.18309 160 39 151
0.594049 -0.077172 0.0772954 203 118 137
0.597204 -0.077172 0.0854333 204 118 138
0.256358 -0.695661 0.181913 160 39 151
0.598154 -0.077172 0.0872253 204 118 139
-0.252753 -0.874698 0.0528813 95 16 134
0.3296 -0.977299 0.0610192 170 3 135
0.598154 -0.077172 0.184113 204 118 151
-0.351121 -0.20738 0.191228 83 101 152
-0.352966 -0.20738 0.199366 82 101 153
0.378428 -0.606143 0.321841 176 50 169
0.3296 -0.97969 0.0691573 170 3 136
0.595222 -0.069034 0.0772954 203 119 137
0.00388626 -0.182966 -0.524918 128 104 61
0.0040791 -0.183162 -0.524918 128 104 61
0.32181 -0.972354 0.126123 169 4 144
0.322769 -0.972354 0.134261 169 4 145
0.0928933 0.687802 0.516748 139 215 193
0.464351 -0.427107 -0.142431 187 73 109
0.378428 -0.60368 0.321436 176 51 168
0.378428 -0.598005 0.320502 176 51 168
-0.117991 -0.394555 -0.319335 112 77 87
-0.352063 -0.199242 0.18309 83 102 151
0.0040791 -0.16669 -0.453911 128 106 70
-0.117991 -0.394555 0.148698 112 77 146
-0.248199 -0.870211 -0.0203609 96 17 125
-0.248199 -0.86656 -0.0257516 96 17 124
-0.248199 -0.872702 -0.0122228 96 16 126
0.378428 -0.589867 0.113069 176 52 142
0.0040791 -0.158552 -0.452639 128 107 70
0.378428 -0.589867 0.319417 176 52 168
-0.207509 -0.484124 -0.549332 101 66 57
0.0040791 -0.156732 -0.451676 128 108 70
-0.0935771 0.468075 0.424945 116 187 182
0.00151068 -0.150414 -0.443538 128 108 71
-0.0971897 0.468075 0.435368 115 187 183
-0.214102 -0.484073 -0.541194 100 66 58
0.0040791 -0.150414 -0.44508 128 108 71
-0.207509 -0.486948 -0.541194 101 65 58
-0.100703 0.468075 0.443506 115 187 184
-0.207509 -0.484073 -0.535109 101 66 59
-0.117991 -0.386417 -0.316779 112 78 87
0.0040791 -0.150918 -0.427262 128 108 73
0.0040791 -0.150414 -0.431569 128 108 72
-0.101609 0.468075 0.451644 115 187 185
-0.353463 -0.191104 0.166814 82 103 149
0.594778 -0.052758 0.231918 203 121 157
0.00378731 -0.150414 -0.419124 128 108 74
0.378428 -0.581729 0.110847 176 53 142
0.598154 -0.052758 0.228997 204 121 157
0.0040791 -0.150414 -0.42015 128 108 74
-0.124611 -0.386417 0.134261 112 78 145
0.466992 -0.418969 -0.142431 187 74 109
0.495612 -0.565453 0.191228 191 55 152
-0.117991 -0.386417 0.145127 112 78 146
0.494621 -0.565453 0.199366 191 55 153
0.0040791 -0.149677 -0.443538 128 108 71
-0.100966 0.468075 0.459782 115 187 186
-0.0972181 0.468075 0.46792 115 187 187
0.0040791 -0.149996 -0.4354 128 108 72
-0.0935771 0.468075 0.475285 116 187 188
-0.0952492 0.476213 0.42723 115 188 182
-0.0935771 0.476213 0.424671 116 188 182
-0.0974803 0.476213 0.435368 115 188 183
-0.100135 0.476213 0.443506 115 188 184
0.378428 -0.573591 0.316132 176 54 168
0.596934 -0.04462 0.231918 204 122 157
-0.117991 -0.378279 -0.3153 112 79 87
-0.101566 0.476213 0.451644 115 188 185
0.598154 -0.04462 0.230325 204 122 157
-0.121601 -0.378279 0.126123 112 79 144
-0.101141 0.476213 0.459782 115 188 186
0.590563 -0.04462 0.240056 203 122 158
-0.117991 -0.386192 0.126123 112 78 144
-0.211161 -0.475935 -0.55747 101 67 56
-0.122142 -0.378279 0.134261 112 79 145
-0.0936734 0.476213 0.476058 116 188 188
-0.117991 -0.378279 0.132154 112 79 144
-0.207509 -0.482156 -0.533056 101 66 60
0.0477218 0.207659 0.687647 134 154 215
-0.0935771 0.476213 0.476432 116 188 188
-0.117991 -0.378279 0.145162 112 79 146
0.378428 -0.565453 0.314446 176 55 168
0.496246 -0.557315 0.191228 191 56 152
0.593279 -0.0364819 0.0284672 203 123 131
0.500464 -0.557315 0.199366 191 56 153
-0.294082 -0.305037 0.26447 90 89 161
0.598154 -0.0364819 0.0369488 204 123 132
0.500498 -0.559802 0.207504 191 56 154
-0.630686 0.0611742 -0.300912 47 135 89
0.467208 -0.410831 -0.142431 187 75 109
-0.0654472 -0.117862 -0.256363 119 112 95
0.500498 -0.55972 0.215642 191 56 155
-0.125406 -0.370141 -0.484228 112 80 66
0.467946 -0.410831 -0.14162 187 75 109
0.500498 -0.564367 0.22378 191 56 156
0.24882 -0.646833 0.26447 159 45 161
0.378428 -0.563773 0.313298 176 56 167
-0.630686 0.0654165 -0.297053 47 136 90
0.378428 -0.557315 0.308001 176 56 167
-0.630686 0.0693123 -0.29348 47 136 90
-0.117991 -0.370141 -0.313476 112 80 88
-0.117991 -0.376662 0.134261 112 79 145
0.0935973 0.717446 0.435368 139 219 183
-0.00266078 -0.101586 -0.39471 127 115 77
-0.118487 -0.370141 0.142399 112 80 146
-0.28889 -0.296899 0.271197 91 90 162
-0.117991 -0.370141 0.141627 112 80 146
-0.248199 -0.863228 -0.0284989 96 17 124
-0.191233 -0.986067 -0.077327 103 2 118
-0.117991 -0.370141 0.144461 112 80 146
0.0040791 -0.0956421 -0.410986 128 115 75
-0.248199 -0.858422 -0.0313159 96 18 124
0.0040791 -0.0956281 -0.402848 128 115 76
-0.0691511 -0.109724 -0.256363 119 114 95
0.0040791 -0.0934481 -0.400118 128 116 76
0.256358 -0.639066 -0.069189 160 46 119
-0.28889 -0.295338 0.272608 91 90 162
-0.191233 -0.978821 0.0691573 103 3 136
0.497484 -0.549177 0.26447 191 57 161
-0.28889 -0.288761 0.278586 91 91 163
0.500498 -0.549177 0.261641 191 57 161
-0.0981165 0.500627 0.476058 115 191 188
0.0040791 -0.0865887 -0.402848 128 116 76
0.0040791 -0.0853101 -0.403241 128 117 76
0.19364 -0.695661 -0.0447749 152 39 122
-0.0975936 0.500627 0.484196 115 191 189
-0.117991 -0.363674 -0.484228 112 81 66
0.378428 -0.549946 0.30516 176 57 166
0.378428 -0.549177 0.304828 176 57 166
-0.348543 -0.158552 0.101709 83 107 140
0.0529072 0.232073 0.714196 134 157 219
0.419118 -0.272484 0.227415 181 93 156
0.199391 -0.690513 -0.0447749 153 39 122
-0.296798 -0.280623 0.280746 90 92 163
0.256358 -0.639426 0.26447 160 46 161
-0.0676619 -0.0934481 -0.248225 119 116 96
-0.352603 -0.158552 0.109847 83 107 142
-0.0935771 0.500627 0.495445 116 191 191
-0.0935771 0.506367 0.410954 116 192 180
0.494889 -0.541039 0.199366 191 59 153
-0.0935771 0.508765 0.407005 116 192 179
-0.100472 0.508765 0.484196 115 192 189
-0.117991 -0.369288 -0.31333 112 80 88
0.494911 -0.541039 0.256332 191 59 160
-0.0972257 0.508765 0.492334 115 192 190
-0.117991 -0.362003 -0.312205 112 81 88
-0.345856 -0.150414 0.0954218 83 108 140
-0.117991 -0.369704 0.142399 112 80 146
-0.0935771 0.508765 0.498872 116 192 191
0.500498 -0.541039 0.248837 191 59 159
0.419118 -0.264346 0.224816 181 94 156
-0.0683108 -0.077172 -0.240087 119 118 97
0.0040791 -0.0618583 -0.248225 128 120 96
0.378428 -0.541039 0.301053 176 59 166
0.0040791 -0.060896 -0.255877 128 120 95
-0.191233 -0.971518 0.18309 103 4 151
-0.0610251 -0.0721893 -0.240087 120 118 97
-0.191233 -0.969222 0.191228 103 4 152
0.412093 -0.256208 0.22378 180 95 156
0.49308 -0.532901 0.191228 190 60 152
-0.198498 -0.964216 0.207504 102 5 154
-0.191233 -0.964216 0.19952 103 5 153
0.493761 -0.532901 0.199366 190 60 153
0.494919 -0.532901 0.207504 191 60 154
0.0976966 -0.98863 0.26447 140 1 161
-0.0610251 -0.0632411 -0.35402 120 119 82
-0.0610251 -0.060896 -0.355728 120 120 82
0.0040791 -0.0608036 -0.256363 128 120 95
-0.0697395 -0.516625 -0.467952 119 62 68
0.101735 -0.98863 0.265944 140 1 161
0.496594 -0.532901 0.248194 191 60 159
0.378428 -0.534836 0.297022 176 59 165
-0.0941228 0.516903 0.402816 115 193 179
-0.0935771 0.515962 0.402816 116 193 179
-0.0610251 -0.060896 -0.233598 120 120 98
0.378428 -0.532901 0.295361 176 60 165
0.500498 -0.532901 0.241007 191 60 158
-0.117991 -0.353865 -0.3105 112 82 88
0.199391 -0.623777 -0.00408487 153 48 127
-0.0132948 0.321591 0.565576 126 169 200
0.194843 -0.622419 0.00405318 152 48 128
0.465116 -0.386417 -0.134293 187 78 110
-0.191233 -0.962438 -0.549332 103 5 57
-0.0610251 -0.0598204 -0.231949 120 120 98
-0.191233 -0.956078 -0.541676 103 6 58
0.594239 -0.00392991 0.166814 203 127 149
0.378428 -0.526855 0.288884 176 60 164
-0.0039368 -0.0364819 -0.39471 127 123 77
0.598154 -0.00867977 0.166814 204 126 149
0.195561 -0.614281 0.0121911 152 49 129
-0.00380404 -0.0364819 -0.378434 127 123 79
0.199391 -0.614281 0.00572278 153 49 128
0.378428 -0.524763 0.286994 176 61 164
0.101735 -0.98863 0.388491 140 1 177
0.101735 -0.990702 0.38654 140 1 177
0.194444 -0.606143 0.0121911 152 50 129
-0.191233 -0.94794 -0.540505 103 7 59
0.199391 -0.606143 0.0102553 153 50 129
-0.117991 -0.345727 -0.305419 112 83 89
0.0489185 0.272763 0.712061 134 162 218
0.0040791 -0.030506 -0.402848 128 124 76
0.494329 -0.524763 0.215642 191 61 155
-0.0198395 0.329729 0.573714 125 170 201
0.0529072 0.272045 0.720199 134 162 219
0.199391 -0.598005 0.0136368 153 51 129
-0.0121969 0.32774 0.573714 126 169 201
0.0529072 0.272763 0.720326 134 162 219
0.0040791 -0.0315624 -0.386572 128 123 78
-0.117991 -0.339233 -0.524918 112 84 61
-0.0952371 0.525041 0.402816 115 194 179
0.0040791 -0.028344 -0.381372 128 124 79
0.497317 -0.524763 0.22378 191 61 156
-0.10133 0.525041 0.410954 115 194 180
-0.100133 0.525041 0.459782 115 194 186
0.499139 -0.524763 0.248194 191 61 159
-0.0956639 0.525041 0.46792 115 194 187
0.500498 -0.524763 0.244488 191 61 159
0.378428 -0.518401 0.280746 176 61 163
-0.191233 -0.939802 -0.541425 103 8 58
0.378428 -0.516625 0.279633 176 62 163
-0.0935771 0.525041 0.471579 116 194 188
-0.0935771 0.533179 0.29764 116 195 165
