ply
format ascii 1.0
comment Created by Open3D
element vertex 1206
property double x
property double y
property double z
property uchar red
property uchar green
property uchar blue
end_header
0.494297 -0.997595 0.166412 191 0 149
-0.307152 0.916612 0.0762984 88 244 137
0.283215 0.139291 -0.622263 164 145 48
-0.241162 0.722865 0.363401 97 220 174
0.383426 -0.870585 -0.263017 176 17 94
-0.0600958 -0.813337 -0.238987 120 24 97
0.149632 0.837589 0.373515 147 234 175
-0.00643168 -0.798931 0.548292 127 26 197
-0.491501 0.627103 -0.172945 65 207 105
0.263121 -0.459916 0.0536394 161 69 134
0.59493 -0.280729 -0.250021 203 92 96
-0.567636 0.625554 -0.271555 55 207 93
0.191632 -0.996041 0.164182 152 1 148
0.177213 0.146505 0.359834 150 146 173
0.658925 -0.224739 0.0144566 212 99 129
-0.336721 0.457415 0.372658 85 186 175
-0.162139 -0.16522 -0.565736 107 106 55
-0.398584 0.0757848 0.0196758 77 137 130
0.265593 -0.225436 0.141157 161 99 145
0.389957 -0.285627 -0.524581 177 91 61
-0.0726703 -0.272128 -0.324457 118 93 86
-0.617928 0.476221 -0.319009 49 188 87
-0.23822 0.952591 0.0962687 97 249 140
-0.0173372 0.154861 -0.649073 125 147 45
-0.181111 -0.545685 -0.0772895 104 58 118
0.510478 -0.0589399 0.34494 193 120 171
-0.404318 0.8887 -0.0449688 76 241 122
0.256344 -0.575772 0.120408 160 54 143
0.039841 0.569128 -0.40304 133 200 76
0.127561 0.377951 0.515847 144 176 193
0.3103 -0.270066 -0.310103 167 93 88
-0.203672 0.957033 0.0236052 102 250 131
-0.0458537 -0.785307 0.380196 122 27 176
0.577695 -0.0739108 0.223061 201 118 156
0.0626234 0.668483 0.54599 135 213 197
-0.0374794 0.229601 -0.619934 123 157 48
0.274773 -0.732033 -0.0274482 163 34 124
0.266564 0.606737 0.0877938 161 205 139
0.44249 0.855064 -0.199554 184 237 102
0.317915 -0.766393 0.226448 168 30 156
0.172544 -0.429368 0.154658 149 73 147
0.556764 -0.258685 0.224418 198 95 156
-0.368673 -0.0746413 0.486527 80 118 190
0.208034 0.891931 0.255849 154 241 160
0.61396 -0.0320753 -0.224893 206 123 99
-0.547315 -0.946536 0.197154 58 7 153
0.0348291 0.637023 0.00901639 132 209 129
0.372852 0.434649 0.392372 175 183 178
-0.226105 0.317684 -0.514595 99 168 62
-0.602282 -0.301847 0.185714 51 89 151
-0.312329 -0.677275 0.18355 88 41 151
-0.283905 0.313774 -0.430585 91 168 73
0.120569 0.289004 0.471317 143 164 188
0.452108 -0.303446 -0.37013 185 89 80
0.36342 0.37432 0.353483 174 175 173
0.215998 -0.848904 0.560048 155 19 199
-0.0907705 0.545568 -0.414855 116 197 75
-0.254183 0.037498 0.393851 95 132 178
0.333351 -0.166193 0.594187 170 106 203
0.57556 0.426281 -0.367652 201 182 81
-0.483198 0.00740439 -0.364249 66 128 81
-0.651529 -0.245524 0.0530025 44 96 134
0.215053 -0.317556 -0.490059 155 87 65
0.120259 -0.742577 0.291257 143 33 165
0.350146 -0.232372 0.14561 172 98 146
0.138974 -0.263717 -0.17508 145 94 105
0.438232 -0.0331973 -0.451504 183 123 70
0.167076 -0.578065 0.240505 149 54 158
0.0706927 -0.994731 -0.0843249 137 1 117
-0.220554 0.595156 -0.112816 99 203 113
-0.411311 0.382416 -0.00475646 75 176 127
-0.498834 0.644817 -0.136579 64 210 110
-0.131599 -0.384035 0.152356 111 79 147
-0.0161979 -0.152152 -0.581109 125 108 53
-0.4929 0.123215 -0.287253 65 143 91
0.440753 0.0497883 -0.161225 184 134 107
0.420862 0.170469 -0.201684 181 149 102
-0.219774 0.886186 0.217742 99 240 155
0.385327 0.0995706 -0.279514 177 140 92
-0.417328 0.0276648 -0.564077 74 131 56
-0.341528 -0.323746 -0.403915 84 86 76
-0.00551488 -0.194995 -0.620843 127 103 48
-0.476228 -0.28775 -0.0239356 67 91 124
-0.177304 -0.895901 0.551565 105 13 198
-0.204586 0.819704 0.218133 101 232 155
-0.504216 0.251741 0.134014 63 160 145
0.53377 -0.949973 -0.00438975 196 6 127
0.24003 -0.468837 0.174709 158 68 150
0.233063 0.87379 0.0594088 157 239 135
-0.40753 0.64991 -0.261109 76 210 94
-0.184223 -0.396233 0.0364522 104 77 132
-0.139053 0.241098 0.418256 110 158 181
-0.475449 -0.977649 0.353087 67 3 173
-0.316133 0.58397 -0.163627 87 202 107
0.51555 -0.257129 -0.1785 193 95 105
0.265558 0.286059 -0.573528 161 164 54
0.551153 -0.249542 -0.360797 198 96 81
-0.271759 0.5561 0.00916686 93 198 129
-0.21956 -0.992369 0.497204 100 1 191
0.144176 0.778907 0.00229892 146 227 128
-0.102868 -0.273363 -0.304071 114 93 89
-0.240543 0.69159 0.216483 97 216 155
0.474609 -0.997662 0.183425 188 0 151
0.192425 0.474444 -0.423137 152 188 74
0.194816 -0.321802 -0.606614 152 86 50
0.116125 -0.841949 -0.352217 142 20 83
-0.141767 0.787176 0.26939 109 228 162
0.0175805 0.176351 -0.641644 130 150 46
0.419931 0.832374 -0.0633746 181 234 119
-0.405636 0.0190701 -0.122282 76 130 112
-0.00427024 -0.798999 -0.17864 127 26 105
-0.200317 -0.23962 0.402634 102 97 179
0.0111146 0.0486181 0.32752 129 134 169
0.539604 0.780615 -0.128783 196 227 111
-0.416782 0.175303 -0.230933 74 150 98
-0.24976 0.576532 -0.128163 96 201 111
-0.0418485 0.657273 0.548369 122 211 197
0.436366 0.290016 -0.430076 183 164 73
0.452615 -0.799345 -0.113648 185 26 113
-0.0206395 0.590627 -0.283802 125 203 91
-0.020097 -0.992957 0.368495 125 1 174
-0.307893 -0.993333 0.231188 88 1 157
0.356248 0.019192 -0.548562 173 130 58
-0.471906 -0.0606472 0.146295 67 120 146
-0.120171 0.742877 -0.0695658 112 222 119
0.350955 0.299581 -0.293092 172 166 90
-0.127454 -0.468168 0.214618 111 68 155
-0.476543 -0.705978 0.161849 67 37 148
-0.382198 -0.644979 0.221524 79 45 156
0.215198 -0.550545 -0.0493903 155 57 121
0.312699 0.577137 0.123548 167 201 143
-0.253102 0.579517 0.400726 95 201 179
-0.306689 0.244889 -0.561213 88 159 56
-0.240906 0.0393147 -0.668727 97 133 42
0.194731 0.231415 0.411175 152 157 180
-0.641827 -0.18683 -0.107728 46 104 114
-0.18553 0.757567 0.233973 104 224 157
0.496459 0.218571 -0.378097 191 155 79
-0.230261 0.729727 0.381832 98 221 176
0.0454278 0.303616 -0.586523 133 166 53
0.431822 -0.995011 0.335469 183 1 170
0.322111 -0.323774 -0.473008 169 86 67
-0.406886 0.50771 -0.308724 76 192 88
-0.428388 -0.27294 0.100906 73 93 140
0.07249 0.602746 -0.264943 137 204 94
0.154384 -0.319826 -0.0694735 147 87 119
-0.11584 -0.656556 0.276965 113 44 163
0.357242 0.544225 -0.336873 173 197 85
0.0435967 -0.831161 -0.358709 133 22 82
0.121955 0.778022 0.430741 143 227 182
0.178117 -0.243291 0.663374 150 96 212
0.275998 -0.986882 -0.37653 163 2 79
0.248475 0.0303881 0.341711 159 131 171
-0.14503 -0.926052 -0.411899 109 9 75
0.275915 0.602162 -0.130409 163 204 111
0.531755 -0.995961 -0.0465078 195 1 122
-0.382322 0.29265 -0.467688 79 165 68
0.27024 0.892815 0.0183485 162 241 130
0.00188456 -0.150049 -0.579699 128 108 54
-0.48405 -0.99506 0.219094 66 1 155
-0.363722 -0.958557 0.457043 81 5 186
0.449439 -0.777748 0.190268 185 28 152
0.424365 -0.805687 0.387229 182 25 177
-0.210778 0.684227 -0.0686745 101 215 119
-0.367419 -0.992712 -0.244572 81 1 96
0.43545 -0.00857981 -0.0934638 183 126 116
0.502618 -0.308206 -0.366983 192 88 81
0.0596183 0.0560892 -0.641248 135 135 46
0.496269 0.0963367 -0.457897 191 140 69
-0.405116 0.348258 0.294924 76 172 165
0.243643 -0.456242 0.108858 159 69 141
-0.457064 -0.0390492 -0.202431 69 123 102
0.420021 0.504272 -0.252356 181 192 95
-0.259431 -0.0328096 0.563074 94 123 199
-0.40982 -0.0351907 0.137769 75 123 145
-0.474865 -0.0679525 -0.159264 67 119 107
0.103937 0.778331 0.308911 141 227 167
-0.385084 -0.920482 0.46722 78 10 187
-0.209911 -0.267597 -0.178887 101 93 105
-0.512766 -0.038182 -0.310398 62 123 88
-0.245866 -0.993256 -0.123227 96 1 112
-0.185804 -0.992665 0.41211 104 1 180
-0.135823 0.147276 0.349445 110 146 172
-0.166374 -0.356757 -0.558667 106 82 56
0.316284 0.419964 0.411417 168 181 180
-0.369452 -0.251901 0.312535 80 95 167
-0.0902813 -0.411981 -0.136937 116 75 110
-0.155765 0.164157 -0.629213 108 148 47
0.359789 0.948779 -0.0304456 173 248 124
0.319252 0.0151809 0.439531 168 129 184
-0.491736 -0.069366 0.0812483 65 119 138
-0.358168 0.467043 -0.0927696 82 187 116
0.398344 0.598911 -0.190611 178 204 103
0.277243 -0.165594 0.619898 163 106 207
-0.104129 -0.62693 0.268848 114 48 162
-0.272325 -0.69973 0.0977805 93 38 140
0.422431 -0.766326 0.269752 181 30 162
-0.165714 0.00304304 -0.634884 106 128 47
0.250879 0.560806 0.498144 159 199 191
0.163229 -0.330064 -0.0298135 148 85 124
0.0407046 0.547161 0.609804 133 197 205
-0.222955 -0.49221 -0.0185123 99 65 125
0.477975 0.357062 0.0912579 188 173 139
-0.519882 -0.0572185 -0.328847 61 120 86
-0.411049 0.734911 -0.0954592 75 221 115
-0.457284 -0.270698 0.38121 69 93 176
0.6156 -0.105654 0.156262 206 114 147
-0.0750805 0.269339 0.459521 118 162 186
-0.125466 0.771605 -0.00237045 112 226 127
-0.249981 -0.993382 0.360222 96 1 173
-0.474739 0.796717 -0.0172962 67 229 125
0.474445 0.714527 -0.31626 188 219 87
0.280788 -0.23807 0.387509 163 97 177
-0.371418 0.486966 0.222475 80 190 156
0.380875 -0.325214 -0.494142 176 86 64
-0.294889 -0.346512 -0.565965 90 83 55
-0.430444 0.5922 -0.292557 73 203 90
0.312703 -0.758747 0.209036 167 31 154
0.564638 0.661834 -0.319503 199 212 87
0.538346 0.241391 0.112986 196 158 142
-0.285347 0.552171 -0.052582 91 198 121
-0.349269 0.513772 0.208281 83 193 154
0.0139004 -0.549624 -0.180858 129 57 104
-0.406177 0.222914 -0.490184 76 156 65
0.535851 0.680448 -0.192819 196 214 103
-0.317088 -0.332972 -0.433071 87 85 72
0.110628 -0.354766 -0.604479 142 82 50
-0.590741 -0.133247 0.0241256 52 111 131
0.418586 -0.777765 0.141932 181 28 146
-0.321894 -0.360899 -0.534671 86 81 59
-0.250273 0.031105 0.432077 96 131 183
0.0305416 -0.280878 -0.209068 131 92 101
0.242556 -0.283596 -0.601456 158 91 51
-0.264583 0.73479 0.282256 94 221 163
-0.0703356 -0.14711 -0.568804 119 109 55
0.234269 0.788311 0.319929 157 228 168
-0.02298 -0.0217288 -0.622941 125 125 48
0.31624 -0.999002 -0.224805 168 0 99
0.434162 -0.242018 0.302073 183 97 166
0.173781 -0.121523 0.641509 150 112 209
0.0252064 0.696201 0.170584 131 216 149
0.487566 0.00847501 0.307046 190 129 167
-0.438059 -0.658993 0.178554 72 43 150
0.250482 -0.902937 0.556226 159 12 198
-0.487931 -0.068059 -0.00474821 65 119 127
0.558902 -0.233354 0.366141 199 98 174
0.376849 0.045038 0.40425 176 133 179
0.300959 0.0309825 0.368401 166 131 174
0.131199 -0.518198 -0.202255 144 61 102
0.117339 -0.997353 -0.358383 142 0 82
0.137222 0.662901 0.0517734 145 212 134
0.261816 0.981315 -0.0169772 161 253 125
0.511824 0.57587 -0.256409 193 201 95
0.377012 0.110004 -0.233842 176 142 98
0.294798 -0.830258 -0.28364 165 22 91
0.44622 0.154093 -0.141155 184 147 110
0.511564 0.237498 0.195522 193 158 152
0.0692908 0.492521 -0.482339 136 190 66
0.152137 -0.271597 0.154612 147 93 147
-0.529015 0.663018 -0.12729 60 212 111
0.248376 0.740335 0.344554 159 222 171
-0.114341 0.613019 -0.159055 113 206 107
-0.398494 0.473617 0.109919 77 188 142
-0.584456 -0.134408 -0.0438181 53 110 122
-0.0202961 -0.306333 -0.172 125 88 106
0.36067 -0.945519 0.490456 173 7 190
0.267884 -0.0284962 -0.629669 162 124 47
0.250299 -0.996499 0.26189 159 0 161
0.210573 -0.450841 0.15961 154 70 148
0.525609 -0.911167 0.306206 195 11 167
0.576545 -0.164599 0.34288 201 107 171
-0.000223303 0.53863 -0.43363 127 196 72
0.276772 -0.99871 -0.175907 163 0 105
0.0811628 0.339171 -0.57941 138 171 54
0.392409 0.517626 -0.236498 178 193 97
-0.318382 -0.125965 0.553275 87 111 198
0.388254 -0.831974 -0.220912 177 21 99
0.446279 0.0775523 -0.520079 184 137 61
-0.272512 -0.81777 -0.0996292 93 23 115
0.276586 0.688623 -0.271174 163 215 93
-0.194663 0.633866 -0.17643 103 208 105
0.268817 0.273905 0.382192 162 162 176
0.354738 -0.260825 -0.257559 173 94 95
0.222864 -0.831965 0.543117 156 21 197
-0.502174 -0.728768 0.18271 63 35 151
0.155265 -0.497971 -0.182347 147 64 104
0.289067 -0.0292309 -0.611739 164 124 50
0.369126 0.530327 0.348171 175 195 172
-0.178968 -0.743044 -0.120631 105 33 112
-0.0651277 0.161098 -0.645753 119 148 45
0.349107 -0.989139 0.476852 172 1 188
0.523754 0.296416 0.0720247 194 165 137
0.321307 0.513139 -0.183626 168 193 104
-0.247788 0.118682 0.266239 96 143 161
0.607048 -0.0966723 0.0409238 205 115 133
0.249585 -0.593626 0.159364 159 52 148
-0.580666 0.668268 -0.224487 53 213 99
-0.0515797 -0.65399 -0.179377 121 44 105
0.365632 -0.12425 -0.479377 174 112 66
-0.271668 -0.265062 -0.0196747 93 94 125
0.224516 0.936187 -0.0628851 156 247 119
0.392051 -0.120965 -0.460112 177 112 69
-0.399992 -0.18983 0.527105 77 103 195
0.0613701 -0.995278 0.00961059 135 1 129
-0.499608 -0.960956 0.327577 64 5 169
0.508591 -0.230029 0.440931 192 98 184
0.305961 -0.311093 -0.444189 167 88 71
0.161015 0.293166 -0.557206 148 165 56
0.103564 -0.997299 -0.37812 141 0 79
-0.135845 -0.331043 -0.121613 110 85 112
-0.389466 -0.137082 0.500437 78 110 191
-0.150853 0.57336 -0.304788 108 201 89
0.181375 0.13745 -0.626333 151 145 48
0.0986846 -0.120255 -0.547997 140 112 58
-0.115093 -0.993049 -0.0300995 113 1 124
-0.228679 0.20626 -0.599158 98 154 51
-0.357674 0.182606 -0.545824 82 151 58
-0.471914 -0.261496 0.468184 67 94 187
-0.498354 -0.273393 0.324049 64 93 169
0.352959 -0.242438 -0.0891497 173 97 116
0.0710306 -0.811568 0.521492 137 24 194
0.130135 0.72419 -0.146336 144 220 109
0.21346 0.316176 0.428865 155 168 182
0.258763 -0.182772 -0.574429 160 104 54
-0.15452 0.901606 0.0731908 108 242 137
0.131531 -0.778915 0.385484 144 28 177
-0.0484976 -0.97653 -0.438898 121 3 72
0.139263 -0.995958 0.265355 145 1 161
-0.131946 -0.572448 0.223409 111 55 156
-0.409738 0.0630186 -0.214904 75 136 100
0.217887 0.10989 -0.641956 155 142 46
0.612423 -0.281584 -0.122982 206 92 112
-0.564049 -0.974708 0.152168 56 3 147
-0.136491 -0.992767 0.400639 110 1 179
-0.289348 0.842047 -0.135495 91 235 110
0.0703307 -0.369963 0.196279 136 80 153
-0.403303 -0.255293 0.324781 76 95 169
0.211848 0.254038 0.410441 155 160 180
-0.326224 -0.993873 0.188792 86 1 152
-0.0121631 0.353784 -0.566019 126 173 55
0.243595 -0.535132 0.0291756 159 59 131
0.284293 -0.511479 -0.0322138 164 62 123
-0.44485 0.108394 0.0485853 71 141 134
-0.421855 -0.973486 -0.22916 74 3 98
-0.473907 0.735613 -0.224258 67 221 99
0.245436 -0.535064 0.00619978 159 59 128
0.456305 0.820355 -0.062258 186 232 120
0.459857 0.440079 0.0648721 186 184 136
0.543151 0.165846 0.0228034 197 149 130
-0.603046 -0.144783 -0.260392 51 109 94
0.0584053 -0.812762 -0.186471 135 24 104
0.531856 0.034278 -0.207462 195 132 101
-0.282309 0.0661285 0.326144 92 136 169
0.397524 -0.77355 0.0202416 178 29 130
-0.123409 -0.239365 0.441387 112 97 184
-0.26596 -0.101909 -0.62923 94 115 47
0.202825 -0.243154 -0.152057 153 96 108
-0.233054 0.577124 0.00333337 98 201 128
-0.430768 -0.798453 0.0606963 73 26 135
0.0131006 0.468729 -0.501852 129 187 64
0.275714 -0.678532 -0.0146333 163 41 126
0.389214 0.358797 -0.171833 177 173 106
0.531537 0.151143 0.0140792 195 147 129
0.419644 -0.24817 0.393302 181 96 178
0.262433 0.619049 -0.303612 161 206 89
0.317085 -0.76327 0.137951 168 30 145
-0.137595 0.715597 0.247238 110 219 159
0.443949 0.263741 -0.4412 184 161 71
-0.464135 -0.282575 -0.0715375 68 91 118
-0.414921 -0.674459 0.267195 75 42 162
-0.195962 -0.347133 -0.529962 103 83 60
-0.13401 0.68214 0.22445 110 214 156
-0.506438 -0.719774 0.222856 63 36 156
-0.0150601 -0.993249 0.297956 126 1 165
0.195595 0.749396 -0.197927 152 223 102
0.50296 0.325193 0.163046 192 169 148
-0.100468 0.670861 0.476867 115 213 188
-0.109935 0.715687 0.270011 113 219 162
0.46053 0.333387 -0.0638727 186 170 119
-0.579895 0.715201 -0.16049 54 219 107
-0.271721 -0.835028 -0.247383 93 21 96
0.251077 0.71332 0.228741 160 218 157
-0.651436 0.515104 -0.238052 44 193 97
-0.537988 -0.979665 -0.0122636 59 3 126
-0.342016 0.242968 -0.54376 84 158 58
-0.304373 -0.306796 -0.364008 89 88 81
0.554417 -0.0523103 -0.276874 198 121 92
0.558852 0.657337 -0.199347 199 211 102
-0.38678 -0.000220167 -0.0441697 78 127 122
0.419323 0.0709016 -0.145666 181 137 109
0.257285 -0.719844 -0.0502516 160 36 121
0.564867 -0.0669657 -0.112349 200 119 113
0.204169 -0.921125 0.563154 154 10 199
-0.285038 -0.758434 0.201825 91 31 153
0.409959 0.52036 0.0440901 180 194 133
-0.567744 -0.278418 -0.382854 55 92 79
0.575272 -0.292534 -0.239756 201 90 97
-0.276433 0.601252 -0.131759 92 204 111
0.201228 -0.885465 0.578873 153 15 201
0.150653 -0.235902 -0.624767 147 97 48
0.235719 0.765903 -0.0519016 158 225 121
0.188033 -0.255347 0.119204 151 95 143
0.264511 -0.901527 -0.370911 161 13 80
-0.247171 0.482069 -0.314876 96 189 87
-0.462839 -0.875644 -0.162952 68 16 107
-0.560527 -0.0681561 -0.127608 56 119 111
-0.424739 -0.0174712 -0.255653 73 125 95
0.105304 -0.30896 -0.629208 141 88 47
0.0202042 0.520616 0.59461 130 194 203
0.395158 0.210947 -0.238531 178 154 97
0.305607 -0.757231 -0.0271652 166 31 124
-0.533668 -0.3366 -0.410532 59 85 75
-0.420584 -0.994671 0.315794 74 1 168
-0.374613 0.501683 -0.309372 80 191 88
0.108739 -0.422468 0.200854 141 74 153
-0.542154 -0.0981474 0.0714881 58 115 137
0.221496 -0.226845 0.653315 156 99 211
-0.552849 -0.934448 0.119765 57 8 143
-0.0300738 -0.996104 -0.378209 124 0 79
0.251483 -0.289664 -0.406118 160 91 76
0.583869 -0.216489 -0.308399 202 100 88
0.436318 0.0792535 -0.0645464 183 138 119
0.0134045 0.68575 0.143263 129 215 146
-0.316328 -0.251099 0.446465 87 95 184
-0.464387 0.159826 -0.106864 68 148 114
-0.343061 0.904947 0.0564395 84 243 135
-0.200348 -0.810712 0.410088 102 24 180
-0.554274 0.566413 -0.182801 57 200 104
0.352727 -0.191302 -0.537082 172 103 59
0.228869 -0.85365 -0.340935 157 19 84
0.418656 0.314271 -0.379687 181 168 79
0.464459 0.552687 -0.393738 187 198 77
-0.528609 0.785108 -0.10679 60 228 114
-0.158511 -0.850398 0.539631 107 19 196
-0.401201 -0.943635 0.443934 76 7 184
-0.220141 0.651139 0.121432 99 211 143
-0.255853 0.911206 -0.083247 95 244 117
0.38143 0.255664 -0.512212 176 160 62
0.100524 0.425986 -0.525845 140 182 60
0.465817 -0.767862 0.102429 187 30 141
0.220735 -0.251007 0.520017 156 95 194
-0.199729 -0.648541 0.213715 102 45 155
-0.214764 -0.473655 0.0912823 100 67 139
0.347413 0.0222853 -0.564047 172 130 56
-0.433324 -0.994759 0.272533 72 1 162
-0.287436 -0.771826 -0.0390662 91 29 123
-0.0767961 -0.100772 0.629833 118 115 208
0.165943 -0.348059 0.100845 149 83 140
-0.611346 -0.150045 0.00357513 50 108 128
0.249311 0.644057 0.403208 159 210 179
0.423696 0.451621 -0.0492149 182 185 121
0.343351 0.457833 -0.373496 171 186 80
-0.0608196 0.630087 -0.124756 120 208 112
-0.266856 -0.243032 0.382675 93 97 176
-0.054968 -0.993261 0.419941 120 1 181
0.277488 0.354709 -0.407899 163 173 75
-0.179669 0.459312 0.502186 105 186 192
0.045663 -0.638612 -0.184361 133 46 104
0.406874 0.10775 0.216164 179 141 155
0.348536 0.26671 0.324595 172 162 169
0.188008 0.624253 0.00469271 151 207 128
0.490834 0.752039 -0.139135 190 223 110
-0.0909971 -0.237468 0.432169 116 97 183
-0.181476 -0.332088 -0.0420542 104 85 122
0.337771 -0.983921 -0.346259 171 2 83
0.163169 0.892076 -0.0591206 148 241 120
0.00152005 -0.767016 0.400006 128 30 179
0.366689 -0.774358 0.289877 174 29 164
-0.637107 -0.220462 0.124124 46 99 143
-0.0333354 -0.932346 -0.435295 123 9 72
0.137095 -0.430866 0.182869 145 73 151
0.325162 -0.77743 -0.108429 169 28 114
-0.537311 -0.0488962 -0.136589 59 121 110
0.0807856 0.317909 0.507553 138 168 192
-0.1972 -0.993271 -0.187092 102 1 104
0.296327 -0.927028 -0.368849 165 9 80
0.258131 -0.778084 0.261978 160 28 161
0.400089 0.438144 0.369242 179 183 175
0.244581 0.892471 -0.135808 159 241 110
0.470848 0.055301 0.0723213 188 135 137
-0.257602 0.83039 0.23368 95 233 157
0.358044 0.326359 0.339221 173 169 171
-0.247358 -0.992731 0.412441 96 1 180
-0.476151 0.626594 -0.297458 67 207 90
0.183306 -0.990188 0.542977 151 1 197
0.575765 0.71867 -0.175558 201 219 105
-0.00101601 -0.99258 0.514684 127 1 193
-0.189123 -0.452605 0.0770158 103 70 137
-0.463282 -0.249421 -0.487103 68 96 65
-0.454501 0.652741 -0.285952 70 211 91
0.640574 -0.264975 0.0874743 209 94 139
-0.28439 -0.993162 -0.0727256 91 1 118
-0.439911 0.224938 -0.0153142 71 156 126
0.353439 -0.85534 0.490799 173 18 190
-0.192739 -0.00553961 0.428194 103 127 182
-0.37446 -0.286926 -0.214747 80 91 100
-0.142154 -0.63754 0.259239 109 46 161
0.604021 0.630929 -0.233834 205 208 98
0.359923 0.70465 -0.131619 173 217 111
-0.45239 -0.994252 -0.0175891 70 1 125
-0.490904 0.175543 0.200905 65 150 153
0.18484 0.949186 0.0110697 151 249 129
0.0426065 -0.994297 0.15775 133 1 148
-0.277564 0.180964 0.349602 92 151 172
0.372847 -0.257945 -0.251541 175 95 95
0.152596 0.892827 0.00665423 147 241 128
0.472184 -0.0737376 0.420547 188 118 181
0.217745 -0.926176 -0.394775 155 9 77
-0.284941 -0.0065947 0.475729 91 127 188
-0.120317 0.648244 -0.147525 112 210 109
0.228764 -0.631597 0.215511 157 47 155
-0.25943 0.453402 -0.375717 94 185 80
-0.624919 -0.207038 0.152266 48 101 147
-0.152155 -0.993183 0.038126 108 1 132
0.367648 0.877058 -0.182905 174 239 104
0.0559359 0.272214 -0.606901 135 162 50
0.164677 -0.207768 0.668719 148 101 213
0.217219 0.329068 -0.508174 155 169 63
-0.0320512 -0.787102 0.330019 123 27 170
-0.0715791 -0.646351 0.288452 118 45 164
0.186899 -0.0571773 -0.575821 151 120 54
-0.21092 0.462091 -0.423188 101 186 74
0.407123 -0.0811685 0.489651 179 117 190
0.379925 0.132701 -0.267425 176 144 93
0.00632644 -0.847475 -0.391449 128 19 78
-0.0415207 0.267714 -0.604124 122 162 50
0.20891 0.770966 0.00625883 154 226 128
0.0285955 -0.275186 -0.333744 131 92 85
0.576408 -0.284502 -0.283233 201 91 91
-0.344452 0.519316 0.264614 84 194 161
0.255976 0.591982 -0.309661 160 203 88
-0.0137758 0.521238 -0.438918 126 194 72
0.00914735 -0.204093 0.681027 129 101 214
-0.2386 -0.27626 -0.0039241 97 92 127
-0.405209 -0.993645 -0.150871 76 1 108
0.285886 -0.687335 0.120563 164 40 143
0.406039 -0.229194 0.144801 179 98 146
0.226984 -0.225747 -0.602943 156 99 51
-0.0680001 -0.156291 0.664288 119 108 212
0.127816 -0.304012 -0.470004 144 89 68
0.345608 0.0811293 0.350692 172 138 172
0.456217 0.745772 -0.146558 186 223 109
-0.0447866 -0.266989 -0.24307 122 93 97
-0.421192 0.146479 0.239604 74 146 158
-0.232679 -0.0576041 0.538112 98 120 196
-0.327295 -0.771705 0.0664247 86 29 136
-0.399641 -0.708165 0.094897 77 37 140
-0.0322806 -0.90078 -0.416553 123 13 74
-0.457527 -0.33546 -0.364955 69 85 81
0.0332428 0.207215 -0.630895 132 154 47
-0.306209 -0.259102 0.00604034 88 94 128
-0.587242 -0.35055 -0.263704 53 83 94
-0.384461 -0.312508 -0.326618 78 88 86
-0.34195 0.502302 0.0188523 84 192 130
0.407112 0.306165 -0.448922 179 167 70
0.00218546 0.0916843 -0.656707 128 139 44
0.634479 -0.130609 0.130024 208 111 144
-0.0725821 -0.994793 -0.296379 118 1 90
-0.0291425 -0.305089 0.221745 124 89 156
0.0118882 -0.995613 -0.303642 129 1 89
-0.0429062 0.191628 0.424671 122 152 182
-0.0827636 -0.0190618 -0.600475 117 125 51
0.508711 -0.892683 -0.0801793 192 14 117
-0.26232 0.541375 0.432978 94 197 183
0.573285 0.618995 -0.34566 201 206 83
0.346378 0.324567 -0.287991 172 169 91
-0.0238768 -0.0834671 -0.531145 124 117 60
0.0422378 -0.168618 0.670753 133 106 213
0.619102 -0.267219 0.0986118 206 93 140
-0.437869 0.147534 -0.506588 72 146 63
0.473422 -0.995091 0.296862 188 1 165
0.361899 0.070143 -0.585896 174 136 53
0.224527 -0.785816 -0.161847 156 27 107
-0.0355493 -0.150125 0.664278 123 108 212
-0.359718 -0.720168 0.108265 82 36 141
-0.359431 0.892279 -0.098524 82 241 115
0.182869 -0.45434 0.190272 151 70 152
-0.0640655 0.707869 0.383351 119 218 176
-0.361433 -0.941648 -0.300018 81 7 89
0.105253 -0.316216 -0.489922 141 87 65
-0.307615 0.0432393 -0.642862 88 133 46
0.0779386 -0.994855 0.345998 137 1 172
0.2825 -0.675415 0.0211705 164 41 130
-0.382599 0.902043 -0.0145368 79 243 126
-0.231618 -0.285697 0.0333471 98 91 132
-0.232295 -0.162896 -0.548429 98 107 58
-0.54738 -0.100662 0.00325833 58 115 128
-0.533541 0.602449 -0.162182 59 204 107
0.235866 0.266222 0.403328 158 161 179
-0.0251516 0.691875 0.218857 124 216 155
-0.0924544 0.650163 0.0579243 116 210 135
0.353741 0.546379 0.325781 173 197 169
0.0339415 0.628746 -0.032737 132 208 123
0.167897 0.542047 0.557453 149 197 199
-0.173372 -0.552683 0.175422 105 57 150
-0.109347 0.564182 0.571064 114 199 200
0.204406 -0.285744 -0.61411 154 91 49
0.351485 0.49525 0.396196 172 191 178
-0.370575 0.572803 -0.181561 80 201 104
0.56602 0.551108 -0.384623 200 198 78
-0.141605 0.186531 -0.621333 109 151 48
0.477611 0.653142 -0.206907 188 211 101
-0.0200355 0.0408989 0.380634 125 133 176
0.62702 -0.118279 0.0937451 207 112 139
-0.652195 -0.255857 -0.113787 44 95 113
-0.221324 -0.235159 0.2807 99 98 163
-0.400837 0.28849 -0.223832 76 164 99
0.0151236 -0.995293 -0.235223 129 1 98
0.322945 0.410475 -0.247975 169 180 96
0.542529 0.461749 -0.345323 197 186 83
0.117236 -0.991154 0.547711 142 1 197
0.347043 0.543813 0.15249 172 197 147
0.141227 -0.801342 -0.276688 146 25 92
0.655159 -0.182232 0.0647939 211 104 136
-0.0263223 -0.53561 -0.190934 124 59 103
0.415327 -0.233269 0.17556 180 98 150
-0.484901 0.832523 -0.0418334 66 234 122
-0.0561217 -0.601435 -0.163469 120 51 107
-0.399424 0.300463 -0.413513 77 166 75
0.567322 -0.0573962 0.125464 200 120 143
-0.303947 0.653666 -0.247123 89 211 96
0.426924 0.0702604 -0.00708167 182 136 127
-0.422714 0.876767 0.00241176 74 239 128
0.0763159 -0.481385 -0.166169 137 66 106
-0.228382 -0.99334 0.17321 98 1 150
-0.503353 -0.335044 -0.307751 63 85 88
-0.510258 -0.106685 0.214521 62 114 155
0.0263169 -0.994201 -0.00644987 131 1 127
0.367697 -0.228863 0.13503 174 98 145
0.416642 0.0269183 -0.028307 181 131 124
-0.42444 0.506964 -0.199509 73 192 102
-0.26475 -0.241833 -0.590745 94 97 52
-0.366992 -0.00220398 -0.00212121 81 127 127
0.431292 0.264787 -0.455795 182 161 69
-0.453789 -0.113591 0.381515 70 113 176
-0.191043 -0.52518 0.18812 103 61 151
0.483906 -0.82044 0.110739 189 23 142
0.589558 -0.266157 -0.0403302 203 94 122
0.507455 0.830137 -0.105647 192 233 114
0.116916 0.680905 0.483663 142 214 189
-0.194074 -0.786044 0.285481 103 27 164
-0.0159028 0.110621 0.368894 125 142 175
-0.559535 -0.171047 0.251669 56 106 160
-0.655277 -0.248145 -0.0553478 44 96 120
0.206751 0.241175 -0.610309 154 158 50
0.289175 0.0709754 -0.639385 164 137 46
-0.080353 0.306304 -0.5808 117 167 53
0.111933 0.809605 0.366198 142 231 174
-0.118058 0.0590908 -0.642362 112 135 46
-0.0222298 -0.994939 -0.279631 125 1 92
0.22179 -0.335159 -0.527834 156 85 60
0.470384 0.183627 -0.287706 187 151 91
-0.360994 -0.882491 -0.219849 81 15 99
-0.16286 -0.53123 -0.112533 107 60 113
-0.434191 -0.0133367 -0.505633 72 126 63
-0.450207 0.817344 -0.00548967 70 232 127
-0.0813494 -0.848034 -0.38019 117 19 79
0.379433 0.312368 -0.35342 176 167 82
-0.36247 -0.299156 -0.29298 81 89 90
0.603428 -0.141657 0.27715 204 109 163
-0.184536 0.562476 -0.213675 104 199 100
-0.500857 0.217044 0.153981 64 155 147
-0.283247 0.736349 -0.0676456 91 221 119
-0.290451 -0.993227 -0.17135 90 1 106
0.192096 -0.517596 0.201879 152 62 153
-0.557899 -0.882772 0.251357 56 15 160
-0.418525 0.417272 0.038537 74 181 132
0.397145 0.634649 -0.188692 178 208 103
-0.323123 0.855369 -0.0108184 86 237 126
-0.268424 -0.0324063 0.499043 93 123 191
0.0697809 0.706657 0.449189 136 218 185
-0.422272 0.285177 0.281319 74 164 163
0.259506 0.377815 -0.425251 161 176 73
0.0692767 -0.262688 -0.221474 136 94 99
-0.561765 -0.334941 -0.191503 56 85 103
-0.530641 -0.0937647 -0.0492181 60 116 121
-0.196615 -0.240562 0.294614 102 97 165
0.0840565 -0.990805 0.564206 138 1 199
-0.19581 -0.535051 -0.0718363 103 59 118
-0.543399 -0.0741439 -0.35553 58 118 82
0.389659 0.0594312 0.376907 177 135 176
-0.157852 -0.514982 -0.145602 107 62 109
0.289812 -0.992124 0.481734 164 1 189
0.588877 -0.253925 -0.288287 203 95 91
0.317473 0.583044 0.167207 168 202 149
-0.563035 -0.129825 -0.15316 56 111 108
-0.384047 -0.676044 0.283522 79 41 164
-0.00267935 -0.0857384 0.623517 127 117 207
0.528651 -0.242136 0.0114928 195 97 129
0.0398824 -0.994587 0.370826 133 1 175
-0.375593 -0.00531605 0.0919768 80 127 139
0.457321 0.0360135 -0.373467 186 132 80
-0.477526 0.160919 -0.271944 67 148 93
0.49446 0.122856 -0.465414 191 143 68
0.182225 -0.650354 -0.138949 151 45 110
0.0300868 -0.132423 0.659884 131 111 212
0.0890711 -0.339964 -0.623464 139 84 48
0.264911 -0.0731952 0.580877 161 118 202
0.19054 0.540481 -0.300285 152 196 89
-0.559869 -0.124197 0.127806 56 112 144
0.137982 0.00756665 -0.636167 145 128 46
0.258377 0.721149 -0.255512 160 219 95
-0.443548 -0.315508 -0.303019 71 87 89
0.437312 0.223335 -0.282073 183 156 92
0.345401 0.960313 -0.00201301 172 250 127
0.406884 0.0242156 -0.135483 179 131 110
-0.0189709 -0.275277 -0.638362 125 92 46
0.503424 0.049554 0.0872456 192 134 139
-0.167139 -0.370895 0.106434 106 80 141
0.399361 0.485133 -0.374573 178 189 80
0.103519 -0.843599 -0.386993 141 20 78
-0.469795 -0.672727 0.234429 68 42 157
-0.312647 -0.993547 0.354092 88 1 173
-0.416709 -0.845473 -0.16995 74 20 106
-0.259572 -0.241402 0.270384 94 97 162
-0.470595 0.231898 -0.370443 67 157 80
-0.277741 0.937803 -0.0253624 92 247 124
-0.272728 -0.993664 0.212406 93 1 155
0.353688 -0.230644 0.106768 173 98 141
-0.194447 0.141423 -0.629155 103 146 47
-0.0979234 0.686685 0.241024 115 215 158
0.234644 0.474989 -0.359765 157 188 82
-0.338595 0.450827 -0.2984 84 185 89
0.48744 -0.907507 -0.147916 190 12 109
0.250857 -0.96517 -0.395184 159 4 77
-0.46529 0.299038 0.0752403 68 166 137
0.366486 -0.772783 0.065735 174 29 136
-0.270159 -0.259594 0.51658 93 94 193
0.23185 -0.447652 0.0271939 157 70 131
0.365738 0.529368 -0.0514249 174 195 121
0.0287215 0.649003 0.0439258 131 210 133
-0.462347 0.037471 -0.506166 69 132 63
-0.0297606 -0.89663 0.582737 124 13 202
0.519715 0.787934 -0.216263 194 228 100
0.479767 -0.0250446 -0.0927361 189 124 116
0.167816 -0.0758012 0.607312 149 118 205
-0.578621 -0.122584 0.056702 54 112 135
0.368114 -0.814982 -0.236078 174 24 97
-0.118527 -0.980584 0.569268 112 2 200
0.197714 0.628983 0.0406199 153 208 133
0.648856 -0.181166 -0.054541 210 104 121
0.235205 0.519883 0.506753 157 194 192
0.608922 -0.133223 0.254996 205 111 160
-0.302818 -0.25715 0.498292 89 95 191
-0.450402 -0.0533291 -0.0084912 70 121 126
-0.427484 -0.0398243 0.0188752 73 122 130
-0.126515 -0.626349 -0.139068 111 48 110
0.202806 -0.764928 0.452028 153 30 185
-0.43513 -0.0435965 -0.138267 72 122 110
-0.470466 -0.671633 0.199855 68 42 153
0.414731 -0.236164 0.332036 180 97 170
0.45753 -0.998766 0.0598952 186 0 135
0.219591 0.500907 -0.336933 155 191 85
-0.338451 -0.260783 -0.567792 84 94 55
-0.202834 0.698707 -0.17719 102 217 105
0.414798 -0.220964 0.537422 180 99 196
-0.040531 -0.861498 0.532456 122 18 195
-0.467495 -0.286632 0.451509 68 91 185
-0.229365 -0.771923 -0.0631251 98 29 119
-0.266702 -0.968765 0.520874 93 4 194
0.137722 -0.175238 0.668788 145 105 213
0.439725 0.049513 0.0770615 184 134 137
0.502677 0.128299 -0.355164 192 144 82
-0.102071 -0.784489 0.306621 114 27 167
-0.500488 -0.264581 -0.458575 64 94 69
-0.0659638 0.0450779 0.336371 119 133 170
-0.00337292 0.186353 0.42737 127 151 182
0.121886 0.539829 -0.402067 143 196 76
0.132873 -0.382111 -0.0881161 144 79 116
-0.176436 -0.693746 0.251667 105 39 160
0.182909 0.871971 0.0514768 151 239 134
0.146857 -0.770533 -0.1646 146 29 107
0.407324 0.15454 -0.216622 179 147 100
-0.354608 0.454771 -0.125346 82 185 112
0.0680553 -0.388276 0.204012 136 78 154
0.0742026 0.517661 0.583864 137 194 202
-0.101753 0.494244 -0.468173 115 191 68
0.536321 -0.855925 0.262388 196 18 161
-0.420713 0.637138 -0.162991 74 209 107
-0.0707294 0.146636 0.38559 118 146 177
0.216273 0.975071 0.0638835 155 252 136
-0.253332 0.931822 -0.054491 95 246 121
0.340208 0.16118 0.230497 171 148 157
-0.433428 -0.0589273 -0.489138 72 120 65
-0.21269 -0.302096 -0.00951473 100 89 126
0.342869 -0.787823 0.362941 171 27 174
0.412381 -0.827817 0.402474 180 22 179
-0.334376 0.192197 -0.560093 85 152 56
0.555592 -0.255885 0.11442 198 95 142
0.464119 -0.236216 0.11471 187 97 142
0.462648 0.271454 -0.364788 186 162 81
-0.371462 -0.904617 0.473436 80 12 188
-0.370868 -0.668646 0.25249 80 42 160
-0.227672 -0.286958 -0.607678 98 91 50
0.163958 -0.959122 -0.410401 148 5 75
0.234762 -0.527745 -0.0314994 157 60 123
0.389322 0.760403 -0.143276 177 224 109
-0.31504 -0.245427 0.328203 87 96 169
0.422608 0.482002 0.127002 181 189 144
0.395128 -0.0665238 0.483046 178 119 189
0.163022 0.483112 -0.435149 148 189 72
0.629782 -0.14799 -0.0741424 208 109 118
-0.454449 -0.286607 -0.000746322 70 91 127
-0.17033 -0.284448 -0.327122 106 91 86
-0.0548993 -0.99404 -0.421462 121 1 74
-0.43894 0.540074 -0.184897 72 196 104
-0.422231 0.0437505 0.0871653 74 133 139
0.537032 0.112086 0.0763753 196 142 137
0.600882 0.560932 -0.260505 204 199 94
0.201404 -0.995677 0.294191 153 1 165
0.18594 -0.29836 0.052193 151 89 134
-0.537971 -0.101003 0.107241 59 115 141
0.0937304 -0.954631 -0.441148 139 6 71
-0.40158 0.614622 -0.268098 76 206 93
0.45044 0.305012 -0.0838505 185 166 117
0.363825 0.544916 0.301731 174 197 166
-0.508457 -0.285783 0.40571 63 91 179
0.0645652 -0.0587254 0.599386 136 120 204
0.241642 -0.243796 -0.20616 158 96 101
-0.251789 0.956989 0.0798925 95 250 138
0.484462 0.754214 -0.288968 189 224 91
0.559182 -0.124468 -0.262292 199 112 94
0.110967 -0.968719 0.583638 142 4 202
-0.33009 -0.806318 0.383628 85 25 176
0.107823 -0.794525 0.412617 141 26 180
0.451607 -0.811435 -0.0639975 185 24 119
0.626722 -0.233788 0.219287 207 98 155
-0.169992 0.632504 -0.0468469 106 208 122
0.480388 -0.975619 0.375905 189 3 175
-0.316385 0.00974467 -0.635377 87 129 46
0.545896 0.126483 0.163676 197 144 148
0.63906 -0.19456 0.180363 209 103 150
0.252541 -0.998642 -0.196821 160 0 102
-0.132281 -0.236195 0.341801 111 97 171
-0.598456 -0.0994938 -0.162924 51 115 107
-0.0378576 -0.835671 -0.328059 123 21 86
0.0751779 0.0494173 0.337875 137 134 171
0.441193 -0.260904 -0.252498 184 94 95
-0.517442 -0.994834 0.133015 62 1 144
-0.655554 0.508635 -0.257592 44 192 95
-0.604306 0.44033 -0.285428 50 184 91
0.171774 0.607025 -0.191791 149 205 103
-0.309761 0.337782 0.376494 88 171 176
-0.0188958 0.595532 -0.26057 125 203 94
-0.383047 0.489939 0.14239 79 190 146
0.324548 0.08311 0.15229 169 138 147
-0.448598 0.108605 -0.123205 70 141 112
0.33722 -0.998503 -0.0287009 170 0 124
-0.624245 -0.331787 -0.0275313 48 85 124
-0.229004 -0.773875 0.241397 98 29 158
-0.149953 -0.000780894 0.456886 108 127 186
0.590443 -0.0796014 0.0480855 203 117 134
-0.519718 0.532679 -0.28227 61 195 92
-0.496563 -0.0749665 -0.0375416 64 118 123
0.438375 0.853297 -0.0391417 183 236 123
0.229548 -0.190397 -0.590123 157 103 52
-0.0372865 0.474845 -0.473259 123 188 67
0.404203 -0.859861 -0.225093 179 18 99
0.396383 0.666365 -0.341641 178 212 84
0.262879 -0.791422 -0.15967 161 27 107
0.172179 -0.0959046 0.624018 149 115 207
-0.256535 0.809446 -0.0196666 95 231 125
-0.495253 -0.946959 0.337808 64 7 171
0.325377 0.522588 -0.133469 169 194 110
-0.500573 -0.176778 0.380825 64 105 176
0.453451 -0.15035 0.496087 185 108 191
-0.2876 -0.244626 0.229641 91 96 157
-0.177961 0.589827 -0.0244358 105 203 124
0.0877177 0.730867 0.425771 139 221 182
0.518413 -0.0562272 0.32668 194 120 169
-0.175811 -0.26976 -0.199503 105 93 102
0.490604 0.068249 0.243494 190 136 159
-0.0834903 0.0470565 0.306881 117 133 167
-0.251556 0.684914 0.370323 95 215 175
0.453449 0.806456 -0.0832863 185 230 117
0.396811 0.906123 -0.12926 178 243 111
0.348061 -0.103625 -0.484669 172 114 66
0.367403 -0.0443588 0.48313 174 122 189
-0.432512 0.191538 -0.453228 72 152 70
0.355181 -0.745651 0.242628 173 32 158
0.175707 0.541472 -0.323339 150 197 86
-0.402057 -0.030508 -0.546933 76 124 58
-0.27226 -0.993767 -0.220476 93 1 99
-0.217388 -0.620636 -0.0343715 100 48 123
0.422662 0.418287 -0.0903895 181 181 116
-0.220079 -0.516256 0.174043 99 62 150
0.142024 -0.994901 0.38183 146 1 176
0.49485 0.678545 -0.193627 191 214 103
0.0757649 -0.895006 -0.412806 137 13 75
-0.00604004 -0.249621 0.494705 127 96 191
-0.624048 -0.256965 0.1898 48 95 152
-0.447221 -0.0226454 -0.444891 70 125 71
-0.236317 -0.729828 -0.0574919 97 34 120
-0.460304 -0.0407953 0.187345 69 122 151
-0.336802 -0.83566 0.443354 85 21 184
0.0770465 -0.274416 0.637179 137 93 209
-0.180318 0.816945 0.247662 105 232 159
0.633221 -0.177467 0.211129 208 105 154
-0.503488 -0.295353 -0.0207162 63 90 125
0.124656 0.318751 0.493101 143 168 190
0.547256 -0.834427 0.236488 197 21 158
-0.499321 -0.782611 0.263458 64 28 161
-0.223319 0.826577 0.312986 99 233 167
-0.471702 -0.317566 -0.478139 67 87 67
0.392865 0.0707452 -0.295684 178 137 90
-0.585545 -0.341227 -0.171652 53 84 106
0.460473 -0.867073 0.38911 186 17 177
-0.0528621 -0.494109 -0.168238 121 65 106
0.403448 0.423242 0.33673 179 181 170
0.497225 0.599333 -0.246018 191 204 96
-0.484457 -0.290203 0.0100624 66 90 129
-0.0734227 0.40027 0.518929 118 179 194
0.575555 -0.121136 -0.292212 201 112 90
-0.360083 -0.123712 -0.563054 82 112 56
-0.377279 0.445611 -0.256945 79 184 95
-0.285566 0.855114 -0.00742691 91 237 127
0.147145 -0.992152 0.515359 146 1 193
-0.459929 0.235884 0.00762457 69 158 128
-0.473481 -0.0875423 0.274497 67 116 162
0.132117 0.742057 0.000422783 144 222 128
0.457519 -0.820583 0.330545 186 23 170
0.555481 -0.914735 0.0374474 198 11 132
0.516302 -0.999066 -0.0024569 193 0 127
-0.379898 0.812703 -0.0415972 79 231 122
0.451927 -0.779677 0.243394 185 28 159
0.605859 -0.267001 0.0199723 205 93 130
0.352779 -0.751241 0.104816 172 32 141
0.0810727 -0.776832 0.425214 138 28 182
0.355696 0.937868 0.0240915 173 247 131
0.485764 0.0968456 0.0321198 189 140 132
0.449423 0.319383 0.254165 185 168 160
-0.178342 -0.502654 -0.108035 105 63 114
0.400859 -0.772262 0.333284 179 29 170
0.610897 0.595925 -0.271237 205 203 93
0.30282 0.000592818 -0.622106 166 128 48
-0.102338 -0.789145 0.364879 114 27 174
0.26659 -0.0545526 0.55748 161 121 199
-0.269334 -0.973777 -0.357553 93 3 82
0.51128 0.238707 -0.00560866 193 158 127
0.0775905 -0.235794 -0.634873 137 97 47
-0.356108 -0.994171 0.322202 82 1 169
0.470867 0.407394 0.0125477 188 179 129
0.23025 -0.227142 0.24827 157 99 159
-0.427613 -0.352402 -0.438713 73 83 72
0.268384 -0.995177 0.375225 162 1 175
0.581423 -0.0264229 -0.274148 202 124 93
-0.315759 -0.230325 -0.57129 87 98 55
-0.576578 -0.22395 -0.359784 54 99 82
-0.213462 -0.472873 0.0115596 100 67 129
0.267863 -0.530576 -0.00535539 162 60 127
-0.172344 0.784323 0.028062 106 228 131
-0.270256 -0.809316 -0.119245 93 24 112
0.143709 0.586471 -0.21129 146 202 101
0.379883 -0.998895 0.0623223 176 0 135
-0.389087 -0.0357998 0.45661 78 123 186
0.219637 0.626192 0.061312 156 207 135
0.46652 0.784545 -0.109852 187 228 113
-0.440744 -0.849873 -0.145357 71 19 109
-0.553187 -0.196318 0.302858 57 102 166
-0.0287236 -0.322979 -0.632496 124 86 47
-0.281632 0.548877 -0.0296916 92 197 124
-0.047827 -0.782609 0.413574 121 28 180
0.515984 -0.929894 -0.106125 193 9 114
-0.469707 0.637978 -0.188402 68 209 103
-0.58948 -0.205288 -0.326824 52 101 86
0.552567 0.541078 -0.282366 198 196 91
0.461989 -0.773204 0.293265 186 29 165
0.338758 -0.883767 -0.321848 171 15 86
-0.417294 -0.174968 0.502864 74 105 192
0.268298 0.694709 -0.107078 162 216 114
0.511152 -0.0228293 0.0565963 193 125 135
0.0501621 -0.356582 -0.609461 134 82 50
0.342026 -0.999273 -0.202584 171 0 102
-0.185723 0.280294 -0.563721 104 163 56
-0.460081 0.111066 -0.500906 69 142 64
-0.568989 -0.19798 0.270232 55 102 162
0.176078 -0.345946 -0.603791 150 83 51
-0.158656 0.630002 -0.0108694 107 208 126
0.117878 -0.772486 -0.175809 143 29 105
-0.247747 0.428089 0.448792 96 182 185
0.1806 0.244362 0.425368 151 159 182
-0.0719499 0.70014 0.329229 118 217 169
0.316211 0.556997 -0.172585 168 199 105
-0.153374 0.426347 -0.497186 108 182 64
0.315147 0.0070447 -0.610984 168 128 50
0.577894 -0.0555004 -0.252026 201 120 95
0.331462 -0.776018 0.0363545 170 29 132
-0.532671 0.763793 -0.151194 60 225 108
0.319693 -0.23931 0.604863 168 97 205
0.0178139 -0.993932 0.174189 130 1 150
-0.193208 -0.489844 0.197627 103 65 153
-0.441996 0.190379 0.254457 71 152 160
-0.175795 0.103761 0.277025 105 141 163
-0.342997 -0.0620308 0.484315 84 120 189
-0.0158177 0.58324 -0.310248 125 202 88
0.415521 -0.24177 0.359091 180 97 173
0.259507 -0.616354 0.159393 161 49 148
0.130682 0.769289 -0.130113 144 226 111
-0.363085 -0.994039 0.177114 81 1 150
-0.227653 0.896234 -0.0801015 98 242 117
-0.431123 -0.280773 -0.0264462 73 92 124
0.345422 -0.836692 -0.250179 172 21 96
-0.0336333 -0.5557 0.263971 123 57 161
-0.247685 -0.649223 0.129711 96 45 144
0.0900859 0.240707 0.455466 139 158 186
0.385824 -0.998794 0.0414516 177 0 133
-0.292398 0.544995 0.370481 90 197 175
0.0545133 -0.242614 0.276392 134 97 163
-0.417177 -0.273028 0.462263 74 93 186
-0.103305 0.591112 -0.305257 114 203 89
-0.0222104 0.293636 0.489062 125 165 190
0.615844 -0.285933 -0.101561 206 91 115
-0.130803 0.596105 -0.224916 111 204 99
0.123347 -0.570484 0.263378 143 55 161
-0.29241 -0.24504 0.261506 90 96 161
-0.161154 -0.668605 -0.124441 107 42 112
0.377797 0.143775 -0.245784 176 146 96
0.0222043 -0.266482 0.649946 130 94 210
0.235977 0.638609 0.088999 158 209 139
-0.249492 -0.254566 0.518047 96 95 194
0.411048 0.890307 -0.155202 180 241 108
-0.0759537 -0.995452 -0.324928 118 1 86
-0.298427 0.0894006 -0.63338 89 139 47
0.238667 0.030553 -0.67216 158 131 42
-0.219195 0.724845 0.401071 100 220 179
-0.519523 -0.966828 0.282994 61 4 164
0.116981 -0.992773 0.510456 142 1 193
0.224037 -0.761942 0.385213 156 30 177
-0.167254 0.687071 -0.0130728 106 215 126
-0.609334 0.658867 -0.122747 50 212 112
0.211667 -0.0648119 -0.579141 154 119 54
0.00655875 0.255709 0.470173 128 160 187
-0.0797505 -0.0778284 0.6101 117 118 205
-0.199371 0.0793825 -0.624329 102 138 48
0.256298 -0.148272 0.616397 160 109 206
-0.389896 -0.659756 0.154862 78 43 147
0.387664 0.745698 -0.288262 177 223 91
-0.436644 0.106462 -0.168201 72 141 106
0.257717 -0.227092 0.229162 160 99 157
-0.191635 -0.992707 0.265341 103 1 161
-0.0529389 0.696217 0.473412 121 216 188
0.13156 -0.250734 0.512944 144 96 193
-0.0340257 -0.53181 0.262706 123 60 161
-0.189145 -0.0933575 -0.595802 103 116 52
-0.382516 -0.0952427 -0.562092 79 115 56
0.0129257 0.625849 -0.00833535 129 207 126
-0.455276 0.213515 -0.146408 69 155 109
0.363713 0.858042 -0.207178 174 237 101
0.346156 -0.157932 0.583297 172 107 202
0.305033 0.339019 -0.486869 166 171 65
0.0313995 0.674142 0.095339 132 213 140
-0.437173 -0.090643 -0.497675 72 116 64
-0.452275 -0.05228 0.336131 70 121 170
0.0134441 -0.993612 0.45778 129 1 186
0.501492 0.166436 -0.433558 191 149 72
-0.0615179 -0.492021 0.276241 120 65 163
-0.404401 -0.104348 0.450232 76 114 185
-0.417708 0.118171 -0.262853 74 143 94
0.490012 -0.274623 -0.277096 190 92 92
-0.402387 -0.208631 -0.510499 76 101 62
0.458969 -0.00823909 -0.422414 186 126 74
-0.515316 -0.9944 0.172585 62 1 150
-0.219112 0.902644 0.104399 100 243 141
-0.233946 -0.196448 0.633445 98 102 208
0.52069 0.812079 -0.167374 194 231 106
-0.336417 0.77602 -0.0962304 85 226 115
0.533606 -0.250178 0.119018 196 96 143
0.2619 0.99778 0.047158 161 255 134
0.23764 -0.313534 -0.472889 158 88 67
0.396289 -0.231919 0.0368788 178 98 132
0.475304 -0.795024 0.0744375 188 26 137
-0.0106584 0.67408 0.533717 126 213 196
0.0819149 -0.788631 -0.239392 138 27 97
-0.443665 -0.835428 0.290669 71 21 165
0.224318 0.662266 -0.249063 156 212 96
0.375125 -0.996992 0.249562 175 0 159
-0.315733 -0.849352 -0.186907 87 19 104
0.655877 -0.212973 -0.0383334 211 100 123
-0.457923 0.0941139 0.259458 69 139 161
0.0418898 -0.798387 0.499865 133 26 191
0.0607062 -0.123568 -0.550756 135 112 57
0.652353 -0.250647 -0.041519 211 96 122
-0.223605 -0.775216 -0.097289 99 29 115
-0.515222 -0.793643 0.22383 62 26 156
0.421613 -0.187415 0.530473 181 104 195
0.0672279 0.212944 -0.619537 136 155 49
0.28678 0.847563 -0.0421101 164 236 122
-0.318415 -0.993275 0.1514 87 1 147
-0.429925 0.439338 -0.230652 73 184 98
-0.136511 0.665661 -0.148981 110 212 109
0.130311 -0.249647 0.482053 144 96 189
0.562615 0.686241 -0.288942 199 215 91
-0.163056 -0.72087 0.26138 107 36 161
0.521212 0.529877 -0.289713 194 195 91
0.41138 0.0861142 0.0325099 180 138 132
0.52139 -0.0107793 -0.389852 194 126 78
0.007377 -0.175714 0.675729 128 105 214
0.328124 0.9668 -0.0138972 169 251 126
0.273317 0.801208 -0.0325458 162 230 123
0.379027 0.225227 -0.524311 176 156 61
0.0681633 0.722219 0.332009 136 220 170
0.280058 0.633359 0.192653 163 208 152
-0.107343 -0.716698 -0.166663 114 36 106
0.199053 -0.996414 0.0574814 153 0 135
-0.380376 -0.993325 -0.178904 79 1 105
-0.193869 -0.145428 0.628437 103 109 208
-0.387985 0.0136406 -0.575917 78 129 54
-0.41494 -0.0150392 0.429353 75 126 182
-0.0646415 0.420489 -0.519534 119 181 61
0.167869 0.0279015 0.390799 149 131 177
-0.010066 -0.992198 0.530903 126 1 195
-0.557486 -0.310566 -0.0718231 56 88 118
-0.394992 -0.016535 -0.244571 77 125 96
0.273855 0.00826961 0.401813 162 129 179
-0.375749 -0.0405699 -0.588732 80 122 52
-0.244649 -0.76565 0.169553 96 30 149
-0.174421 -0.775846 0.369712 105 29 175
-0.0963964 0.713669 0.291731 115 218 165
-0.0992902 0.0315866 0.384859 115 132 177
-0.0316078 0.676952 0.527856 123 214 195
0.249151 0.505207 -0.272436 159 192 93
0.237393 0.459339 -0.375982 158 186 80
0.0659524 -0.551561 -0.182326 136 57 104
0.495785 -0.155063 0.455083 191 108 186
-0.416186 0.286771 -0.35562 74 164 82
0.582898 -0.109867 0.28988 202 113 164
-0.367779 -0.282075 -0.182316 81 92 104
-0.00771546 -0.0672354 -0.572853 127 119 54
0.355991 -0.230107 0.0475801 173 98 134
-0.29601 -0.993155 0.428325 90 1 182
-0.0540038 -0.632919 -0.172499 121 47 106
-0.625843 -0.297293 0.163854 48 90 148
-0.386931 0.46677 0.244115 78 187 159
-0.00406868 0.630943 0.0147657 127 208 129
0.336923 -0.151028 -0.514964 170 108 62
-0.133059 0.491204 0.542651 111 190 197
-0.300431 -0.991953 0.485731 89 1 189
-0.218711 -0.23819 0.320168 100 97 168
-0.119377 -0.273501 -0.271233 112 93 93
0.193127 0.434473 -0.456465 152 183 69
0.271557 -0.807391 0.467133 162 25 187
-0.215488 -0.299007 -0.371205 100 89 80
0.373864 0.899255 -0.155853 175 242 108
0.530129 0.270369 0.133725 195 162 145
0.493141 0.764871 -0.117792 190 225 112
-0.402058 -0.994555 0.354578 76 1 173
-0.133366 0.577123 -0.335059 110 201 85
-0.508733 -0.276479 0.182387 63 92 151
0.565062 -0.0876841 -0.254109 200 116 95
0.314776 -0.229677 0.265139 168 98 161
-0.197024 0.812489 0.0305483 102 231 131
-0.0698482 -0.784352 -0.214842 119 27 100
0.557174 -0.0696096 -0.164221 199 119 107
-0.623683 -0.138352 -0.171423 48 110 106
-0.0316211 0.0282253 0.433076 123 131 183
0.321625 -0.0507539 -0.566749 169 121 55
0.144356 0.0244962 0.424244 146 131 182
0.0152326 0.687387 0.513636 129 215 193
-0.152232 -0.993034 0.0843795 108 1 138
0.256154 0.516162 0.492974 160 193 190
-0.448025 0.31799 0.227608 70 168 157
0.0306911 0.594072 -0.329643 131 203 85
0.145822 -0.259623 0.654448 146 94 211
-0.44666 -0.28285 -0.0893144 71 91 116
-0.200415 0.421603 -0.482382 102 181 66
-0.34853 -0.123247 0.527131 83 112 195
-0.33236 0.194975 0.345021 85 152 171
-0.611331 -0.308075 -0.300734 50 88 89
-0.456942 -0.175781 -0.446993 69 105 71
-0.492629 0.27346 0.170453 65 162 149
0.268402 -0.623022 0.141859 162 48 146
0.381254 0.136451 -0.578587 176 145 54
0.396631 0.444854 -0.276485 178 184 92
0.341389 0.0672332 0.168892 171 136 149
-0.206522 -0.842313 -0.252489 101 20 95
0.561326 -0.17264 0.369465 199 105 175
0.257002 -0.253369 0.5403 160 95 196
0.43165 0.00268305 -0.125186 183 128 112
-0.148039 -0.235474 0.34983 109 97 172
-0.214139 0.626578 -0.190358 100 207 103
-0.0165359 0.402153 -0.536339 125 179 59
0.247082 -0.22881 0.190589 159 98 152
-0.262155 -0.131692 -0.576207 94 111 54
-0.0854969 -0.540506 0.235404 117 59 158
0.373137 0.531361 -0.0167928 175 195 125
-0.061333 -0.262902 -0.286773 120 94 91
-0.505021 -0.256589 0.417189 63 95 181
-0.179704 -0.77009 -0.119745 105 29 112
-0.649333 -0.299407 0.0609967 45 89 135
0.395244 0.484469 0.209858 178 189 154
-0.420846 -0.757902 0.084567 74 31 138
0.500394 -0.952984 -0.141221 191 6 109
-0.449306 0.165194 -0.0359212 70 149 123
0.0490871 -0.226245 0.68314 134 99 215
-0.395942 -0.881079 0.426635 77 15 182
-0.43294 0.0909636 -0.0305812 72 139 124
0.259368 0.0378767 -0.658721 161 132 44
-0.533969 -0.913235 -0.0378038 59 11 123
0.290477 0.596086 0.103005 165 204 141
-0.226715 -0.508382 0.134836 99 63 145
-0.636519 -0.242303 0.138136 46 97 145
0.161838 0.905041 -0.0231842 148 243 125
-0.381765 -0.256748 0.204674 79 95 154
0.411914 0.316596 -0.403797 180 168 76
0.186362 0.460419 0.516141 151 186 193
0.0336931 -0.648137 0.303663 132 45 166
