ply
format ascii 1.0
comment Created by Open3D
element vertex 1211
property double x
property double y
property double z
property uchar red
property uchar green
property uchar blue
end_header
0.158499 -0.779975 0.410857 148 28 180
0.101536 -0.912827 -0.411031 140 11 75
0.112165 0.598025 -0.223868 142 204 99
0.0689862 -0.525848 -0.199456 136 60 102
0.0689862 -0.52495 -0.200193 136 61 102
0.117811 0.59498 -0.223868 143 203 99
0.0689862 -0.52495 0.263455 136 61 161
0.0689862 -0.516812 -0.201577 136 62 102
0.366996 0.475962 0.370169 174 188 175
0.158499 -0.781272 0.451544 148 28 185
0.418899 -0.845202 -0.215731 181 20 100
-0.232101 0.866562 0.195619 98 238 152
0.0689862 -0.519177 0.272519 136 61 162
0.445675 -0.826037 -0.142493 184 22 109
0.370074 0.475962 0.365197 175 188 174
0.0629706 -0.516812 0.280657 136 62 163
0.451449 -0.831687 -0.142493 185 21 109
0.418899 -0.843504 -0.207593 181 20 101
0.0689862 -0.516812 0.274793 136 62 163
0.362466 0.475962 0.386444 174 188 177
0.446966 -0.826037 -0.0692559 184 22 119
-0.411126 0.17002 -0.484268 75 149 66
0.418899 -0.841958 -0.199456 181 20 102
0.451449 -0.827691 -0.0692559 185 22 119
-0.413197 0.174875 -0.476131 75 150 67
0.196221 -0.533087 -0.0855309 153 60 117
0.067357 -0.508675 0.280657 136 63 163
-0.411126 0.174875 -0.478536 75 150 66
-0.386962 0.00398755 -0.297106 78 128 90
-0.533189 -0.296358 0.0365315 60 90 132
-0.00425132 -0.283779 -0.419168 127 91 74
0.0689862 -0.508675 0.278849 136 63 163
0.117811 0.598899 -0.215731 143 204 100
-0.00425132 -0.280899 -0.411031 127 92 75
-0.533189 -0.29658 0.0446691 60 90 133
0.199186 -0.533087 -0.0825078 153 60 117
0.418899 -0.841032 -0.191318 181 20 103
0.418899 -0.834175 -0.186105 181 21 104
-0.386714 0.00398755 -0.296839 78 128 90
-0.411126 0.174875 -0.268806 75 150 93
-0.00425132 -0.280825 -0.410769 127 92 75
0.117811 0.601048 -0.191318 143 204 103
0.418899 -0.826883 -0.183181 181 22 104
0.0689862 -0.503014 0.280657 136 63 163
0.0689862 -0.500538 0.282753 136 64 164
-0.191414 0.467825 -0.434371 103 187 72
0.449585 -0.8179 0.337619 185 23 171
0.451449 -0.819246 0.337619 185 23 171
0.362196 0.4841 0.378307 174 189 176
0.627855 -0.272687 -0.175043 208 93 105
0.628144 -0.272687 -0.166906 208 93 106
-0.00425132 -0.278825 -0.402893 127 92 76
0.32202 -0.744662 0.166732 169 33 149
0.370074 0.492238 -0.354858 175 190 82
0.199186 -0.530413 -0.0855309 153 60 117
0.0689862 -0.4924 0.285915 136 65 164
0.325511 -0.744662 0.174869 169 33 150
-0.535868 -0.288962 0.353894 59 91 173
0.625682 -0.272687 -0.158768 207 93 107
0.624564 -0.272687 -0.150631 207 93 108
0.418899 -0.818648 -0.142493 181 23 109
-0.411126 0.183013 -0.271248 75 151 93
0.191071 -0.52495 0.199282 152 61 153
0.0672022 -0.484262 0.288794 136 66 164
0.0689862 -0.484262 0.286878 136 66 164
0.329386 -0.740988 0.166732 169 33 149
-0.232101 0.878764 0.199282 98 240 153
0.191522 -0.516812 -0.150631 152 62 108
0.451449 -0.8144 -0.0122934 185 24 126
-0.232101 0.882838 0.201101 98 240 153
0.329386 -0.743104 0.174869 169 33 150
0.0689862 -0.47927 0.288794 136 66 164
0.370074 0.494154 -0.354068 175 191 82
0.0689862 -0.476125 0.289703 136 67 164
0.370074 0.500375 -0.351815 175 191 83
0.451449 -0.813256 -0.00415594 185 24 127
0.630474 -0.278745 -0.0936684 208 92 116
0.197274 -0.516812 0.191144 153 62 152
0.630474 -0.276141 -0.0855309 208 92 117
0.443317 -0.809762 0.337619 184 24 171
0.192137 -0.516812 0.199282 152 62 153
0.329386 -0.335332 -0.524956 169 85 61
0.418899 -0.803275 -0.0611184 181 25 120
0.192329 -0.516812 0.207419 152 62 154
0.329386 -0.332388 -0.516818 169 85 62
0.418899 -0.801625 -0.0629928 181 25 119
0.0689862 -0.467987 0.287691 136 68 164
0.329386 -0.331354 -0.508681 169 85 63
0.418899 -0.801625 -0.0606106 181 25 120
0.418899 -0.806195 -0.00415594 181 25 127
-0.0668658 -0.573775 -0.150631 119 54 108
-0.411126 0.190144 -0.272693 75 152 93
-0.191414 0.500375 0.499291 103 191 191
-0.0612138 -0.573775 -0.152778 120 54 108
0.192123 -0.508675 -0.158768 152 63 107
0.192462 -0.508675 -0.150631 152 63 108
-0.0612138 -0.565681 -0.158768 120 55 107
0.198385 -0.508675 -0.142493 153 63 109
0.370074 0.508512 -0.349462 175 192 83
-0.324591 0.38645 -0.264556 86 177 94
0.199186 -0.508675 -0.142264 153 63 109
0.626204 -0.26455 -0.158768 207 94 107
0.199186 -0.508743 0.191144 153 63 152
0.117811 0.658133 0.0202566 143 211 130
-0.321614 0.387507 -0.272693 86 177 93
0.199186 -0.509527 0.199282 153 63 153
-0.321614 0.394587 -0.271663 86 178 93
0.418899 -0.799244 -0.0692559 181 26 119
-0.326131 0.394587 -0.232006 86 178 98
0.199186 -0.515333 0.239969 153 62 158
-0.418552 0.199287 -0.476131 74 153 67
-0.321614 0.396277 -0.272693 86 178 93
0.192689 -0.500538 -0.150631 152 64 108
-0.321614 0.402725 -0.275302 86 179 92
0.199186 -0.506232 -0.142493 153 63 109
-0.326555 0.402725 -0.232006 86 179 98
-0.533189 -0.285497 0.313206 60 91 167
0.199186 -0.500538 -0.143113 153 64 109
-0.325364 0.402725 -0.223868 86 179 99
0.370074 0.51665 -0.348285 175 193 83
0.630474 -0.265116 -0.0367059 208 94 123
0.418019 -0.793487 0.345757 181 26 172
-0.414339 0.207425 -0.484268 75 154 66
0.418899 -0.794315 0.345757 181 26 172
0.199186 -0.499025 -0.142493 153 64 109
-0.145665 -0.549362 -0.0855309 109 57 117
-0.541042 -0.280825 0.362032 59 92 174
-0.142589 -0.549362 -0.0888243 109 57 116
0.418899 -0.793487 0.346919 181 26 172
0.329386 -0.30468 -0.443581 169 89 71
-0.386714 0.012125 0.433144 78 129 183
-0.536359 -0.280825 0.370169 59 92 175
0.451449 -0.807418 0.0528066 185 25 134
0.451449 -0.805609 0.060944 185 25 135
-0.321614 0.419 -0.278475 86 181 92
0.117811 0.677359 -0.150631 143 214 108
0.117811 0.6794 -0.150034 143 214 108
-0.32885 0.427137 -0.199456 86 182 102
0.449077 -0.793487 -0.126218 185 26 111
0.418899 -0.788564 -0.0285684 181 27 124
0.451449 -0.794938 -0.126218 185 26 111
-0.328628 0.435275 -0.191318 86 183 103
-0.533189 -0.278968 0.321344 60 92 168
-0.323098 0.435275 0.410857 86 183 180
-0.533189 -0.277974 0.337619 60 92 171
-0.149575 -0.533087 0.191144 108 60 152
-0.191414 0.548648 -0.288968 103 197 91
0.418899 -0.789925 0.353894 181 27 173
0.329386 -0.280815 -0.378481 169 92 79
0.624391 -0.256412 -0.166906 207 95 106
-0.142589 -0.533087 0.194165 109 60 152
0.329386 -0.277947 -0.370343 169 92 80
-0.14766 -0.52495 -0.158768 109 61 107
0.329386 -0.278383 -0.362206 169 92 81
0.304974 -0.907412 -0.341865 166 12 84
-0.327266 0.443413 -0.191318 86 184 103
-0.329113 0.443413 -0.183181 86 184 104
0.304974 -0.899275 -0.340991 166 13 84
0.418899 -0.779375 -0.109943 181 28 113
-0.0612138 -0.500538 0.279412 120 64 163
0.117811 0.687538 0.4571 143 215 186
0.304974 -0.899275 0.519585 166 13 194
0.304974 -0.891137 -0.340775 166 14 84
0.447112 -0.793487 0.313206 185 26 167
0.451449 -0.794503 0.313206 185 26 167
-0.195533 0.5492 -0.207593 103 198 101
-0.325317 0.45155 -0.191318 86 185 103
-0.324047 0.45155 -0.183181 86 185 104
0.444152 -0.793487 0.321344 184 26 168
0.264286 -0.931825 0.536576 161 9 196
0.622859 -0.248275 -0.175043 207 96 105
0.416539 -0.777212 0.060944 181 28 135
0.418899 -0.782332 0.060944 181 28 135
0.451449 -0.790152 -0.0529809 185 27 121
0.116432 0.695675 0.451544 142 216 185
0.418899 -0.777212 0.0626074 181 28 135
0.304974 -0.866725 0.531104 166 17 195
0.117811 0.695675 0.451657 143 216 185
-0.250653 -0.240137 0.101632 96 97 140
0.304974 -0.864691 -0.329656 166 17 85
0.4138 -0.777212 0.142319 180 28 146
-0.248376 -0.241207 0.101632 96 97 140
0.418899 -0.778033 0.142319 181 28 146
0.304974 -0.858587 -0.323254 166 18 86
0.304974 -0.858587 0.528989 166 18 195
0.418899 -0.777212 0.143482 181 28 146
0.416086 -0.777212 0.288794 181 28 164
-0.324456 0.459687 0.386444 86 186 177
0.451449 -0.7932 0.166732 185 26 149
0.418899 -0.779834 0.288794 181 28 164
-0.0612138 -0.467987 0.25484 120 68 160
0.418899 -0.777212 0.286054 181 28 164
-0.321614 0.459687 0.391576 86 186 177
0.418899 -0.777212 0.292004 181 28 165
-0.142589 -0.491476 -0.126218 109 65 111
0.451449 -0.786746 0.174869 185 27 150
0.304974 -0.851543 0.524782 166 19 194
0.451449 -0.78535 0.176024 185 27 150
0.304974 -0.85045 0.524068 166 19 194
0.443337 -0.78535 0.207419 184 27 154
0.490408 0.508512 -0.394756 190 192 77
-0.0693286 -0.45985 0.248107 119 69 159
0.451449 -0.789976 0.207419 185 27 154
-0.191414 0.55285 -0.207593 103 198 101
-0.0612138 -0.45985 0.252099 120 69 160
0.158499 -0.562667 -0.166906 148 56 106
-0.191414 0.553166 -0.199456 103 198 102
0.418899 -0.769075 0.066185 181 29 136
0.158499 -0.564749 -0.158768 148 55 107
0.158499 -0.56306 -0.150631 148 56 108
0.446116 -0.78535 0.215557 184 27 155
0.418899 -0.772832 0.134182 181 29 145
0.158499 -0.559475 -0.142493 148 56 109
0.451449 -0.79025 0.215557 185 27 155
0.157445 -0.5575 -0.134356 148 56 110
0.490296 0.51665 -0.402893 190 193 76
0.418899 -0.774808 0.191144 181 29 152
0.158499 -0.5575 -0.132859 148 56 111
-0.0612138 -0.454554 0.248107 120 70 159
-0.0612138 -0.451712 0.240881 120 70 158
0.158499 -0.556689 -0.134356 148 57 110
0.451449 -0.777212 0.138871 185 28 145
0.451449 -0.778411 0.183007 185 28 151
0.451449 -0.777258 0.191144 185 28 152
-0.191414 0.565475 -0.192559 103 200 103
0.451449 -0.781724 0.199282 185 28 153
0.418899 -0.772262 0.256244 181 29 160
0.304974 -0.83116 -0.264556 166 22 94
-0.411126 0.264388 -0.230745 75 161 98
0.304974 -0.830196 -0.256418 166 22 95
0.158499 -0.541225 -0.195684 148 58 103
0.304974 -0.826037 -0.253291 166 22 95
-0.191414 0.571831 -0.191318 103 200 103
0.370074 0.530348 -0.0285684 175 195 124
0.304974 -0.8179 -0.251292 166 23 95
0.451219 -0.777212 0.248107 185 28 159
0.414341 -0.769075 0.288794 180 29 164
-0.500639 0.630575 -0.146674 64 208 109
0.451449 -0.777403 0.248107 185 28 159
0.418899 -0.769075 0.294618 181 29 165
-0.500639 0.634582 -0.142493 64 208 109
0.117811 0.715966 0.223694 143 219 156
0.117811 0.71415 0.231832 143 219 157
-0.411126 0.272525 -0.230323 75 162 98
0.158499 -0.52495 0.229106 148 61 157
0.451449 -0.773113 0.134182 185 29 145
0.155604 -0.516812 0.231832 147 62 157
0.158499 -0.516812 0.230378 148 62 157
0.297729 -0.801625 -0.215731 165 25 100
-0.390423 0.044675 -0.272693 78 133 93
-0.386714 0.0377738 -0.272693 78 132 93
-0.00425132 -0.215725 -0.629441 127 100 47
-0.191414 0.584965 -0.101806 103 202 115
-0.386714 0.044675 -0.269737 78 133 93
0.15155 -0.508675 0.239969 147 63 158
-0.191414 0.589888 -0.103853 103 203 114
-0.00425132 -0.207587 -0.625221 127 101 48
0.264286 -0.849769 -0.321518 161 19 87
0.304974 -0.794257 -0.207593 166 26 101
0.158499 -0.507151 0.239969 148 63 158
0.113241 0.728225 0.443407 142 220 184
0.152702 -0.500538 0.248107 147 64 159
0.264286 -0.848541 -0.313381 161 19 88
0.117811 0.728225 0.445257 143 220 184
0.264286 -0.842312 -0.307294 161 20 88
0.158499 -0.500538 0.245084 148 64 159
0.41858 -0.760938 0.305069 181 30 166
0.418899 -0.761242 0.305069 181 30 166
0.264286 -0.842312 0.50431 161 20 192
0.264286 -0.840745 -0.305243 161 20 89
0.258423 -0.834175 0.500369 160 21 191
0.264286 -0.83885 0.500369 161 21 191
0.157507 -0.4924 0.248107 148 65 159
-0.0612138 -0.35484 -0.606331 120 82 50
0.158499 -0.4924 0.247464 148 65 159
-0.0612138 -0.354062 -0.609562 120 82 50
0.264286 -0.834175 0.495736 161 21 191
-0.0612138 -0.356225 -0.598193 120 82 51
0.259836 -0.826037 0.492232 161 22 190
-0.0937638 -0.235323 0.418994 116 97 181
0.304974 -0.797028 0.362032 166 26 174
0.264286 -0.830497 0.492232 161 22 190
-0.0937638 -0.235586 0.427131 116 97 182
0.264286 -0.826037 0.487792 161 22 190
-0.0937638 -0.236954 0.435269 116 97 183
0.304974 -0.795224 0.370169 166 26 175
0.158212 -0.484262 0.248107 148 66 159
-0.38795 0.0528126 -0.264556 78 134 94
-0.386714 0.0493689 -0.264556 78 134 94
0.158499 -0.484262 0.247862 148 66 159
0.264286 -0.8179 -0.294734 161 23 90
0.264286 -0.822178 0.484094 161 23 189
0.264286 -0.8179 0.479835 161 23 189
-0.533819 -0.150625 -0.345931 59 108 83
-0.0612138 -0.353104 -0.614468 120 82 49
0.264286 -0.809762 -0.292665 161 24 90
-0.533189 -0.150625 -0.346847 60 108 83
0.304974 -0.793018 -0.142493 166 26 109
-0.540021 -0.150625 -0.337793 59 108 84
0.264286 -0.813593 0.475956 161 24 188
0.155594 -0.476125 0.248107 147 67 159
0.264286 -0.809762 0.471289 161 24 188
0.158499 -0.476125 0.246646 148 67 159
0.264286 -0.802336 -0.288968 161 25 91
0.329386 -0.234418 -0.0448434 169 98 122
0.264286 -0.801625 -0.288474 161 25 91
0.158499 -0.467987 0.24468 148 68 159
0.329386 -0.233852 -0.0367059 169 98 123
0.264286 -0.802602 -0.223868 161 25 99
-0.39055 0.06095 -0.264556 78 135 94
0.25852 -0.801625 -0.215731 160 25 100
0.264286 -0.806218 -0.215731 161 25 100
0.260421 -0.801625 -0.207593 161 25 101
0.264286 -0.806976 -0.207593 161 25 101
-0.179827 0.671263 0.191144 105 213 152
0.264286 -0.806674 0.467819 161 25 187
0.264286 -0.801625 0.460207 161 25 186
-0.175139 0.670201 0.191144 105 213 152
-0.386714 0.055723 0.0772191 78 135 137
0.264286 -0.794917 -0.280831 161 26 92
-0.386714 0.06095 0.0750078 78 135 137
0.264286 -0.793487 -0.278318 161 26 92
-0.297201 0.801463 -0.0701257 90 230 119
0.304974 -0.782228 0.394582 166 28 178
-0.254115 -0.150625 -0.533093 95 108 60
0.304974 -0.777212 0.401199 166 28 179
-0.392625 0.0690875 -0.264556 77 136 94
-0.248376 -0.150625 -0.534529 96 108 59
-0.297201 0.8096 -0.0664011 90 231 119
-0.00425132 -0.0936625 -0.516703 127 116 62
0.0689862 -0.269026 -0.337793 136 93 84
-0.248376 -0.142713 -0.541231 96 109 58
0.0689862 -0.26691 -0.329656 136 93 85
0.0689862 -0.265392 -0.321518 136 94 87
-0.386714 0.0690875 0.0733902 78 136 137
0.0689862 -0.26455 -0.316504 136 94 87
0.6259 -0.158762 -0.118081 207 107 112
0.304974 -0.769635 0.0690816 166 29 136
0.264286 -0.800127 -0.175043 161 25 105
-0.394819 0.0772251 -0.264556 77 137 94
0.304974 -0.769075 0.0708833 166 29 137
0.302417 -0.769075 0.223694 166 29 156
0.199186 -0.291759 -0.427306 153 90 73
0.304974 -0.770532 0.223694 166 29 156
0.199186 -0.288962 -0.423087 153 91 74
0.304974 -0.769075 0.220624 166 29 156
0.304974 -0.769075 0.227292 166 29 156
0.62771 -0.150625 -0.118081 208 108 112
-0.386714 0.0772251 0.0705839 78 137 136
0.329386 -0.232922 0.345757 169 98 172
0.199186 -0.286781 -0.419168 153 91 74
0.264286 -0.79783 0.451544 161 26 185
0.304974 -0.775831 0.402719 166 29 179
0.199186 -0.283769 -0.411031 153 91 75
0.264286 -0.801369 0.459682 161 25 186
0.304974 -0.769432 0.410857 166 29 180
0.199186 -0.281781 -0.402893 153 92 76
0.304974 -0.769075 0.411805 166 29 180
-0.386714 0.0831991 0.060944 78 138 135
-0.386714 0.0853625 0.0592127 78 138 135
-0.386714 0.0788627 0.0690816 78 138 136
0.117087 0.77705 0.427131 142 227 182
0.0689862 -0.264065 -0.313381 136 94 88
0.0689862 -0.263135 -0.305243 136 94 89
0.117811 0.77705 0.427801 143 227 182
0.0689862 -0.261496 -0.297106 136 94 90
0.258138 -0.78535 -0.142493 160 27 109
0.264286 -0.789514 -0.142493 161 27 109
-0.191414 0.644512 0.427131 103 210 182
0.264286 -0.78535 -0.138755 161 27 110
-0.191414 0.64685 0.424853 103 210 182
0.264286 -0.787131 0.386444 161 27 177
-0.386714 0.0935 0.0495517 78 139 134
0.624646 -0.142487 -0.0936684 207 109 116
-0.248376 -0.1018 0.578872 96 115 201
-0.386714 0.0935 0.0535876 78 139 134
0.304532 -0.760938 0.0365315 166 30 132
-0.250239 -0.0936625 0.573607 96 116 201
-0.0937638 -0.085525 -0.496908 116 117 64
-0.392028 0.101638 0.0446691 78 140 133
-0.248376 -0.0936625 0.575688 96 116 201
-0.386714 0.0955487 0.0528066 78 140 134
-0.223964 -0.98065 0.536791 99 2 196
-0.538458 -0.1018 -0.0936684 59 115 116
-0.223964 -0.970692 0.532919 99 4 195
0.264286 -0.777212 -0.134969 161 28 110
-0.223964 -0.964375 0.529741 99 5 195
0.302442 -0.760938 0.0772191 166 30 137
-0.191414 0.654988 0.427931 103 211 182
0.304974 -0.766626 0.0772191 166 30 137
0.263284 -0.777212 0.256244 161 28 160
0.304974 -0.760938 0.0844249 166 30 138
0.264286 -0.778606 0.329482 161 28 170
-0.223964 -0.956237 0.528868 99 6 195
0.304974 -0.761166 0.109769 166 30 141
0.304974 -0.760938 0.109285 166 30 141
0.492136 0.755211 -0.288968 190 224 91
0.492136 0.760775 -0.283954 190 224 91
-0.248376 -0.06925 0.587964 96 119 202
0.304974 -0.765329 0.117907 166 30 143
0.304974 -0.767464 0.126044 166 30 144
0.264286 -0.780527 0.337619 161 28 171
-0.223964 -0.9481 0.528128 99 7 195
-0.223964 -0.939962 0.527418 99 8 195
-0.248376 -0.0611125 0.586525 96 120 202
0.329386 -0.230725 0.337619 169 98 171
-0.223964 -0.931825 0.526902 99 9 195
-0.386714 0.134187 0.235989 78 145 158
-0.533189 -0.0987778 -0.101806 60 115 115
-0.248376 -0.0536527 0.524782 96 121 194
-0.248376 -0.0529749 0.521849 96 121 194
-0.533189 -0.0936625 -0.109461 60 116 114
-0.533189 -0.0980477 -0.0936684 60 115 116
0.451449 -0.243278 -0.150631 185 96 108
-0.223964 -0.923687 0.525758 99 10 195
-0.248376 -0.054408 0.532919 96 121 195
-0.386714 0.142325 0.239184 78 146 158
0.296866 -0.760938 0.223694 165 30 156
-0.195934 0.663125 0.183007 103 212 151
0.304974 -0.765368 0.231832 166 30 157
0.329386 -0.19945 -0.552324 169 102 57
0.304974 -0.761049 0.264382 166 30 161
-0.223964 -0.918021 0.524782 99 10 194
0.304974 -0.760938 0.264137 166 30 161
-0.496704 -0.988787 -0.126218 64 1 111
-0.223964 -0.91555 0.524357 99 11 194
0.304974 -0.762509 0.272519 166 30 162
-0.492501 -0.988787 -0.131632 65 1 111
0.418899 -0.240154 -0.142493 181 97 109
-0.255707 -0.0448375 0.524782 95 122 194
0.304974 -0.761776 0.288794 166 30 164
-0.223964 -0.907412 0.522522 99 12 194
0.264286 -0.771098 0.288794 161 29 164
-0.223964 -0.907256 -0.362206 99 12 81
0.264286 -0.775191 0.296932 161 29 165
-0.191414 0.664409 0.183007 103 212 151
-0.223964 -0.901956 -0.354068 99 13 82
0.304974 -0.766711 0.418994 166 30 181
-0.223964 -0.899275 -0.350776 99 13 83
-0.412993 0.370175 -0.0285684 75 175 124
-0.223964 -0.899275 0.520552 99 13 194
-0.223964 -0.894693 -0.345931 99 13 83
0.256537 -0.769075 0.353894 160 29 173
0.418899 -0.247779 -0.0692559 181 96 119
-0.223964 -0.891137 -0.341687 99 14 84
-0.255129 -0.0366999 0.484094 95 123 189
0.264286 -0.776554 0.353894 161 28 173
-0.386714 0.166738 -0.520969 78 149 61
-0.223964 -0.891137 0.51838 99 14 194
-0.226024 -0.883 -0.337793 99 15 84
-0.248376 -0.0366999 0.487186 96 123 190
-0.223964 -0.883 -0.34143 99 15 84
-0.230966 -0.883 -0.329656 98 15 85
-0.223964 -0.886396 0.516644 99 14 193
-0.191414 0.6794 0.423574 103 214 182
-0.223964 -0.883 0.515363 99 15 193
-0.389567 0.174875 -0.508681 78 150 63
-0.386714 0.174875 -0.512137 78 150 62
0.264286 -0.76392 -0.0855309 161 30 117
-0.142589 -0.299394 -0.362206 109 89 81
0.264286 -0.768411 -0.0692559 161 30 119
-0.223964 -0.874862 0.511615 99 16 193
-0.53676 -0.085525 -0.305243 59 117 89
0.304974 -0.75925 0.0039816 166 31 128
-0.142589 -0.299663 -0.354068 109 89 82
0.113104 0.8096 0.362032 142 231 174
0.264286 -0.766687 -0.0611184 161 30 120
0.304974 -0.757466 0.012119 166 31 129
0.256815 -0.760938 0.215557 160 30 155
0.300651 -0.7528 0.0202566 166 32 130
0.300142 -0.7528 0.0283941 166 32 131
-0.231811 -0.866725 -0.288968 98 17 91
-0.411126 0.376793 -0.0285684 75 176 124
-0.00425132 0.0478014 0.321344 127 134 168
-0.00425132 0.0528126 0.316545 127 134 168
-0.191414 0.695675 0.420692 103 216 181
-0.248376 0.00398755 0.488797 96 128 190
0.298561 -0.7528 0.0853565 166 32 138
0.260696 -0.7528 0.207419 161 32 154
0.304974 -0.760521 0.0853565 166 31 138
0.264286 -0.754653 0.207419 161 31 154
-0.191414 0.701713 0.418994 103 217 181
0.264286 -0.7528 0.201158 161 32 153
-0.393593 0.207425 -0.272693 77 154 93
0.304974 -0.75716 0.0934941 166 31 139
0.264286 -0.754385 0.215557 161 31 155
0.451449 -0.233466 -0.0611184 185 98 120
0.325883 -0.109937 -0.484268 169 113 66
-0.191414 0.703813 0.418405 103 217 181
0.630474 -0.118075 -0.110033 208 112 113
0.304974 -0.75757 0.101632 166 31 140
0.117811 0.8132 0.370169 143 231 175
-0.49104 0.199287 0.158594 65 153 148
0.329386 -0.109937 -0.482692 169 113 66
-0.48765 0.199287 0.166732 65 153 149
-0.223964 -0.860163 -0.280831 99 18 92
-0.392175 0.215563 -0.280831 77 155 92
-0.484598 0.199287 0.174869 66 153 150
-0.248376 0.0268757 0.427131 96 131 182
-0.389382 0.215563 -0.272693 78 155 93
0.304974 -0.753651 0.191144 166 31 152
-0.248376 0.0284001 0.420368 96 131 181
0.329386 -0.107288 -0.484268 169 114 66
-0.484364 0.199287 0.175372 66 153 150
0.329386 -0.1018 -0.491123 169 115 65
-0.533189 -0.0832668 -0.305243 60 117 89
-0.00425132 0.0935 0.354207 127 139 173
-0.386714 0.220364 -0.280831 78 156 92
0.300165 -0.7528 0.239969 166 32 158
-0.537441 -0.0773874 -0.288968 59 118 91
-0.386714 0.2237 -0.284936 78 156 91
0.304974 -0.757585 0.239969 166 31 158
0.321249 -0.883 -0.341366 168 15 84
-0.533189 -0.0773874 -0.294259 60 118 90
-0.386925 0.2237 -0.272693 78 156 93
0.298073 -0.7528 0.248107 166 32 159
-0.533683 -0.0773874 -0.199456 59 118 102
-0.386714 0.2237 -0.2734 78 156 93
0.304974 -0.7562 0.248107 166 31 159
0.304974 -0.757437 0.256244 166 31 160
0.304974 -0.757128 0.305069 166 31 166
-0.223964 -0.843115 -0.248281 99 20 96
-0.196272 0.720088 0.418994 102 219 181
-0.191414 0.720088 0.420398 103 219 181
-0.223964 -0.842312 -0.246436 99 20 96
-0.248376 0.0355885 0.394582 96 132 178
-0.248376 0.0365375 0.393135 96 132 178
0.304974 -0.750907 0.183007 166 32 151
0.199186 -0.24989 0.101632 153 96 140
-0.533189 -0.072149 -0.215731 60 118 100
-0.533189 -0.06925 -0.218947 60 119 100
-0.533189 -0.0764681 -0.207593 60 118 101
-0.533189 -0.0770452 -0.199456 60 118 102
-0.191414 0.736363 0.401526 103 221 179
-0.223964 -0.824658 -0.240143 99 22 97
-0.223964 -0.8179 -0.237348 99 23 97
-0.536724 -0.06925 -0.175043 59 119 105
-0.223964 -0.821807 -0.142493 99 23 109
-0.0940734 0.0528126 0.288794 116 134 164
-0.223964 -0.8179 -0.135355 99 23 110
0.630474 -0.109937 -0.113957 208 113 113
0.298181 -0.4924 0.0528066 166 65 134
-0.0612138 -0.241203 0.370169 120 97 175
-0.0937638 0.0528126 0.288904 116 134 164
-0.191414 0.738588 0.223694 103 222 156
-0.0612138 -0.241298 0.378307 120 97 176
-0.191414 0.7445 0.227404 103 222 156
-0.192389 0.7445 0.386444 103 222 177
-0.191414 0.740148 0.394582 103 222 178
-0.191414 0.7445 0.386712 103 222 177
0.329386 -0.0479006 0.524782 169 121 194
0.329386 -0.0448375 0.52295 169 122 194
-0.227414 -0.809762 -0.134356 99 24 110
-0.223964 -0.809762 -0.135896 99 24 110
-0.255593 0.044675 0.386444 95 133 177
-0.126314 0.1586 -0.633561 111 148 47
-0.0693513 -0.850695 -0.402893 119 19 76
-0.230668 -0.809762 0.362032 98 24 174
-0.223964 -0.816868 0.362032 99 23 174
-0.196217 0.752638 0.378307 102 223 176
-0.223964 -0.809762 0.355048 99 24 173
0.418899 -0.231227 -0.0529809 181 98 121
-0.191556 0.752638 0.386444 103 223 177
-0.0693513 -0.85045 -0.402188 119 19 76
-0.533189 -0.0529749 -0.302424 60 121 89
0.199186 -0.242839 -0.158768 153 97 107
0.199186 -0.242519 -0.150631 153 97 108
0.304974 -0.322696 -0.484268 166 86 66
0.329386 -0.0293557 0.508507 169 124 192
-0.533189 -0.0581006 -0.126218 60 120 111
0.304974 -0.321512 -0.482426 166 87 66
-0.533189 -0.0529749 -0.130516 60 121 111
0.329386 -0.0359907 0.516644 169 123 193
0.0689862 -0.0773874 -0.506758 136 118 63
0.304974 -0.317934 -0.476131 166 87 67
-0.418034 0.410862 -0.288968 74 180 91
-0.414464 0.410862 -0.280831 75 180 92
0.304974 -0.316656 -0.467993 166 87 68
-0.248376 0.06095 0.201241 96 135 153
0.329386 -0.0215005 0.467819 169 125 187
-0.416493 0.410862 -0.272693 74 180 93
0.329386 -0.020425 0.462912 169 125 187
0.0689862 -0.06925 -0.508366 136 119 63
0.329386 -0.0228235 0.475956 169 125 188
0.329386 -0.0239773 0.484094 169 124 189
0.329386 -0.0248447 0.492232 169 124 190
-0.223964 -0.808734 0.353894 99 24 173
0.329386 -0.0129299 0.435269 169 126 183
-0.252167 0.0690875 0.199282 95 136 153
0.329386 -0.0122874 0.433443 169 126 183
0.329386 -0.0153572 0.443407 169 126 184
0.329386 -0.0174012 0.451544 169 125 185
0.329386 -0.0196284 0.459682 169 125 186
-0.0693513 -0.846942 -0.386618 119 20 78
0.321496 -0.00414999 0.427131 168 127 182
-0.41232 0.419 -0.280831 75 181 92
0.304974 -0.293762 -0.419168 166 90 74
0.329386 -0.0086232 0.427131 169 126 182
-0.411126 0.418363 -0.272693 75 181 93
0.304974 -0.289512 -0.411031 166 91 75
0.500274 -0.996438 0.174869 191 0 150
0.329386 -0.00414999 0.424325 169 127 182
0.304238 -0.288962 -0.402893 166 91 76
0.500274 -0.995647 0.183007 191 1 151
0.304974 -0.289136 -0.402893 166 91 76
-0.0693513 -0.847585 -0.378481 119 19 79
0.329386 0.00165689 0.427131 169 128 182
0.329386 0.00398755 0.428331 169 128 182
-0.223964 -0.795999 -0.0611184 99 26 120
0.329386 0.012125 0.431888 169 129 183
-0.223964 -0.793487 -0.0590004 99 26 120
-0.223964 -0.798426 0.329482 99 26 170
0.447613 -0.118075 -0.419168 185 112 74
-0.223964 -0.793487 0.323268 99 26 169
0.329386 0.0202625 0.434072 169 130 183
-0.0693513 -0.84336 -0.370343 119 20 80
0.451449 -0.118075 -0.415675 185 112 75
-0.229554 -0.78535 -0.134356 98 27 110
0.304974 -0.274081 -0.345931 166 93 83
-0.289064 -0.98065 -0.353624 91 2 82
-0.248376 0.100225 -0.614468 96 140 49
0.304974 -0.273209 -0.337793 166 93 84
-0.248376 0.101638 -0.613347 96 140 49
-0.290582 -0.98065 0.516644 90 2 193
0.321675 0.044675 -0.598193 169 133 51
0.324977 0.044675 -0.590056 169 133 52
-0.289064 -0.98065 0.517186 91 2 193
0.492963 -0.98065 -0.199456 190 2 102
0.328848 0.044675 -0.581918 169 133 53
-0.248376 0.109775 -0.611646 96 141 50
0.500274 -0.98065 -0.191152 191 2 103
0.329386 0.044675 -0.581281 169 133 53
0.638611 -0.264943 -0.0367059 209 94 123
0.329386 0.0514345 -0.590056 169 134 52
-0.293323 -0.964375 0.500369 90 5 191
0.324142 0.0528126 0.239969 169 134 158
-0.23032 -0.777212 0.207419 98 28 154
-0.223964 -0.778678 0.215557 99 28 155
0.500274 -0.972512 -0.192759 191 4 103
-0.223964 -0.777212 0.212491 99 28 155
-0.41184 0.435275 -0.305243 75 183 89
-0.223964 -0.779198 0.223694 99 28 156
-0.289064 -0.949467 -0.345931 91 6 83
-0.289064 -0.9481 -0.345385 91 7 83
-0.325721 0.77705 -0.0936684 86 227 116
0.500274 -0.964375 -0.186781 191 5 104
-0.321614 0.77705 -0.0914463 86 227 116
-0.142589 -0.235398 0.443407 109 97 184
-0.142589 -0.235414 0.451544 109 97 185
0.500274 -0.96541 -0.158768 191 4 107
0.413255 -0.118075 -0.443581 180 112 71
-0.289064 -0.939962 -0.341846 91 8 84
-0.142589 -0.236353 0.459682 109 97 186
0.329386 0.0542388 0.223694 169 134 156
-0.0937638 0.21109 0.418994 116 154 181
0.418899 -0.118075 -0.44094 181 112 71
0.329386 0.0548234 0.231832 169 134 157
0.496363 -0.964375 -0.150631 191 5 108
0.500274 -0.967473 -0.150631 191 4 108
0.329386 0.0605423 0.239969 169 135 158
-0.0937638 0.215563 0.422182 116 155 181
0.498397 -0.964375 -0.142493 191 5 109
0.500274 -0.965933 -0.142493 191 4 109
0.500274 -0.964375 -0.139286 191 5 110
-0.0612138 -0.0936625 -0.507826 120 116 63
-0.191414 0.815818 0.345757 103 232 172
0.329386 0.0568716 0.435269 169 135 183
0.329386 0.06095 0.432488 169 135 183
-0.0646581 -0.085525 -0.508681 119 117 63
-0.411126 0.436378 -0.305243 75 183 89
0.444857 -0.0529749 0.418994 184 121 181
0.497943 -0.956237 -0.142493 191 6 109
-0.0612138 -0.085525 -0.510253 120 117 62
0.500274 -0.956237 -0.139595 191 6 110
0.448455 -0.0448375 0.402719 185 122 179
0.125949 -0.98065 0.588793 144 2 203
0.451449 -0.0448375 0.397707 185 122 178
-0.191414 0.822764 0.337619 103 232 171
0.496332 -0.9481 -0.150631 191 7 108
0.446525 -0.0448375 0.410857 184 122 180
0.500274 -0.950744 -0.142493 191 6 109
0.125949 -0.972512 0.58665 144 4 202
0.500274 -0.9481 -0.14437 191 7 109
0.329386 0.0661479 0.345757 169 136 172
0.329386 0.0690875 0.338824 169 136 171
0.329386 0.0652252 0.353894 169 136 173
-0.291839 -0.891137 0.492232 90 14 190
0.125949 -0.964375 0.578135 144 5 201
-0.289064 -0.891137 0.495418 91 14 191
0.493167 -0.939962 -0.158768 190 8 107
0.449017 -0.0366999 0.386444 185 123 177
0.125949 -0.956237 -0.446667 144 6 71
0.498193 -0.939962 -0.150631 191 8 108
0.451449 -0.0392537 0.386444 185 122 177
0.451449 -0.0366999 0.380212 185 123 176
-0.289064 -0.883 0.492286 91 15 190
0.450204 -0.0366999 0.394582 185 123 178
0.125949 -0.9481 -0.448732 144 7 70
0.451449 -0.0402389 0.394582 185 122 178
0.451449 -0.0381284 0.402719 185 123 179
0.500274 -0.938674 -0.150631 191 8 108
0.451449 -0.0366999 0.400218 185 123 179
-0.289064 -0.881995 0.492232 91 15 190
-0.289064 -0.874862 0.491868 91 16 190
0.124934 -0.931825 -0.443581 143 9 71
0.0689862 0.0528126 0.315867 136 134 168
-0.484364 0.550294 -0.313381 66 198 88
-0.296772 -0.866725 -0.272693 90 17 93
0.492753 -0.923687 -0.175043 190 10 105
-0.484364 0.557338 -0.317229 66 199 87
-0.294609 -0.866725 -0.264556 90 17 94
0.500274 -0.923687 -0.157292 191 10 107
-0.289064 -0.874098 0.492232 91 16 190
0.451449 -0.033189 0.386444 185 123 177
-0.289064 -0.866725 0.495214 91 17 191
0.492412 -0.91555 -0.175043 190 11 105
0.125949 -0.939517 -0.411031 144 8 75
0.418899 -0.0529749 0.446169 181 121 184
0.500274 -0.91555 -0.152944 191 11 108
-0.191414 0.839439 0.288794 103 235 164
0.125949 -0.931825 -0.407273 144 9 76
-0.293436 -0.858587 -0.280831 90 18 92
0.329386 0.0766661 0.337619 169 137 171
0.418899 -0.0470268 0.443407 181 122 184
0.119902 -0.923687 -0.435443 143 10 72
0.493485 -0.91555 -0.126218 190 11 111
-0.29123 -0.858587 -0.256418 90 18 95
0.125949 -0.928942 -0.435443 144 9 72
0.500274 -0.918315 -0.126218 191 10 111
0.500274 -0.91555 -0.120266 191 11 112
0.321249 -0.83461 -0.256418 168 21 95
-0.303315 -0.899275 -0.297106 89 13 90
-0.289064 -0.853758 -0.256418 91 19 95
-0.289064 -0.854329 -0.248281 91 19 96
-0.289064 -0.85045 -0.242801 91 19 97
0.125949 -0.907412 0.58965 144 12 203
0.451449 -0.0113156 -0.101806 185 126 115
0.451449 -0.00414999 -0.107235 185 127 114
0.125949 -0.899275 0.587738 144 13 202
-0.289064 -0.848873 -0.240143 91 19 97
0.418899 -0.020425 0.435118 181 125 183
-0.289064 -0.842312 -0.233488 91 20 98
-0.00425132 0.508512 0.58886 127 192 203
0.125949 -0.891137 0.587365 144 14 202
-0.289064 -0.844569 -0.191318 91 20 103
0.323671 0.0935 0.142319 169 139 146
0.125949 -0.883 0.5852 144 15 202
0.329386 0.0935 0.140839 169 139 145
0.418899 -0.0122874 0.432936 181 126 183
-0.00425132 0.51665 0.591553 127 193 203
-0.147337 -0.0773874 -0.484268 109 118 66
0.125949 -0.874862 0.582302 144 16 202
-0.289064 -0.84104 -0.232006 91 20 98
-0.142589 -0.0773874 -0.483482 109 118 66
0.451449 -0.0109189 0.435269 185 126 183
0.304974 -0.233581 -0.0367059 166 98 123
0.451449 -0.00414999 0.43211 185 127 183
-0.248376 0.280663 -0.503828 96 163 63
0.500274 -0.883 -0.0599768 191 15 120
0.262272 -0.516812 0.0202566 161 62 130
0.418899 -0.00414999 -0.440123 181 127 71
0.19242 -0.06925 -0.492406 152 119 65
0.412762 0.00398755 -0.451718 180 128 70
-0.248376 0.281542 -0.500543 96 163 64
0.417452 0.00398755 -0.443581 181 128 71
0.329386 0.0965072 0.142319 169 140 146
-0.248376 0.288676 -0.492406 96 164 65
0.199186 -0.06925 -0.491619 153 119 65
0.329386 0.101638 0.145472 169 140 146
0.418899 0.00398755 -0.440089 181 128 71
-0.252973 0.2888 -0.484268 95 164 66
0.258667 -0.516812 0.0283941 160 62 131
0.451449 0.00068532 -0.109943 185 128 113
0.125146 -0.858587 -0.370343 143 18 80
0.418899 -0.00154663 -0.134356 181 127 110
0.125949 -0.859685 -0.370343 144 18 80
-0.248376 0.2888 -0.49231 96 164 65
0.125949 -0.858587 -0.368718 144 18 80
-0.142589 -0.0618473 -0.500543 109 120 64
0.451449 0.00398755 -0.111706 185 128 113
-0.289064 -0.837759 0.492232 91 21 190
-0.142589 -0.0611125 -0.501627 109 120 64
-0.289064 -0.834175 0.487894 91 21 190
-0.191414 0.870908 0.0690816 103 239 136
-0.142589 -0.0665127 -0.492406 109 119 65
0.329386 0.0978268 0.321344 169 140 168
0.329386 0.0935145 0.329482 169 139 170
0.411309 0.00398755 -0.0936684 180 128 116
-0.295762 -0.826037 -0.150631 90 22 108
0.329386 0.107096 0.150457 169 141 147
-0.289064 -0.82756 -0.150631 91 22 108
-0.142589 -0.0559147 -0.508681 109 120 63
0.329386 0.109775 0.153036 169 141 147
-0.289064 -0.826037 -0.148624 91 22 109
0.119988 -0.85045 -0.370343 143 19 80
0.411679 0.00398755 -0.0773934 180 128 118
-0.142589 -0.0529749 -0.512184 109 121 62
0.125949 -0.854291 -0.362206 144 19 81
0.329386 0.115398 0.158594 169 142 148
0.125949 -0.85045 -0.359358 144 19 82
0.413982 0.00398755 -0.0692559 180 128 119
0.329386 0.117913 0.161237 169 143 148
-0.149501 -0.0448375 -0.533093 108 122 60
-0.145698 -0.0448375 -0.524956 109 122 61
0.417147 0.00398755 -0.0611184 181 128 120
0.264286 -0.509522 0.0202566 161 63 130
-0.142589 -0.049067 -0.516818 109 121 62
0.125949 -0.842312 -0.35525 144 20 82
-0.289064 -0.8179 -0.145603 91 23 109
-0.142589 -0.0448375 -0.522237 109 122 61
0.264286 -0.511279 0.0283941 161 62 131
0.0689862 0.183013 -0.643144 136 151 45
0.417652 0.00398755 -0.0448434 181 128 122
0.495085 -0.866725 -0.0611184 191 17 120
-0.150058 -0.0366999 -0.541231 108 123 58
-0.289064 -0.81901 -0.0855309 91 23 117
-0.142589 -0.0370441 -0.533093 109 123 60
0.262609 -0.508675 0.158594 161 63 148
-0.296001 -0.8179 -0.0773934 90 23 118
0.41783 0.00398755 -0.0367059 181 128 123
0.260088 -0.508675 0.166732 161 63 149
-0.142589 -0.0366999 -0.533553 109 123 59
-0.289064 -0.8179 -0.0845988 91 23 117
-0.142589 -0.0428644 -0.524956 109 122 61
0.418899 0.00398755 -0.0323833 181 128 123
-0.289064 -0.823177 0.459682 91 23 186
0.415047 0.00398755 0.427131 180 128 182
0.451449 0.0030419 0.427131 185 128 182
0.499799 -0.858587 -0.134356 191 18 110
0.500274 -0.859568 -0.134356 191 18 110
0.451449 0.00398755 0.426427 185 128 182
0.448697 0.012125 -0.402893 185 129 76
-0.142589 -0.0312648 -0.541231 109 124 58
0.451449 0.012125 -0.400067 185 129 76
-0.142589 -0.0285625 -0.545276 109 124 58
0.451449 0.00458418 0.101632 185 128 140
-0.142589 -0.0258465 -0.549368 109 124 57
0.451449 0.0101737 0.109769 185 129 141
-0.289064 -0.814158 0.451544 91 24 185
-0.411126 0.573613 -0.282914 75 201 91
-0.142589 -0.020425 -0.557485 109 125 56
0.451449 0.012125 0.110085 185 129 142
0.494949 -0.85045 -0.126218 191 19 111
-0.289064 -0.809762 0.447378 91 24 185
0.500274 -0.856222 -0.126218 191 18 111
0.493242 -0.85045 -0.134356 190 19 110
0.451449 0.0106959 0.418994 185 129 181
0.125949 -0.809762 -0.181936 144 24 104
0.451449 0.012125 0.417231 185 129 181
-0.411126 0.579178 -0.280831 75 201 92
0.414239 0.012125 -0.0692559 180 129 119
0.25779 -0.4924 -0.0692559 160 65 119
-0.411126 0.58175 -0.279921 75 202 92
0.413737 0.012125 -0.0611184 180 129 120
0.261597 -0.4924 -0.0611184 161 65 120
0.264286 -0.494499 -0.0529809 161 64 121
0.446702 0.0202625 -0.411031 184 130 75
0.413194 0.012125 -0.0529809 180 129 121
-0.0612138 0.0498549 0.305069 120 134 166
0.448668 0.0202625 -0.402893 185 130 76
-0.0612138 0.0528126 0.302552 120 134 166
-0.411126 0.589888 -0.27745 75 203 92
0.413434 0.012125 -0.0448434 180 129 122
0.451449 0.0202625 -0.398301 185 130 77
-0.289064 -0.801625 0.439995 91 25 184
0.125949 -0.803906 -0.321518 144 25 87
0.256851 -0.4924 0.101632 160 65 140
0.500274 -0.834175 -0.0569425 191 21 120
0.413662 0.012125 -0.0367059 180 129 123
0.125949 -0.801625 -0.315919 144 25 87
0.412608 0.012125 -0.0285684 180 129 124
-0.289064 -0.795928 0.435269 91 26 183
0.418899 0.00470939 -0.0285684 181 128 124
-0.289064 -0.793487 0.432907 91 26 183
0.411348 0.012125 -0.0204309 180 129 125
-0.411126 0.598025 -0.275264 75 204 92
0.125949 -0.804912 -0.223868 144 25 99
0.500274 -0.840809 -0.0122934 191 20 126
0.500274 -0.837013 -0.00415594 191 21 127
0.451449 0.0173706 0.410857 185 130 180
-0.411126 0.606163 -0.273742 75 205 93
0.451449 0.0202625 0.405314 185 130 179
0.125949 -0.809649 -0.175043 144 24 105
0.258097 -0.484262 -0.0692559 160 66 119
-0.292908 -0.78535 0.0039816 90 27 128
0.125839 -0.801625 -0.166906 144 25 106
0.125949 -0.801846 -0.166906 144 25 106
0.264286 -0.484262 -0.0616183 161 66 120
-0.100911 0.508512 0.557332 115 192 199
0.259275 -0.484262 0.101632 161 66 140
0.378211 -0.964375 0.480003 176 5 189
-0.0937638 0.508512 0.562005 116 192 199
0.325061 0.19115 -0.565643 169 152 55
0.378211 -0.956237 0.476226 176 6 188
0.329386 0.188489 -0.565643 169 152 55
-0.289064 -0.777578 -0.0285684 91 28 124
0.500274 -0.829144 0.101632 191 22 140
0.329386 0.19115 -0.5613 169 152 56
-0.0937638 0.51665 0.562985 116 193 199
0.417494 0.012125 0.418994 181 129 181
-0.39405 0.443413 -0.264556 77 184 94
-0.289064 -0.779446 -0.0204309 91 28 125
0.493035 -0.826037 0.109769 190 22 141
0.418899 0.012125 0.417715 181 129 181
-0.289064 -0.781098 -0.0122934 91 28 126
0.412538 0.012125 0.427131 180 129 182
0.500274 -0.827306 0.109769 191 22 141
-0.289064 -0.783355 -0.00415594 91 28 127
0.411356 0.012125 0.435269 180 129 183
-0.289064 -0.783281 0.0039816 91 28 128
-0.289064 -0.777267 0.117907 91 28 143
0.494802 -0.8179 -0.0529809 191 23 121
0.500274 -0.824868 -0.0529809 191 22 121
-0.289064 -0.777212 0.118226 91 28 143
0.495278 -0.8179 -0.0448434 191 23 122
-0.296223 -0.777212 0.345757 90 28 172
0.260086 -0.476125 0.101632 161 67 140
0.500274 -0.822349 -0.0448434 191 23 122
0.374674 -0.931825 -0.313381 175 9 88
0.378211 -0.937883 -0.313381 176 8 88
0.261256 -0.476125 0.109769 161 67 141
0.261763 -0.476125 0.117907 161 67 143
0.448551 0.0365375 -0.362206 185 132 81
0.378211 -0.931825 0.471876 176 9 188
0.451449 0.0330109 -0.362206 185 132 81
-0.289064 -0.7746 -0.0611184 91 29 120
0.451449 0.0365375 -0.36502 185 132 81
-0.289064 -0.769294 -0.0529809 91 29 121
0.371525 -0.923687 -0.313381 175 10 88
0.445406 0.0365375 -0.354068 184 132 82
-0.389312 0.45155 -0.264556 78 185 94
0.378211 -0.924377 0.467819 176 10 187
-0.289064 -0.769075 -0.0486774 91 29 121
0.500274 -0.820475 0.117907 191 23 143
0.448626 0.0365375 -0.345931 185 132 83
-0.289064 -0.772619 -0.0367059 91 29 123
0.500274 -0.8179 0.131449 191 23 144
0.370413 -0.923687 0.475956 175 10 188
-0.289064 -0.769075 -0.0444148 91 29 122
0.498222 -0.8179 0.256244 191 23 160
0.500274 -0.820685 0.256244 191 23 160
0.447524 0.0365375 -0.240143 185 132 97
0.500274 -0.8179 0.253533 191 23 160
0.451449 0.0360339 -0.240143 185 132 97
0.373585 -0.91555 0.467819 175 11 187
-0.289064 -0.772284 0.109769 91 29 141
0.447381 0.0365375 -0.232006 185 132 98
0.378211 -0.91555 0.460938 176 11 186
0.451449 0.0344491 -0.232006 185 132 98
-0.289064 -0.775741 0.126044 91 29 144
0.44863 0.0365375 -0.223868 185 132 99
0.378211 -0.907412 -0.298104 176 12 89
0.125949 -0.791947 0.296932 144 27 165
0.451449 0.0336552 -0.223868 185 132 99
-0.293271 -0.769075 0.337619 90 29 171
0.125949 -0.78535 0.290008 144 27 164
0.378211 -0.907412 0.461982 176 12 186
0.451449 0.0365375 -0.216493 185 132 100
-0.289064 -0.774159 0.337619 91 29 171
-0.289064 -0.769075 0.330626 91 29 170
0.258999 -0.467987 0.012119 161 68 129
-0.289064 -0.771238 0.345757 91 29 172
0.264286 -0.473402 0.012119 161 67 129
0.418899 0.0157039 0.0934941 181 130 139
-0.418174 0.6794 -0.166906 74 214 106
0.258588 -0.467987 0.0934941 160 68 139
0.378211 -0.905017 0.467819 176 12 187
-0.411126 0.6794 -0.161988 75 214 107
0.44745 0.0365375 0.370169 185 132 175
0.418899 0.0202625 0.101103 181 130 140
0.496046 -0.809762 0.134182 191 24 145
0.500274 -0.816152 0.134182 191 23 145
0.418899 0.0192365 0.418994 181 130 181
0.451449 0.0365375 0.372359 185 132 175
0.416815 0.0202625 0.101632 181 130 140
0.494241 -0.809762 0.248107 191 24 159
0.257075 -0.467987 0.101632 160 68 140
-0.411126 0.687538 -0.161908 75 215 107
0.119171 -0.78535 0.410857 143 27 180
-0.289064 -0.771089 0.386444 91 29 177
0.125949 -0.787491 0.418994 144 27 181
0.125949 -0.78535 0.413263 144 27 180
-0.411126 0.69441 -0.158768 75 216 107
-0.386714 0.458942 -0.272693 78 186 93
-0.289064 -0.768904 -0.0448434 91 29 122
-0.411126 0.695675 -0.158129 75 216 107
-0.386714 0.459687 -0.275774 78 186 92
-0.386714 0.454812 -0.264556 78 185 94
-0.386714 0.454203 -0.256418 78 185 95
-0.296205 -0.760938 0.0365315 90 30 132
-0.386714 0.45791 -0.248281 78 186 96
-0.230921 -0.581912 0.0690816 98 53 136
-0.0693513 -0.812549 -0.240143 119 24 97
-0.386714 0.459687 -0.244032 78 186 96
0.4463 0.044675 -0.354068 184 133 82
-0.142589 0.0528126 0.268518 109 134 162
-0.143293 0.06095 0.264382 109 135 161
0.199186 0.0587009 0.264382 153 135 161
-0.142589 0.06095 0.264913 109 135 161
0.199186 0.06095 0.259543 153 135 161
0.492715 -0.801625 0.223694 190 25 156
0.500274 -0.804622 0.223694 191 25 156
-0.289064 -0.764174 0.329482 91 30 170
0.304974 -0.109937 -0.4916 166 113 65
0.451449 0.0414549 -0.248281 185 133 96
0.499123 -0.801625 0.239969 191 25 158
0.158499 -0.0611125 -0.488736 148 120 65
0.500274 -0.801918 0.239969 191 25 158
0.445641 0.044675 -0.232006 184 133 98
0.125949 -0.785294 0.362032 144 27 174
0.304974 -0.1018 -0.487252 166 115 65
0.158499 -0.0548145 -0.484268 148 121 66
0.158499 -0.0529749 -0.483188 148 121 66
-0.289064 -0.755503 0.0365315 91 31 132
0.378211 -0.865723 -0.256418 176 17 95
0.378211 -0.858587 -0.249758 176 18 96
-0.292913 -0.7528 0.0446691 90 32 133
-0.289064 -0.7528 0.0395194 91 32 133
0.125949 -0.777212 0.409919 144 28 180
0.264286 -0.342831 -0.557506 161 84 56
-0.291824 -0.7528 0.0528066 90 32 134
0.378211 -0.85045 -0.252117 176 19 95
-0.289064 -0.75357 0.060944 91 31 135
0.447687 0.044675 0.362032 185 133 174
0.325666 0.313212 -0.362206 169 167 81
0.451449 0.0406841 0.362032 185 133 174
0.329386 0.312472 -0.362206 169 167 81
0.378211 -0.842312 -0.255806 176 20 95
0.451449 0.044675 0.354593 185 133 173
0.444293 0.044675 0.370169 184 133 175
0.32836 0.313212 -0.354068 169 167 82
0.451449 0.0375093 0.370169 185 132 175
0.158499 -0.0518654 -0.484268 148 121 66
0.378211 -0.834175 -0.255979 176 21 95
0.329386 0.311476 -0.354068 169 167 82
-0.386714 0.465812 -0.305243 78 187 89
0.37256 -0.826037 -0.215731 175 22 100
-0.317442 -0.98065 -0.329656 87 2 85
0.378211 -0.829548 -0.215731 176 22 100
-0.290962 -0.7528 0.199282 90 32 153
-0.386714 0.462987 -0.297106 78 187 90
0.500274 -0.800357 0.231832 191 25 157
-0.289064 -0.75605 0.199282 91 31 153
-0.313476 -0.98065 -0.332815 88 2 85
-0.386714 0.461407 -0.288968 78 186 91
0.378211 -0.826037 -0.213017 176 22 100
-0.289064 -0.7528 0.196221 91 32 153
-0.386714 0.460645 -0.280831 78 186 92
-0.411126 0.7445 -0.0830923 75 222 117
-0.291194 -0.7528 0.207419 90 32 154
-0.313476 -0.98065 0.5065 88 2 192
-0.411126 0.75144 -0.0773934 75 223 118
0.329386 0.316927 -0.370343 169 168 80
0.540203 -0.858587 0.207419 196 18 154
-0.313476 -0.972512 0.50319 88 4 192
-0.0937638 0.618602 -0.150631 116 206 108
-0.256391 0.4841 0.451544 95 189 185
-0.248376 0.4841 0.457587 96 189 186
-0.289064 -0.748144 0.0446691 91 32 133
-0.223964 -0.520419 -0.0367059 99 61 123
-0.289064 -0.747719 0.0528066 91 32 134
-0.313476 -0.964375 0.489244 88 5 190
-0.484364 0.830743 -0.0204309 66 233 125
-0.480004 -0.988787 -0.142493 66 1 109
-0.29484 -0.744662 0.0853565 90 33 138
-0.476226 -0.988787 -0.145065 67 1 109
0.378211 -0.815051 -0.126218 176 24 111
0.158499 -0.0383771 -0.508681 148 123 63
0.378211 -0.811878 -0.118081 176 24 112
-0.251979 0.492238 -0.232006 95 190 98
-0.29011 -0.744662 0.199282 91 33 153
0.539302 -0.85045 0.166732 196 19 149
0.451449 0.0476224 0.353894 185 134 173
-0.254915 0.492238 -0.223868 95 190 99
0.451449 0.0528126 0.352824 185 134 172
-0.294002 -0.744662 0.207419 90 33 154
-0.313476 -0.9481 0.481622 88 7 189
-0.416249 0.793325 -0.0529809 74 229 121
0.535601 -0.85045 0.174869 196 19 150
0.199186 0.134187 -0.616274 153 145 49
0.264286 -0.296277 -0.427306 161 90 73
-0.315894 -0.939962 0.475956 87 8 188
-0.313476 -0.939962 0.477399 88 8 188
0.533746 -0.85045 0.207419 196 19 154
-0.223964 -0.521403 0.126044 99 61 144
-0.313476 -0.937465 0.475956 88 8 188
-0.411126 0.801463 -0.0479123 75 230 121
-0.289064 -0.744662 0.241387 91 33 158
-0.313476 -0.931825 0.47444 88 9 188
0.370538 -0.801625 -0.101806 175 25 115
-0.248376 0.495872 -0.232006 96 191 98
-0.256507 0.500375 -0.223868 95 191 99
0.378211 -0.808673 -0.101806 176 24 115
0.537608 -0.842312 0.0039816 196 20 128
0.377909 -0.801625 -0.0936684 176 25 116
-0.248376 0.495682 -0.223868 96 191 99
0.540961 -0.848696 0.0039816 196 19 128
0.378211 -0.801712 -0.0936684 176 25 116
-0.313476 -0.923687 0.47336 88 10 188
-0.248376 0.500375 -0.217923 96 191 100
0.378211 -0.801625 -0.093629 176 25 116
0.377349 -0.801625 0.394582 176 25 178
-0.289064 -0.739519 0.0853565 91 33 138
0.378211 -0.802374 0.394582 176 25 178
-0.313476 -0.91555 0.473591 88 11 188
0.0689862 0.51665 0.583714 136 193 202
-0.248376 0.508512 -0.217953 96 192 100
-0.22841 -0.508675 0.0772191 98 63 137
0.378211 -0.801625 0.393801 176 25 178
0.264286 -0.280755 -0.370343 161 92 80
0.378211 -0.801625 0.395478 176 25 178
0.264286 -0.277223 -0.362206 161 92 81
0.264286 -0.276762 -0.354068 161 92 82
-0.313476 -0.907412 0.473721 88 12 188
0.533702 -0.842312 0.174869 196 20 150
0.451449 0.06095 0.35197 185 135 172
-0.295514 -0.736525 0.207419 90 34 154
-0.315906 -0.899275 0.475956 87 13 188
0.557236 -0.13435 -0.282688 199 110 91
-0.313476 -0.899275 0.474168 88 13 188
-0.223964 -0.514526 0.134182 99 62 145
0.378211 -0.793641 -0.0855309 176 26 117
-0.223964 -0.508675 0.136523 99 63 145
0.414896 0.0528126 -0.321518 180 134 87
0.418899 0.0486954 -0.321518 181 134 87
0.370285 -0.793487 0.386444 175 26 177
0.418899 0.0528126 -0.324498 181 134 86
0.376391 -0.793487 0.394582 175 26 178
0.378211 -0.793487 0.390309 176 26 177
-0.289064 -0.740785 0.248107 91 33 159
-0.289064 -0.738707 0.256244 91 33 160
-0.223964 -0.500538 -0.00972864 99 64 126
-0.289064 -0.73673 0.264382 91 34 161
-0.228638 -0.500538 0.0772191 98 64 137
-0.313476 -0.883 0.491077 88 15 190
-0.227842 -0.500538 0.0853565 98 64 138
-0.184064 -0.98065 -0.402893 104 2 76
-0.230191 -0.500538 0.0934941 98 64 139
-0.183276 -0.98065 -0.402972 104 2 76
0.304974 -0.00414999 0.440106 166 127 184
0.101536 -0.780108 0.353894 140 28 173
-0.223964 -0.493328 -0.0204309 99 65 125
-0.319401 -0.866725 -0.199456 87 17 102
0.304974 0.00398755 0.442593 166 128 184
-0.223964 -0.4924 0.00495246 99 65 128
0.264286 -0.248587 -0.240143 161 96 97
-0.248376 0.555506 -0.126218 96 198 111
-0.223964 -0.493016 0.0772191 99 65 137
-0.248376 0.557338 -0.128085 96 199 111
0.264286 -0.248275 -0.23837 161 96 97
0.636833 -0.118075 -0.118081 209 112 112
0.328836 0.370175 -0.313381 169 175 88
-0.226572 -0.4924 0.0853565 99 65 138
0.125773 -0.573775 -0.150631 144 54 108
0.304974 0.012125 0.442261 166 129 184
0.329386 0.369101 -0.313381 169 175 88
0.125949 -0.573775 -0.150515 144 54 108
-0.317358 -0.858587 -0.199456 87 18 102
-0.317208 -0.858587 -0.191318 87 18 103
0.635287 -0.109937 -0.118081 208 113 112
0.378211 -0.78535 -0.0352397 176 27 123
0.370957 -0.78535 0.0853565 175 27 138
0.500274 -0.249881 -0.166906 191 96 106
0.378211 -0.786453 0.337619 176 27 171
-0.0937638 0.6794 0.468457 116 214 187
-0.411126 0.87345 -0.101806 75 239 115
0.304974 0.0202625 0.440774 166 130 184
-0.313476 -0.850919 -0.199456 88 19 102
-0.313476 -0.855703 -0.191318 88 18 103
0.298086 0.0284001 0.362032 166 131 174
-0.483997 -0.98065 -0.142493 66 2 109
-0.183276 -0.939962 -0.381602 104 8 79
-0.476226 -0.98065 -0.150032 67 2 108
-0.482855 -0.98065 0.345757 66 2 172
0.125949 -0.5575 -0.15819 144 56 107
-0.476656 -0.98065 0.353894 67 2 173
0.378211 -0.791862 0.386444 176 27 177
-0.183276 -0.935946 -0.378481 104 8 79
-0.183276 -0.931825 -0.375224 104 9 80
-0.476226 -0.98065 0.35442 67 2 173
-0.476226 -0.97365 -0.142493 67 3 109
-0.186536 -0.923687 -0.370343 104 10 80
-0.183276 -0.923687 -0.372251 104 10 80
-0.476226 -0.972512 -0.139183 67 4 110
-0.481582 -0.972512 0.337619 66 4 171
0.125949 -0.552061 -0.166906 144 57 106
-0.476858 -0.972512 0.345757 67 4 172
0.125949 -0.556702 -0.158768 144 57 107
-0.476226 -0.972512 0.34702 67 4 172
0.540961 -0.296522 -0.329656 196 90 85
0.378211 -0.777718 -0.0285684 176 28 124
0.30257 0.0365375 0.370169 166 132 175
-0.476226 -0.970473 -0.134356 67 4 110
-0.476226 -0.965941 -0.126218 67 4 111
0.370405 -0.777212 0.0365315 175 28 132
-0.476226 -0.964375 -0.125696 67 5 111
0.375166 -0.777212 0.0772191 175 28 137
0.264286 -0.244151 0.012119 161 96 129
0.378211 -0.779439 0.0772191 176 28 137
-0.0963218 0.687538 0.272519 115 215 162
0.378211 -0.777212 0.0748475 176 28 137
-0.0937638 0.68582 0.272519 116 215 162
0.378211 -0.781166 0.0853565 176 28 138
-0.0937638 0.687538 0.275619 116 215 163
0.378211 -0.777212 0.0914833 176 28 139
-0.188464 -0.899275 0.541057 103 13 196
0.378211 -0.777853 0.264382 176 28 161
-0.0937638 0.680347 0.467819 116 214 187
0.378211 -0.777212 0.260917 176 28 161
-0.0937638 0.687538 0.465185 116 215 187
0.124533 -0.52495 0.248107 143 61 159
