ply
format ascii 1.0
comment Created by Open3D
element vertex 1207
property double x
property double y
property double z
property uchar red
property uchar green
property uchar blue
end_header
0.604071 -0.452282 0.24426 205 70 159
0.219636 -0.998941 0.100708 156 0 140
-0.592549 -0.135021 0.187872 52 110 151
-0.317928 -0.97797 0.274588 87 3 163
-0.415537 -0.819469 -0.372322 75 23 80
-0.403423 -0.448565 -0.46593 76 70 68
0.373264 -0.0881811 0.501945 175 116 191
-0.0759611 0.573042 -0.246216 118 201 96
-0.458749 0.0121688 -0.345356 69 129 83
-0.319507 -0.482815 0.531784 87 66 195
-0.316859 0.00181832 -0.484484 87 128 66
0.289667 -0.676065 0.49121 164 41 190
0.513498 -0.285042 -0.356334 193 91 82
-0.320674 0.457252 -0.137111 87 186 110
-0.234722 0.490936 0.258676 98 190 160
-0.480575 0.261321 0.00987617 66 161 129
-0.0632599 -0.999413 0.282363 119 0 164
-0.377803 -0.203859 -0.480615 79 102 66
-0.369789 0.338562 -0.210333 80 171 101
0.365951 0.00391845 -0.438816 174 128 72
-0.110624 0.685071 -0.0962954 113 215 115
0.134259 0.953575 0.183885 145 249 151
-0.378173 0.371105 0.242161 79 175 158
-0.50341 0.0478939 0.295078 63 134 165
0.587964 -0.263207 -0.22297 202 94 99
-0.60951 -0.24867 -0.149605 50 96 108
0.21777 0.837721 0.0913535 155 234 139
0.641013 -0.0896156 0.080895 209 116 138
-0.108506 0.864526 0.112577 114 238 142
0.115774 0.169925 -0.489122 142 149 65
0.489741 0.0225726 -0.300706 190 130 89
0.385344 -0.85647 -0.385127 177 18 78
-0.43147 -0.570209 -0.452214 72 55 70
-0.594555 -0.522978 0.279587 52 61 163
-0.204193 0.326772 0.449896 101 169 185
-0.207031 -0.0465309 -0.539683 101 122 59
0.277711 0.911473 -0.0199632 163 244 125
0.0874226 -0.0655676 -0.574485 139 119 54
-0.513341 -0.235246 0.370445 62 98 175
-0.529637 -0.446497 0.395794 60 71 178
0.423291 -0.657461 0.396213 181 44 178
-0.366556 -0.643859 0.464797 81 45 187
0.0386904 0.595048 0.304664 132 203 166
0.164114 -0.62397 0.59155 148 48 203
0.484673 0.203852 -0.145658 189 153 109
-0.63768 -0.622858 0.0624255 46 48 135
0.619099 0.00589442 -0.0388014 206 128 123
-0.24945 -0.768391 -0.511032 96 30 62
-0.0700139 0.735098 0.245317 119 221 159
-0.0893751 0.266648 -0.484949 116 161 66
-0.477139 0.32076 -0.0814894 67 168 117
0.663556 -0.332342 0.0485807 212 85 134
0.13067 0.396352 -0.407917 144 178 75
-0.330725 0.242661 -0.343834 85 158 84
-0.292508 -0.969149 -0.297153 90 4 90
-0.360149 -0.981397 -0.198379 82 2 102
-0.0345673 -0.999159 0.14988 123 0 147
0.235227 0.979274 0.0709356 157 252 137
-0.299326 0.542183 0.0668544 89 197 136
0.184918 0.683701 0.0416686 151 215 133
-0.537543 0.0342326 -0.189684 59 132 103
-0.200543 0.814224 -0.0260962 102 231 124
-0.332613 0.150276 0.465207 85 147 187
0.334344 0.369274 0.25877 170 175 160
0.492895 0.0939676 -0.248439 190 139 96
0.212323 0.0674768 -0.500884 155 136 64
0.125141 -0.216926 -0.595367 143 100 52
0.593706 -0.0761365 -0.136052 203 118 110
-0.371831 -0.324891 -0.494326 80 86 64
-0.43853 -0.368425 0.454982 72 81 186
-0.589282 -0.471657 -0.294519 52 67 90
0.376344 -0.802882 0.368765 175 25 175
-0.603272 -0.0506484 0.0433709 51 121 133
-0.164168 0.0183958 -0.533587 107 130 59
0.0766547 -0.998295 -0.286078 137 0 91
0.155329 0.901441 -0.0611655 147 242 120
0.579905 -0.654489 0.109568 201 44 141
0.270829 0.505679 0.238259 162 192 158
-0.120754 0.340947 0.429232 112 171 182
0.464258 -0.545964 0.432864 187 58 183
-0.197334 0.909425 0.177143 102 243 150
-0.125876 -0.779528 -0.556148 111 28 57
-0.14587 -0.999349 0.135365 109 0 145
-0.288427 -0.99968 0.167709 91 0 149
-0.556254 -0.680436 -0.26759 57 41 93
-0.183895 -0.972699 0.374704 104 3 175
0.0447424 0.368459 0.423999 133 174 182
0.478259 0.23953 0.132532 188 158 144
0.308773 -0.601585 0.503783 167 51 192
-0.140017 0.159865 -0.511961 110 148 62
0.473111 -0.205879 0.403192 188 101 179
-0.203232 0.087588 -0.49774 102 139 64
-0.111072 0.781948 0.0845225 113 227 138
0.340137 -0.434755 0.528001 171 72 195
-0.0838369 0.100793 0.548565 117 140 197
-0.324542 -0.338219 -0.563306 86 84 56
-0.0719422 -0.906317 -0.457038 118 12 69
-0.559392 -0.555 -0.304023 56 57 89
0.104633 0.716376 -0.18506 141 219 104
0.0145971 0.855596 -0.1226 129 237 112
0.123171 -0.460584 -0.599024 143 69 51
-0.0345554 -0.998537 -0.248668 123 0 96
0.297435 -0.324322 0.544578 165 86 197
0.47016 -0.786699 0.266689 187 27 162
0.549812 0.0678516 -0.136957 198 136 110
0.521468 0.118574 0.172951 194 143 150
0.568955 -0.683503 0.217205 200 40 155
0.336978 0.466171 -0.115185 170 187 113
0.488919 -0.285169 0.392493 190 91 178
-0.12376 -0.49534 -0.62526 112 64 48
-0.0413031 0.713966 -0.189356 122 219 103
0.45165 0.190375 0.252285 185 152 160
0.148703 0.233183 -0.450445 146 157 70
0.1235 0.689584 0.241493 143 215 158
0.202589 0.0300539 0.538574 153 131 196
0.180552 0.602091 -0.18608 151 204 104
-0.25853 -0.690339 -0.543262 95 39 58
0.079789 -0.999131 0.199885 138 0 153
0.201422 0.991638 0.212196 153 254 155
0.102711 0.595175 0.263764 141 203 161
-0.158056 -0.780891 0.555712 107 28 198
0.124857 -0.854765 0.509353 143 19 192
-0.223611 0.511127 -0.257785 99 193 95
-0.22122 0.598624 0.165726 99 204 149
-0.457676 -0.913717 -0.127808 69 11 111
0.568404 -0.687916 -0.240413 200 40 97
-0.18934 0.387607 -0.341891 103 177 84
-0.572709 0.0552988 -0.00366407 54 135 127
-0.520959 0.114858 0.264582 61 142 161
0.467309 0.0213592 0.383119 187 130 176
0.490254 0.231719 -0.0756186 190 157 118
-0.0219747 0.12786 -0.519006 125 144 61
0.42198 0.319902 0.162248 181 168 148
-0.0794506 0.300776 0.494488 117 166 191
0.264964 -0.832004 0.436027 161 21 183
0.627727 -0.251547 -0.00512639 208 95 127
0.59648 -0.438038 -0.286827 204 72 91
0.472874 -0.7943 -0.266849 188 26 93
0.054622 0.59221 -0.244037 134 203 96
0.410692 0.33529 -0.146575 180 170 109
-0.219613 0.247388 0.470486 99 159 187
0.422425 -0.23551 -0.497867 181 97 64
0.00649142 0.639445 0.191622 128 209 152
0.0945881 -0.159162 0.608684 140 107 205
-0.11005 0.851506 -0.0524878 113 236 121
-0.198049 -0.181469 -0.601537 102 104 51
0.59134 -0.185471 0.191588 203 104 152
0.468101 0.268799 -0.196564 187 162 102
-0.505874 0.183143 -0.104547 63 151 114
0.305058 0.385708 0.333182 166 177 170
-0.417854 -0.746543 0.397437 74 32 178
-0.13691 0.822038 -0.164858 110 232 106
0.0850829 -0.713736 0.552783 138 36 198
-0.620406 -0.15649 -0.0533717 48 108 121
0.085848 -0.839038 -0.500467 138 21 64
0.249038 0.600692 0.121599 159 204 143
0.402577 -0.246669 0.513903 179 96 193
0.409805 -0.907939 0.225515 180 12 156
0.206552 -0.560617 -0.602136 154 56 51
0.366079 -0.667655 -0.452503 174 42 70
0.440095 -0.753495 -0.402006 184 31 76
0.0683969 -0.942585 0.431908 136 7 183
-0.186098 -0.302987 0.59521 104 89 203
-0.222519 0.350663 0.379625 99 172 176
0.194116 0.851586 -0.114094 152 236 113
-0.307375 -0.764947 -0.450656 88 30 70
-0.624595 -0.244226 -0.226272 48 96 99
-0.427375 -0.722737 -0.415714 73 35 74
-0.205953 0.985567 -0.0685099 101 253 119
0.3649 -0.440454 -0.541136 174 71 59
-0.20313 -0.999201 -0.209373 102 0 101
0.198781 0.716752 0.188751 153 219 152
-0.30439 -0.426609 -0.571774 89 73 55
-0.310249 -0.595661 -0.505265 88 52 63
-0.272822 -0.284822 -0.551254 93 91 57
-0.610986 -0.495584 0.134064 50 64 145
-0.576515 -0.624098 0.17774 54 48 150
-0.149246 0.895443 0.0429936 108 242 133
-0.562198 -0.751079 0.0185831 56 32 130
0.0259198 0.172539 0.522001 131 149 194
-0.629923 -0.438422 -0.00884425 47 72 126
0.440384 -0.607547 -0.440979 184 50 71
-0.250385 -0.20944 0.593461 96 101 203
0.000534598 0.297994 0.467567 128 165 187
0.434391 0.158964 -0.290843 183 148 90
-0.410696 -0.938824 0.207832 75 8 154
0.199573 0.622323 0.00385528 153 207 128
-0.575725 -0.300415 0.271059 54 89 162
-0.25697 -0.999249 0.0389289 95 0 132
-0.113847 0.446365 0.376197 113 184 175
-0.166888 0.63033 0.0346881 106 208 132
-0.57106 -0.0318395 0.192869 55 123 152
0.397797 -0.456837 0.46929 178 69 187
-0.613748 -0.523845 -0.0840095 49 61 117
-0.207941 0.687778 -0.0478681 101 215 121
-0.181433 -0.99884 -0.0654312 104 0 119
-0.466889 0.286099 -0.18831 68 164 103
-0.52316 0.141535 -0.231757 61 146 98
0.0408469 -0.338834 -0.636694 133 84 46
0.22386 0.452894 0.294073 156 185 165
0.0600538 -0.999464 0.297697 135 0 165
0.203596 0.447938 -0.292258 153 185 90
-0.158133 -0.953885 -0.396775 107 6 77
-0.46209 -0.653136 -0.356694 69 44 82
-0.598685 -0.146921 0.266639 51 109 161
-0.584062 -0.337425 -0.230665 53 84 98
-0.443311 -0.514911 0.433695 71 62 183
0.0542006 0.617514 0.0126154 134 206 129
0.482425 -0.406053 0.44747 189 76 185
0.0308893 0.752433 -0.183397 131 223 104
0.196255 0.557526 0.230445 153 199 157
-0.100881 -0.222773 0.60998 115 99 205
-0.266262 0.925352 0.0317983 94 245 132
0.047723 0.826485 0.23831 134 233 158
0.203181 -0.742864 -0.544506 153 33 58
-0.0142815 0.655314 -0.247425 126 211 96
0.183191 0.953134 0.130052 151 249 144
0.25847 -0.0963416 0.584924 160 115 202
0.164392 -0.289687 0.599068 148 91 204
-0.0791484 0.607434 -0.00925439 117 205 126
0.414998 -0.538145 -0.449745 180 59 70
0.532303 0.158007 0.0517371 195 148 134
-0.0661233 -0.0115154 -0.562225 119 126 56
-0.357511 0.00917464 0.511156 82 129 193
0.354916 0.236649 0.344274 173 158 171
0.0549032 -0.20417 -0.636836 135 101 46
0.54545 -0.110015 0.272188 197 113 162
0.109142 0.863295 0.137574 141 238 145
-0.586433 -0.187796 -0.271473 53 104 93
-0.491555 -0.849772 -0.151738 65 19 108
0.157307 0.389854 0.375648 148 177 175
-0.581443 -0.440473 0.271924 53 71 162
0.512479 -0.0241456 0.29626 193 124 165
-0.165549 0.939146 0.241935 106 247 158
0.0733423 -0.761195 -0.537201 137 30 59
-0.0856577 0.229351 0.495073 117 157 191
0.070288 -0.0174344 0.580636 136 125 202
0.614295 -0.501946 0.0874553 206 64 139
0.622965 -0.346976 -0.0929458 207 83 116
0.549631 -0.214678 0.291883 198 100 165
-0.582069 -0.557691 0.2036 53 56 153
-0.106795 0.561433 0.330112 114 199 170
-0.20041 -0.648875 -0.542263 102 45 58
0.418861 0.356628 -0.0765627 181 173 118
-0.141798 0.680138 -0.169918 109 214 106
-0.480745 0.216537 -0.230293 66 155 98
0.077239 0.692714 0.178873 137 216 150
0.348381 -0.324973 -0.549704 172 86 57
0.00689754 0.863283 0.171274 128 238 149
0.212093 0.975292 -0.0732949 155 252 118
0.0266589 0.0483308 0.565363 131 134 200
0.323714 -0.787988 0.422295 169 27 181
0.0937991 0.988884 0.253771 139 254 160
0.0319551 0.959066 0.225332 132 250 156
0.592378 -0.650288 -0.00422713 203 45 127
-0.619785 -0.0342955 -0.107367 48 123 114
0.0695227 -0.998705 0.0294603 136 0 131
-0.210297 -0.878923 0.443162 101 15 184
-0.146463 0.978888 -0.136998 109 252 110
-0.1632 0.211061 0.498843 107 154 191
-0.0784107 -0.599317 -0.581111 118 51 53
0.489223 0.186557 0.178348 190 151 150
-0.618495 -0.35255 -0.139029 49 83 110
-0.0511315 0.0532742 0.591177 121 134 203
0.197622 0.74988 -0.0824543 153 223 117
-0.139323 0.618891 -0.234883 110 206 98
-0.485232 -0.292064 -0.393286 66 90 77
0.248987 0.584657 -0.18723 159 202 104
-0.401548 -0.383341 0.523974 76 79 194
0.463362 -0.0508253 -0.376963 187 121 79
0.612492 -0.219389 0.118726 206 100 143
-0.0946974 0.669527 0.177003 115 213 150
-0.431887 -0.188365 0.454913 72 103 186
0.465348 0.292489 0.0321063 187 165 132
-0.172252 -0.0109247 0.600062 106 126 204
0.209983 0.313146 0.400248 154 167 179
-0.0614203 -0.999165 -0.341676 120 0 84
-0.455174 0.101496 0.381532 69 140 176
0.620187 -0.308383 0.108544 207 88 141
0.62709 -0.416816 -0.0287703 207 74 124
-0.180026 -0.551494 0.613453 105 57 206
-0.384261 -0.992316 0.134497 79 1 145
-0.0261574 -0.821102 -0.512375 124 23 62
0.293989 -0.912567 0.384207 165 11 176
-0.479707 -0.642036 0.384522 66 46 177
-0.451189 0.282587 0.138892 70 164 145
0.129775 0.122884 0.549762 144 143 198
-0.00123507 -0.678485 0.597659 127 41 204
0.436471 -0.410156 -0.44702 183 75 71
-0.430929 -0.0595401 0.431264 73 120 182
0.429019 -0.847314 -0.284943 182 19 91
0.0384195 0.23751 0.493396 132 158 190
-0.152833 0.760206 -0.108722 108 224 114
0.270186 0.569275 -0.0998358 162 200 115
-0.365146 -0.684731 -0.439158 81 40 72
0.235856 -0.158221 -0.590942 158 107 52
-0.170575 0.53007 0.277354 106 195 163
0.21417 0.922128 -0.165665 155 245 106
-0.2743 0.181708 -0.46444 93 151 68
-0.532657 -0.40485 -0.326619 60 76 86
0.109543 -0.337618 -0.606857 141 84 50
-0.200844 0.97381 0.0807099 102 252 138
0.544438 -0.227867 -0.317399 197 98 87
-0.57316 -0.340917 -0.323124 54 84 86
0.424377 -0.604775 0.441752 182 50 184
0.0536144 0.111615 0.541268 134 142 197
0.463344 -0.880179 0.158177 187 15 148
0.216289 -0.627031 -0.583728 155 48 53
0.229575 -0.373144 0.571747 157 80 200
0.255939 0.128803 -0.488417 160 144 65
0.059535 -0.358978 0.628535 135 82 208
0.0258981 0.442969 0.418231 131 184 181
0.155209 0.45443 -0.34893 147 185 83
0.144262 -0.535407 -0.585151 146 59 53
0.26618 0.240214 0.451768 161 158 185
0.110769 0.498085 0.367004 142 191 174
-0.592317 -0.633439 -0.0841449 52 47 117
0.654349 -0.402211 0.0345686 211 76 132
-0.0140869 -0.440283 0.619964 126 71 207
-0.101933 0.807225 0.197441 115 230 153
0.449266 -0.934344 0.0328658 185 8 132
0.607363 -0.387552 -0.160579 205 78 107
-0.13481 -0.676603 0.562323 110 41 199
0.540092 -0.0920641 -0.268062 196 116 93
0.548085 -0.853338 -0.100145 197 19 115
0.308603 0.457621 -0.177186 167 186 105
-0.412095 0.405414 0.138065 75 179 145
-0.563126 -0.00827404 -0.26127 56 126 94
-0.452741 0.351428 0.113482 70 172 142
0.131629 0.253917 0.473112 144 160 188
0.603907 -0.417016 0.170385 204 74 149
-0.413109 0.360255 -0.0833704 75 173 117
0.0904826 -0.263408 0.615026 139 94 206
0.480767 -0.195125 -0.439346 189 103 71
-0.606108 -0.173748 -0.130069 50 105 111
0.501924 -0.495547 -0.36591 191 64 81
-0.373122 -0.876381 -0.321081 80 16 87
-0.0659202 -0.308847 -0.608879 119 88 50
-0.0527646 0.17637 0.542479 121 150 197
0.227324 0.798829 0.00658244 156 229 128
-0.109841 -0.984648 0.385022 113 2 177
0.525937 -0.554813 0.303442 195 57 166
-0.629601 -0.200473 0.0236477 47 102 131
-0.546066 -0.10076 0.288307 58 115 164
-0.0281707 0.51544 -0.295833 124 193 90
-0.184795 -0.319118 -0.585669 104 87 53
0.567753 -0.398563 0.264253 200 77 161
-0.00704331 0.696625 0.251087 127 216 160
0.0618095 -0.887104 0.476537 135 14 188
-0.311375 -0.826328 -0.420284 88 22 74
0.0590482 0.288761 -0.441055 135 164 71
0.55473 -0.00154248 -0.188012 198 127 104
0.590148 -0.552763 0.161131 203 57 148
-0.163628 0.102078 0.567248 107 141 200
0.174249 -0.951185 -0.396734 150 6 77
-0.0276351 0.992017 -0.219846 124 254 99
0.264247 0.688675 0.0342991 161 215 132
-0.550478 -0.752518 0.127106 57 32 144
-0.247649 0.857506 -0.0479757 96 237 121
-0.303833 0.375972 0.294029 89 175 165
0.230916 -0.998682 -0.0370731 157 0 123
-0.460525 -0.120317 0.439687 69 112 184
-0.0688564 0.786646 -0.168473 119 228 106
-0.188995 0.749099 0.156738 103 223 147
0.138949 -0.950526 0.404375 145 6 179
0.559667 -0.689893 -0.158687 199 40 107
-0.46411 0.0951129 -0.288771 68 140 91
-0.3373 -0.17809 0.557304 84 105 199
-0.56428 0.151244 0.0997562 56 147 140
0.394166 0.022263 0.424156 178 130 182
-0.518593 -0.848032 0.0752269 61 19 137
0.581095 0.0227724 0.0419475 202 130 133
0.296787 0.98593 0.0971017 165 253 140
0.0831267 -0.599348 -0.606176 138 51 50
0.103646 -0.998447 -0.199677 141 0 102
0.15195 0.993153 -0.173025 147 254 105
0.135218 0.76456 -0.149666 145 225 108
-0.413906 -0.89932 -0.241458 75 13 97
0.26752 -0.95185 -0.345637 162 6 83
0.62143 -0.540658 0.0204006 207 59 130
-0.136273 0.69983 0.129895 110 217 144
0.590669 -0.599053 -0.255599 203 51 95
-0.0638766 0.594647 0.278865 119 203 163
-0.221579 0.532172 -0.19317 99 195 103
0.305556 0.494489 0.154825 166 191 147
0.124685 0.652863 -0.194441 143 211 103
0.513377 0.258752 0.0789945 193 160 138
-0.0377375 0.794261 0.217709 123 229 155
-0.0485891 0.827647 -0.101154 121 233 115
0.255401 0.742496 -0.0488313 160 222 121
0.533536 -0.765234 -0.257049 196 30 95
0.598964 -0.135871 -0.165425 204 110 106
-0.248231 0.640039 -0.00635209 96 209 127
0.491396 0.0910171 0.264703 190 139 161
0.565689 -0.150049 -0.236772 200 108 97
0.333685 0.358725 -0.249862 170 173 96
-0.434551 -0.00252057 -0.405687 72 127 76
0.332735 -0.724222 0.444035 170 35 184
-0.402577 0.223922 -0.278573 76 156 92
-0.586741 0.0110284 0.062125 53 129 135
0.219262 -0.998308 -0.241889 155 0 97
0.574187 -0.744775 0.0764262 201 33 137
0.409107 -0.0936408 0.446168 180 116 184
-0.157064 0.201696 -0.463177 107 153 68
0.0908394 0.922268 -0.131774 139 245 111
-0.394773 -0.879597 0.336802 77 15 170
0.227376 -0.430013 -0.612683 156 73 49
-0.150816 -0.420456 0.634735 108 74 208
-0.0934335 -0.487222 0.602696 116 65 204
-0.461924 -0.00166748 0.422385 69 127 181
0.183832 -0.999181 0.206764 151 0 154
0.248097 0.33228 -0.346884 159 170 83
-0.60865 -0.0857175 -0.0497343 50 117 121
0.0720239 0.954438 -0.256786 137 249 95
-0.543482 0.131697 0.0300962 58 144 131
0.438084 -0.869039 0.285893 183 17 164
-0.0297471 -0.0577319 0.629667 124 120 208
0.154782 0.841196 0.0544338 147 235 134
0.309465 0.0768053 -0.449022 167 137 70
0.655874 -0.183819 0.0743938 211 104 137
0.49963 0.297092 -0.0337612 191 165 123
0.234517 -0.29018 -0.610742 157 91 50
-0.169571 0.479895 -0.279255 106 189 92
-0.268201 -0.999845 0.237275 93 0 158
0.0752427 -0.785124 0.528276 137 27 195
-0.225982 0.782281 0.0548122 99 227 134
0.278595 0.51625 -0.219994 163 193 99
-0.570513 -0.654742 -0.150668 55 44 108
-0.280658 0.0192216 0.515146 92 130 193
-0.330357 -0.310548 0.536572 85 88 196
-0.609038 -0.575624 -0.0396374 50 54 122
0.161958 0.344497 -0.382411 148 171 79
0.261904 -0.722975 0.527892 161 35 195
-0.119567 -0.998751 -0.180915 112 0 104
-0.248122 0.949032 0.1489 96 249 146
0.260826 -0.718566 -0.500858 161 36 64
-0.302725 -0.914358 -0.348736 89 11 83
0.150867 0.521892 0.289782 147 194 164
0.20171 -0.222187 0.58211 153 99 202
0.285651 -0.18573 0.543338 164 104 197
-0.532131 -0.74913 0.192335 60 32 152
-0.252935 0.543418 0.181234 95 197 151
-0.28383 -0.954445 0.334638 91 6 170
-0.434474 0.150103 -0.320357 72 147 87
-0.19352 0.416499 0.350221 103 181 172
-0.591361 -0.640691 0.105146 52 46 141
0.608955 -0.101276 -0.00751838 205 115 127
0.497568 -0.692636 0.284156 191 39 164
0.578562 -0.122747 0.204655 201 112 154
-0.298125 -0.125018 -0.550643 89 112 57
-0.373292 -0.0588413 0.498226 80 120 191
0.393113 -0.0902598 -0.491421 178 116 65
-0.256805 0.429369 0.293704 95 182 165
-0.536149 0.125667 -0.0993662 59 144 115
-0.279095 0.422302 -0.240671 92 181 97
0.245754 -0.799858 0.501373 159 26 191
0.249083 -0.374348 -0.567444 159 80 55
0.343368 -0.871897 0.348947 171 16 172
-0.079442 0.358844 -0.393455 117 173 77
-0.0814043 0.397543 0.404497 117 178 179
0.172151 -0.672817 -0.569294 149 42 55
-0.580017 -0.105496 -0.180882 54 114 104
0.247059 0.985456 -0.00178977 159 253 127
-0.0517495 0.98154 0.240694 121 253 158
-0.587229 -0.464113 -0.208951 53 68 101
-0.00893893 -0.860036 0.499294 126 18 191
0.62956 -0.639496 0.0616311 208 46 135
0.64639 -0.486691 -0.124367 210 65 112
-0.503551 -0.502177 0.368098 63 63 174
-0.191575 0.860824 0.123701 103 237 143
0.468682 0.0849494 0.371026 187 138 175
0.40558 -0.967567 0.106128 179 4 141
-0.357019 0.0618692 0.453859 82 135 185
-0.63507 -0.36122 0.18901 47 81 152
0.340679 0.141512 -0.391075 171 146 78
-0.0673672 0.510229 0.331614 119 193 170
0.434714 0.0849636 -0.389438 183 138 78
-0.197362 0.636459 -0.124803 102 209 112
0.5914 -0.376168 -0.304344 203 80 89
-0.481804 -0.495173 -0.383541 66 64 79
0.622352 -0.306956 0.228635 207 88 157
-0.386845 0.272475 -0.317833 78 162 87
0.58447 -0.481381 -0.232597 202 66 98
0.126138 0.553473 -0.278785 144 198 92
-0.20827 0.746813 -0.0734005 101 223 118
0.3166 -0.998796 0.0635791 168 0 136
-0.453991 -0.942708 0.0598803 70 7 135
-0.306377 0.128365 -0.431008 88 144 73
-0.581406 -0.690698 -0.0251534 53 39 124
0.456562 -0.727252 -0.343583 186 35 84
0.363705 -0.535187 -0.488677 174 59 65
0.0222842 0.644863 -0.082874 130 210 117
-0.400344 -0.512019 -0.458148 76 62 69
-0.10821 0.0391268 -0.574114 114 132 54
-0.360593 0.47702 0.148631 82 188 146
-0.371839 -0.945051 0.258113 80 7 160
-0.411349 -0.982558 -0.0495072 75 2 121
0.423065 -0.740475 0.357022 181 33 173
-0.101677 0.298231 -0.429254 115 166 73
0.265811 -0.82602 -0.469341 161 22 68
0.328181 -0.940432 -0.306524 169 8 88
-0.503433 -0.124584 0.364544 63 112 174
-0.508849 -0.865239 -0.0349301 63 17 123
0.399218 -0.689722 0.453111 178 40 185
-0.174261 -0.389908 -0.587129 105 78 53
-0.305807 -0.905562 0.408074 89 12 180
-0.243293 -0.279231 0.575956 96 92 201
-0.0307079 0.899204 -0.223235 124 242 99
0.00407459 -0.972969 0.410849 128 3 180
-0.0341436 0.724508 0.193869 123 220 152
-0.257208 -0.0903407 0.551806 95 116 198
0.502229 -0.425344 -0.377706 192 73 79
0.197555 0.867388 0.151147 153 238 147
-0.122361 -0.558069 -0.615615 112 56 49
0.243606 0.39986 -0.302684 159 178 89
0.152643 0.732714 0.131887 147 221 144
-0.633359 -0.2977 0.0622316 47 90 135
0.00356791 -0.164648 0.612365 128 107 206
-0.41867 0.168018 0.332954 74 149 170
-0.470365 0.258289 -0.0988835 68 160 115
-0.655686 -0.27136 -0.041914 44 93 122
0.128783 0.904447 0.241322 144 243 158
-0.586089 -0.754793 -0.114607 53 31 113
0.00701999 -0.808681 0.557157 128 24 199
0.615925 -0.441172 0.111738 206 71 142
-0.542029 -0.811462 -0.0711043 58 24 118
0.0634629 0.724274 0.249717 136 220 159
-0.0327136 -0.998891 0.0838584 123 0 138
-0.260526 0.646464 0.117682 94 210 143
-0.407752 -0.94087 -0.191063 76 8 103
-0.24617 -0.696037 0.516459 96 39 193
-0.120064 -0.822445 0.52758 112 23 195
-0.498276 -0.370289 -0.430431 64 80 73
0.278025 0.966846 -0.114416 163 251 113
0.280321 -0.872744 -0.408506 163 16 75
-0.175683 0.697671 0.010537 105 216 129
0.033126 -0.489092 0.609272 132 65 205
0.0761696 0.633692 0.0696151 137 208 136
-0.326479 0.533586 0.135071 86 196 145
-0.189478 0.962261 -0.188346 103 250 103
0.530416 -0.819891 0.00587189 195 23 128
-0.574832 -0.00320886 0.257167 54 127 160
0.611854 -0.612238 -0.0852371 206 49 117
-0.282912 0.293366 -0.346079 91 165 83
0.0134991 0.900493 0.265734 129 242 161
0.559163 -0.754191 0.00617445 199 31 128
0.50067 -0.465006 0.365339 191 68 174
-0.614814 -0.564771 0.0299376 49 55 131
-0.177713 0.151137 0.509477 105 147 192
-0.636349 -0.0818701 0.0863195 46 117 139
-0.530048 -0.297651 -0.336501 60 90 85
-0.401436 -0.27517 -0.470703 76 92 67
-0.454455 0.2371 0.204684 70 158 154
0.554481 -0.595707 0.230482 198 52 157
-0.1877 0.98345 0.141027 104 253 145
0.50261 -0.801203 -0.201812 192 25 102
0.395959 -0.797615 -0.403321 178 26 76
0.254561 0.115986 0.493598 160 142 190
-0.448414 -0.77776 -0.305859 70 28 89
0.591415 -0.330145 -0.208478 203 85 101
0.430868 0.170171 0.362498 182 149 174
-0.279817 0.236973 0.458053 92 158 186
0.334042 -0.372853 0.523768 170 80 194
-0.0510708 -0.588915 0.591686 121 52 203
0.0735986 -0.458697 -0.642448 137 69 46
0.0954994 -0.998847 0.106097 140 0 141
-0.152506 -0.999752 0.263591 108 0 161
0.194472 0.750784 0.0582839 152 223 135
0.537257 -0.296465 0.354902 196 90 173
-0.627767 -0.39481 -0.0596932 47 77 120
-0.540624 -0.216784 -0.306018 59 100 88
-0.496885 -0.103102 -0.340334 64 114 84
-0.0797926 0.631465 -0.0666122 117 208 119
-0.159604 -0.0809481 -0.560503 107 117 56
-0.567948 -0.613489 -0.281615 55 49 92
0.0731372 -0.702834 -0.558594 137 38 56
0.150188 -0.999414 0.322905 147 0 169
-0.478484 -0.864153 -0.249915 66 17 96
-0.500089 -0.294966 0.39188 64 90 177
0.315892 0.565361 0.0323399 168 200 132
-0.627459 -0.388359 0.0918375 47 78 139
-0.138533 0.928038 -0.207962 110 246 101
0.170702 -0.166984 -0.579244 149 106 54
0.042773 -0.998517 -0.101047 133 0 115
0.61472 -0.256321 -0.141138 206 95 110
-0.243298 -0.422606 -0.563445 96 74 56
0.0571973 0.392388 -0.376679 135 178 79
-0.442721 0.192642 0.278883 71 152 163
-0.479935 -0.0261394 0.365855 66 124 174
-0.0718445 -0.353233 0.614403 118 82 206
0.564306 0.00148565 0.226976 199 128 156
0.507756 -0.650625 0.344269 192 45 171
-0.450916 0.311727 0.0382 70 167 132
-0.219978 0.209347 -0.434844 99 154 72
-0.411492 -0.0942656 -0.432081 75 115 72
-0.51399 -0.831674 0.231728 62 21 157
-0.00613883 0.619446 0.270441 127 206 162
0.0279114 0.470997 -0.328025 131 188 86
-0.43273 0.0535606 0.412746 72 134 180
-0.276989 0.506729 -0.147509 92 192 109
0.0945393 0.799551 -0.0951082 140 229 115
0.0331425 -0.095809 -0.587051 132 115 53
-0.285888 0.516025 0.236043 91 193 158
0.241 0.0773947 0.54619 158 137 197
-0.197229 0.883195 -0.104244 102 240 114
0.290266 0.925004 0.049874 165 245 134
-0.409189 -0.256875 0.480644 75 95 189
-0.65694 -0.179725 0.0743923 44 105 137
-0.0911258 0.907464 0.153117 116 243 147
0.337824 0.19829 0.427016 171 153 182
0.472371 -0.51699 -0.44905 188 62 70
0.0275879 0.718536 -0.125182 131 219 112
0.464166 -0.0763089 0.386294 187 118 177
-0.0839732 0.117116 -0.518729 117 142 61
0.601522 -0.042416 0.111056 204 122 142
0.113172 0.47794 -0.310657 142 188 88
-0.328909 -0.455238 -0.517171 86 69 62
0.167549 0.583239 0.280124 149 202 163
-0.400003 0.0738389 -0.380499 76 137 79
-0.00378232 0.360906 -0.436672 127 174 72
0.418903 -0.175937 0.453185 181 105 185
0.342143 -0.185356 0.512127 171 104 193
-0.142237 -0.428951 -0.626257 109 73 48
0.106002 -0.652557 -0.567876 141 44 55
0.24447 0.655008 0.0830062 159 211 138
-0.109187 0.791931 -0.0405538 114 228 122
-0.583176 -0.569324 -0.175415 53 55 105
0.135515 0.824765 -0.157386 145 233 107
-0.126844 -0.998624 -0.110297 111 0 113
-0.615863 -0.27698 0.156067 49 92 147
-0.36014 0.370805 -0.260827 82 175 94
-0.0952553 0.771095 0.142091 115 226 146
0.604728 -0.336826 0.178493 205 85 150
-0.267832 0.593599 0.0602225 93 203 135
-0.50616 -0.546267 -0.338081 63 58 84
0.44213 0.320265 0.228929 184 168 157
0.491215 -0.870904 0.0829561 190 16 138
0.150876 0.0671181 0.53892 147 136 196
-0.238197 -0.999195 -0.158995 97 0 107
0.192696 -0.579916 0.559567 152 54 199
0.004553 -0.522825 -0.603026 128 61 51
0.0790355 0.783658 0.208549 138 227 154
0.257551 0.0131158 0.557121 160 129 199
0.271072 -0.238093 0.569698 162 97 200
-0.32746 -0.708198 0.470884 86 37 188
-0.31594 -0.999495 0.0224975 87 0 130
0.17137 0.663371 0.182887 149 212 151
-0.043598 -0.760384 0.544189 122 31 197
-0.228915 -0.809779 0.474861 98 24 188
0.384463 -0.406688 -0.489397 177 76 65
0.368872 -0.206991 -0.491931 175 101 65
0.112214 -0.386589 0.614053 142 78 206
-0.552483 0.0871853 0.118954 57 139 143
0.347025 -0.988881 0.186622 172 1 151
-0.119476 -0.616878 0.577021 112 49 201
0.369862 0.366431 -0.187906 175 174 104
-0.28496 -0.530785 0.541238 91 60 197
-0.142744 0.766843 0.0280836 109 225 131
-0.156246 0.915931 -0.0159423 108 244 125
-0.204582 -0.501308 0.577847 101 64 201
0.17459 0.894869 0.0322985 150 242 132
0.32525 0.0111287 -0.493238 169 129 65
0.327023 0.422866 0.213735 169 181 155
-0.449508 -0.323286 0.492367 70 86 190
0.126693 -0.561613 0.599068 144 56 204
-0.6424 -0.460162 -0.156043 46 69 108
0.0311463 -0.873186 -0.505379 131 16 63
-0.199643 0.362747 -0.39747 102 174 77
-0.281346 -0.399152 0.55853 92 77 199
-0.181392 0.661391 0.0833995 104 212 138
0.145523 -0.405382 -0.598175 146 76 51
0.196909 -0.998736 0.0118219 153 0 129
-0.125498 -0.204047 -0.591409 111 101 52
-0.253745 -0.169347 -0.584362 95 106 53
-0.106047 0.937024 0.274191 114 247 162
-0.311376 -0.789226 0.482065 88 27 189
0.170778 -0.998398 -0.183531 149 0 104
0.237737 -0.513194 -0.569309 158 62 55
0.102138 0.369638 0.408811 141 175 180
-0.303028 0.54183 -0.0263035 89 197 124
-0.0894237 -0.998728 0.0175272 116 0 130
0.156497 -0.061055 0.574373 147 120 201
-0.257973 -0.551471 -0.571196 95 57 55
0.558747 -0.753323 0.199146 199 31 153
0.527007 -0.774378 0.151633 195 29 147
0.0102637 -0.262858 0.618 129 94 206
0.297309 -0.998635 -0.135387 165 0 110
-0.0828077 -0.000147488 0.580663 117 127 202
0.251886 0.404003 0.31468 160 179 168
-0.610281 0.0280384 -0.0815704 50 131 117
-0.514515 0.13845 0.21073 62 145 154
-0.237628 -0.999124 -0.098519 97 0 115
0.309148 -0.998761 -0.00599526 167 0 127
0.396146 0.190872 -0.322638 178 152 86
0.0203925 0.0646912 -0.542814 130 136 58
-0.536926 -0.707896 0.281551 59 37 163
-0.490313 -0.693258 -0.298509 65 39 89
0.267378 0.209349 -0.407953 162 154 75
-0.491698 0.159191 -0.179764 65 148 105
-0.025229 0.602676 0.0999727 124 204 140
-0.345581 -0.999761 -0.106991 83 0 114
-0.345032 -0.253502 0.526053 84 95 195
-0.102027 -0.122191 0.600205 114 112 204
-0.575103 -0.0378838 -0.14916 54 123 108
0.394899 -0.835868 0.323781 178 21 169
-0.519763 -0.767805 -0.186499 61 30 104
-0.123369 -0.874578 -0.480869 112 16 66
0.622385 -0.19155 -0.017493 207 103 125
-0.475512 -0.204145 -0.394187 67 101 77
-0.511836 0.248868 0.102938 62 159 141
-0.0283817 0.742536 -0.121718 124 222 112
-0.334672 -0.0669346 -0.483012 85 119 66
0.205525 0.967038 -0.202302 154 251 102
-0.551365 -0.231613 0.312823 57 98 167
-0.214823 -0.85996 -0.449724 100 18 70
-0.552029 0.0684461 -0.111339 57 136 113
-0.377716 -0.811425 0.378113 79 24 176
-0.543134 -0.0846999 -0.284044 58 117 91
0.38009 0.397983 0.162522 176 178 148
0.452078 0.302889 -0.0712418 185 166 118
0.382997 0.446428 -0.0850767 176 184 117
-0.0605632 0.436864 -0.378294 120 183 79
0.395569 0.274002 0.325411 178 162 169
-0.543605 -0.646637 0.279678 58 45 163
0.0143386 -0.673952 -0.572599 129 42 54
0.282771 -0.987361 0.268097 164 2 162
0.195238 -0.956124 0.418308 152 6 181
0.280022 -0.455882 0.542766 163 69 197
0.33064 -0.934475 0.296469 170 8 165
0.424717 -0.302376 -0.459307 182 89 69
-0.000324471 -0.211809 -0.607482 127 100 50
-0.380212 -0.705325 0.431457 79 38 183
0.283741 -0.0443027 -0.508024 164 122 63
0.188708 -0.044349 -0.549286 152 122 57
0.111963 0.803075 0.127904 142 230 144
0.166093 -0.902265 -0.440763 149 12 71
0.377771 -0.991923 -0.094476 176 1 115
0.275524 -0.650463 -0.513961 163 45 62
0.0665184 0.635455 0.163894 136 209 148
-0.351917 0.156416 0.410791 83 147 180
-0.107632 0.939471 -0.119534 114 247 112
0.0300655 -0.999339 0.359381 131 0 173
-0.469645 -0.698951 0.380446 68 38 176
-0.214149 -0.165996 0.580978 100 106 202
-0.343047 -0.595044 0.498297 84 52 191
0.0230764 0.996244 -0.247414 130 255 96
0.221651 0.690504 -0.0751982 156 216 118
-0.00789713 0.396587 0.411805 126 178 180
-0.315962 0.329904 0.34759 87 170 172
0.347085 0.478921 -0.0449265 172 189 122
0.575813 0.0513443 -0.00793926 201 134 126
3.39445e-05 -0.998349 -0.139837 128 0 110
-0.184489 -0.436438 0.590676 104 72 203
0.575524 -0.552487 -0.225064 201 57 99
0.31804 0.282996 0.344306 168 164 171
-0.36164 0.453318 0.0323248 81 185 132
0.486297 -0.846741 -0.169755 190 20 106
0.391603 0.454782 0.130095 177 185 144
-0.0262511 0.904828 -0.134445 124 243 110
0.000484252 -0.999366 0.294287 128 0 165
-0.0850136 -0.378766 -0.604484 117 79 50
0.386679 -0.858882 -0.327712 177 18 86
-0.230284 -0.999479 0.168497 98 0 149
0.410133 0.0057129 -0.401511 180 128 76
-0.213778 0.302164 -0.413475 100 166 75
-0.266348 0.124887 0.483472 94 143 189
-0.22615 0.934195 -0.127793 99 247 111
0.36078 0.121443 0.413075 173 143 180
-0.620273 -0.295538 -0.109492 48 90 114
-0.383109 0.410322 -0.0685809 79 180 119
-0.455218 -0.944249 0.000639579 69 7 128
0.377324 0.329738 0.238946 176 170 158
0.505742 -0.390823 -0.425848 192 78 73
-0.43593 -0.213013 -0.481942 72 100 66
0.0901191 0.0689166 -0.547255 139 136 58
0.164083 0.792134 0.0265661 148 228 131
-0.162377 -0.999053 0.0719046 107 0 137
-0.114676 0.639662 0.235065 113 209 157
-0.470424 -0.800256 -0.258177 68 25 95
0.159485 0.873176 0.194381 148 239 152
-0.150825 -0.879838 0.477144 108 15 188
0.245113 -0.936936 0.367527 159 8 174
0.529158 -0.17454 0.386307 195 105 177
-0.151022 0.793379 0.171876 108 229 149
-0.562442 0.167462 -0.0708723 56 149 118
0.1962 0.415516 0.339906 153 180 171
0.498968 -0.113864 -0.344907 191 113 84
-0.501358 -0.510997 0.424373 64 62 182
0.0791716 0.640578 -0.22661 138 209 99
0.347349 -0.494659 0.501885 172 64 191
0.200854 0.807008 -0.0792606 153 230 117
-0.457863 -0.421975 -0.462689 69 74 69
0.330729 0.0391963 0.470808 170 132 188
0.140927 -0.0522166 -0.588484 145 121 52
0.502892 -0.414606 0.395087 192 75 178
0.459812 0.366439 0.0803559 186 174 138
0.186324 0.275835 -0.451102 151 163 70
-0.118755 -0.929201 -0.429546 112 9 73
0.0553577 -0.998752 -0.339429 135 0 84
0.249523 -0.51703 0.57491 159 62 201
-0.232588 0.991128 0.0286764 98 254 131
0.0841648 -0.888228 -0.472067 138 14 67
-0.144779 -0.0794282 0.596012 109 117 203
0.19879 0.675722 -0.0154482 153 214 126
0.140361 -0.998573 -0.306411 145 0 88
-0.519351 -0.39391 0.36524 61 77 174
0.0263459 -0.393467 -0.614692 131 77 49
-0.188929 0.509855 0.333346 103 193 170
0.439791 0.406274 -0.0251426 184 179 124
-0.151488 0.690623 -0.0492723 108 216 121
0.344205 -0.558995 0.492512 171 56 190
-0.21512 0.722935 0.0975092 100 220 140
-0.285624 0.0533999 -0.510991 91 134 62
-0.210993 0.627799 0.22103 101 208 156
-0.317542 0.0585526 -0.453764 87 135 70
-0.108721 0.694188 0.24859 114 216 159
-0.652243 -0.451839 0.116048 44 70 142
-0.112436 -0.0830083 -0.591214 113 117 52
0.202898 0.751711 0.115034 153 223 142
0.0471843 0.54347 0.329547 134 197 170
-0.0843931 0.997087 -0.220296 117 255 99
-0.360515 0.25829 0.33206 82 160 170
0.151073 -0.158743 0.600043 147 107 204
0.478301 -0.763932 0.317437 188 30 168
0.291407 -0.530326 -0.532064 165 60 60
-0.490265 -0.743758 0.284632 65 33 164
-0.257794 0.982884 -0.0898247 95 253 116
-0.375064 -0.500103 0.527646 80 64 195
-0.209103 -0.766509 0.504509 101 30 192
0.264217 0.625951 -0.00758343 161 207 127
-0.391701 0.280762 0.271817 78 163 162
-0.0379169 -0.116878 0.637047 123 113 209
0.131151 0.84133 -0.0647646 144 235 119
0.00376979 -0.548958 0.625233 128 58 207
-0.266974 0.575652 -0.0572673 93 201 120
0.193994 -0.893184 0.441843 152 14 184
-0.064451 -0.135014 -0.589489 119 110 52
0.588113 -0.0368197 -0.21546 202 123 100
0.0244455 0.695807 0.196609 131 216 153
-0.143641 0.889664 0.212104 109 241 155
0.29135 0.626068 -0.0644161 165 207 119
-0.447207 -0.297776 -0.433612 70 90 72
-0.604537 0.0370772 0.108052 50 132 141
-0.351705 0.193259 -0.358776 83 152 82
-0.102871 -0.999012 -0.300232 114 0 89
-0.202246 0.837841 0.0686568 102 234 136
-0.634245 -0.305313 0.00258814 47 89 128
0.0360038 -0.999121 0.165588 132 0 149
-0.0381406 0.844431 -0.229251 123 235 98
0.272516 -0.34225 0.590938 162 84 203
0.499721 -0.597552 0.329838 191 51 170
0.42842 -0.11399 -0.435371 182 113 72
0.307273 0.958518 -0.0208965 167 250 125
0.469424 -0.608864 -0.382072 187 50 79
-0.593894 -0.427668 0.216801 52 73 155
0.590115 0.0687188 0.0718058 203 136 137
-0.129287 -0.369685 0.6408 111 80 209
-0.544393 -0.737117 -0.147404 58 34 109
-0.0672747 0.460591 -0.328612 119 186 86
0.628922 -0.109871 -0.109665 208 113 114
-0.423005 -0.76708 -0.355775 74 30 82
0.563458 -0.671746 0.163311 199 42 148
-0.507269 0.212746 0.0105849 63 155 129
-0.0620245 0.834579 0.255676 120 234 160
0.502053 0.201767 0.232346 192 153 157
0.221666 0.66302 -0.156139 156 212 108
-0.54795 0.11668 -0.0342253 58 142 123
0.000694447 0.0124027 -0.560351 128 129 56
-0.0461714 0.876693 0.163147 122 239 148
-0.4757 -0.0508159 -0.350069 67 121 83
-0.339704 0.416866 0.231277 84 181 157
-0.168231 0.997521 0.207857 106 255 154
0.175997 -0.343437 0.59349 150 84 203
-0.104927 -0.652531 -0.58168 114 44 53
-0.408078 0.319695 0.225666 75 168 156
-0.0248278 -0.951416 -0.425304 124 6 73
-0.0072983 0.432301 -0.353097 127 183 82
0.455937 -0.891652 -0.244648 186 14 96
0.557207 -0.748701 -0.0739466 199 32 118
0.205129 0.729149 -0.133016 154 220 111
-0.476581 0.147601 0.264974 67 146 161
0.0311851 0.807536 -0.184218 131 230 104
0.253698 0.852162 -0.0179398 160 236 125
-0.00873925 0.204478 -0.486631 126 154 65
0.00647571 0.304907 -0.438138 128 166 72
0.246005 0.92607 0.167412 159 246 149
0.245192 -0.97669 0.32172 159 3 169
0.15941 0.561875 -0.230565 148 199 98
0.0821487 -0.967422 -0.406577 138 4 76
0.543499 -0.849675 0.0612218 197 19 135
-0.49231 0.0185508 -0.293172 65 130 90
0.00657472 0.808349 0.174309 128 231 150
-0.639844 -0.217148 -0.0345573 46 100 123
-0.293938 -0.54675 -0.529843 90 58 60
0.0203637 -0.998578 -0.249177 130 0 96
0.404382 -0.700122 -0.411976 179 38 75
-0.465167 0.287538 -0.0357985 68 164 123
0.00108758 -0.776782 -0.540178 128 28 59
-0.622412 -0.239783 0.221532 48 97 156
-0.0546346 -0.702162 0.561261 121 38 199
-0.514494 -0.0793797 0.335663 62 117 170
0.0175709 0.534341 -0.319287 130 196 87
-0.589057 -0.0835711 0.169439 52 117 149
0.176984 -0.830415 -0.491247 150 22 65
-0.531154 0.0873813 0.200384 60 139 153
0.513134 -0.0885661 0.320409 193 116 168
-0.509911 0.191603 0.114268 62 152 142
0.104791 -0.998518 -0.0748088 141 0 118
-0.324019 -0.805187 0.426663 86 25 182
0.0392169 -0.571318 -0.622338 133 55 48
0.56275 0.133789 -0.0559021 199 145 120
0.131875 0.79703 0.210437 144 229 154
-0.60727 -0.180224 0.224325 50 105 156
-0.249014 0.907172 -0.0231081 96 243 125
0.373562 0.440609 -0.165079 175 184 106
-0.528158 0.081117 -0.215816 60 138 100
0.547238 -0.504752 -0.294932 197 63 90
0.331354 0.488181 0.100772 170 190 140
0.431688 0.239705 -0.224556 183 158 99
-0.374072 -0.564678 -0.46754 80 56 68
-0.0203174 -0.421186 -0.611757 125 74 50
-0.187515 0.0449267 0.553887 104 133 198
0.377104 -0.368523 -0.534324 176 81 59
0.386528 -0.962275 -0.189537 177 5 103
-0.25668 -0.0400169 -0.518687 95 122 61
-0.0509213 -0.300697 0.63463 121 89 208
0.598073 -0.0965374 0.113407 204 115 142
0.0918437 0.241891 0.511532 139 158 193
0.293747 0.392713 -0.263829 165 178 94
0.284878 0.58341 0.0847046 164 202 138
0.116725 -0.99873 0.00271756 142 0 128
-0.303229 0.441222 -0.185898 89 184 104
0.140149 0.63097 -0.0385474 145 208 123
-0.427332 0.150736 0.391984 73 147 177
-0.510431 -0.866076 0.170182 62 17 149
0.0689145 0.74383 -0.0978792 136 222 115
-0.19448 -0.597051 0.565698 103 51 200
0.2461 -0.874846 0.463191 159 16 187
0.588372 -0.657276 -0.0577175 203 44 120
-0.480555 -0.214213 0.459172 66 100 186
0.618217 -0.215892 -0.21742 206 100 100
-0.464016 0.304218 -0.135875 68 166 110
-0.429448 -0.828703 0.30896 73 22 167
-0.0705041 -0.242201 -0.605077 119 97 50
-0.457107 -0.318723 0.439134 69 87 183
-0.378732 0.406723 -0.181371 79 179 104
-0.323153 -0.977641 -0.25357 86 3 95
-0.143979 -0.270598 0.604512 109 93 205
-0.39824 -0.395533 -0.47421 77 77 67
0.0821469 0.877574 0.244587 138 239 159
0.569319 0.15298 0.10052 200 147 140
-0.0359415 -0.481264 -0.606399 123 66 50
-0.124341 0.216806 -0.503243 112 155 63
-0.157745 -0.999242 -0.284634 107 0 91
-0.290961 -0.650638 -0.526692 90 45 60
0.27865 -0.662365 0.542123 163 43 197
-0.196463 -0.984081 -0.348793 102 2 83
-0.0462793 0.886908 0.25925 122 241 161
0.563028 -0.260737 -0.272124 199 94 93
0.249196 -0.228327 -0.562399 159 98 56
0.395487 0.46854 0.0208076 178 187 130
-0.208767 -0.919043 -0.406784 101 10 76
0.598056 -0.0433467 -0.0213677 204 122 125
0.320836 -0.732188 -0.460175 168 34 69
0.501048 -0.000375224 0.343742 191 127 171
0.506329 -0.67197 -0.29799 192 42 90
0.508388 0.20651 0.0677535 192 154 136
0.630695 -0.291571 0.0304839 208 90 131
-0.0922633 -0.999235 0.149395 116 0 147
0.14836 0.71326 -0.0795283 146 218 117
-0.0784891 -0.892353 -0.509504 117 14 63
0.226435 0.713565 0.0799027 156 218 138
-0.173575 -0.242863 -0.617067 105 97 49
-0.25598 0.420853 0.350727 95 181 172
-0.000945839 0.461627 0.369387 127 186 175
0.55743 -0.654866 -0.199086 199 44 102
0.609314 -0.198226 -0.118412 205 102 112
-0.0255171 -0.998359 -0.186708 124 0 104
-0.151963 0.690171 0.179966 108 215 150
-0.00766734 -0.387401 0.617005 127 78 206
0.538855 -0.784996 0.0895532 196 27 139
-0.412141 -0.983405 0.0836552 75 2 138
-0.315153 0.450155 0.197623 87 185 153
-0.260478 0.685033 0.0195127 94 215 130
0.45605 -0.91954 -0.0830863 186 10 117
-0.504076 -0.924104 -0.0933646 63 10 116
0.200231 -0.689886 0.526535 153 40 195
-0.615619 -0.188793 0.127038 49 103 144
0.160757 0.71499 0.0823213 148 219 138
0.570948 -0.80487 -0.113287 200 25 113
0.589029 -0.554766 -0.166077 203 57 106
-0.369369 -0.837517 -0.398045 80 21 77
0.191192 0.492381 -0.264701 152 190 94
-0.23736 -0.96164 0.359559 97 5 173
0.168569 0.0493692 -0.525128 149 134 61
0.124447 0.843165 -0.206058 143 235 101
-0.472746 -0.907448 0.158347 67 12 148
0.611851 -0.54513 -0.0796403 206 58 117
-0.000213366 0.726274 -0.220802 127 220 99
0.423569 0.236184 0.257435 182 158 160
0.115889 0.651903 -0.0921867 142 211 116
0.316434 0.287924 -0.322623 168 164 86
-0.582085 -0.719279 0.0945051 53 36 140
0.510097 0.194861 -0.191411 193 152 103
-0.304218 -0.878028 -0.4301 89 16 73
-0.64133 -0.41198 -0.133774 46 75 110
-0.218561 0.577564 -0.150102 100 201 108
0.524104 -0.192046 0.332542 194 103 170
-0.55331 -0.836468 0.113733 57 21 142
0.390785 0.252051 -0.328663 177 160 86
0.0695506 0.974237 0.2985 136 252 166
-0.322559 -0.159472 -0.510851 86 107 62
0.635785 -0.596313 0.0316777 209 51 132
0.379219 -0.794579 0.420947 176 26 181
-0.347868 -0.540989 0.547355 83 59 197
-0.236531 -0.378186 0.577483 97 79 201
0.538513 0.0937807 0.223828 196 139 156
-0.192181 -0.654193 0.555681 103 44 198
-0.501119 0.174763 0.168917 64 150 149
0.394143 -0.924777 -0.241336 178 10 97
-0.0448333 0.658374 0.190353 122 211 152
0.196515 -0.998918 0.148186 153 0 146
0.14617 0.292718 0.439936 146 165 184
-0.251762 0.127371 -0.467735 95 144 68
0.515884 0.0270313 -0.255135 193 131 95
-0.450591 -0.864735 0.242582 70 17 158
0.425193 -0.507907 0.440135 182 63 184
-0.625886 -0.48979 0.0385063 48 65 132
-0.466832 -0.613894 0.427139 68 49 182
0.533755 0.23324 -0.0302286 196 157 124
0.35898 -0.477393 -0.502308 173 67 63
0.595725 -0.108631 0.256749 203 114 160
-0.36256 -0.999623 0.0468169 81 0 133
-0.619867 -0.359451 -0.198839 48 82 102
0.570351 0.0422556 0.119602 200 133 143
0.320902 0.458324 -0.228283 168 186 98
0.270665 -0.998935 0.115074 162 0 142
0.108578 0.989841 -0.243854 141 254 96
0.161134 -0.112878 -0.572684 148 113 54
-0.153156 -0.999627 0.199599 108 0 153
0.444324 -0.420221 0.480606 184 74 189
-0.0412086 0.990773 0.29122 122 254 165
-0.556968 -0.580875 -0.242088 56 53 97
-0.374025 0.293492 -0.258574 80 165 95
0.608068 -0.439052 -0.150898 205 72 108
0.0140597 -0.99874 0.0584024 129 0 135
0.493939 -0.840295 0.172956 190 20 150
-0.157416 0.610884 0.225566 107 205 156
0.306953 0.0856031 0.465851 167 138 187
0.544614 -0.159757 0.288414 197 107 164
0.263374 0.177862 0.449592 161 150 185
0.20109 0.945436 0.236748 153 248 158
0.467489 0.137292 0.269534 187 145 162
0.293709 0.474032 0.203506 165 188 153
-0.329488 -0.999608 0.135373 85 0 145
-0.541964 -0.530127 0.302756 58 60 166
0.349921 -0.135095 0.500341 172 110 191
-0.509739 -0.18596 -0.3472 63 104 83
-0.201673 -0.587768 -0.556447 102 53 57
-0.453254 0.0496842 -0.387954 70 134 78
0.420214 -0.968328 0.00595928 181 4 128
0.652246 -0.445567 0.0722771 211 71 137
0.271338 0.876235 -0.0606913 162 239 120
-0.0706444 0.598598 0.0441233 118 204 133
-0.0514776 -0.998553 -0.0401793 121 0 122
0.511991 -0.328387 -0.385166 193 86 78
0.610501 -0.224436 0.220336 205 99 156
0.319807 -0.0885682 -0.502672 168 116 63
0.433198 -0.353387 -0.45331 183 82 70
-0.415337 0.129615 -0.370748 75 144 80
-0.135432 0.717497 -0.13284 110 219 111
-0.16111 0.441743 -0.313593 107 184 88
0.117735 0.911487 0.15514 143 244 147
-0.23882 0.46255 -0.243736 97 186 96
0.535815 0.0856909 -0.192872 196 138 103
0.0881909 0.952916 0.207871 139 249 154
0.0874349 0.132654 -0.511605 139 144 62
-0.356632 0.230764 0.398108 82 157 178
-0.372919 -0.435999 0.537792 80 72 196
-0.408847 0.30281 -0.18563 75 166 104
0.509606 -0.10109 0.389652 192 115 177
0.424719 0.291872 -0.180046 182 165 105
0.154277 -0.99867 -0.0995752 147 0 115
0.298046 -0.247786 -0.540976 166 96 59
0.395117 -0.290012 -0.517104 178 91 62
-0.19533 0.816699 0.158581 103 232 148
-0.397817 -0.240356 -0.511425 77 97 62
0.495142 -0.161846 -0.363873 191 107 81
0.0251195 0.977964 -0.196701 131 252 102
0.331097 -0.646858 -0.48441 170 45 66
-0.508663 -0.179332 0.368942 63 105 175
0.0297766 0.940627 0.298024 131 247 165
0.105363 -0.00611409 -0.586848 141 127 53
0.374396 0.324288 -0.272587 175 169 93
-0.464174 0.236045 0.260969 68 158 161
-0.0952373 0.707958 -0.188079 115 218 104
0.0351571 0.898608 -0.222418 132 242 99
0.0724652 -0.157787 -0.622801 137 107 48
-0.594767 -0.287008 -0.230353 52 91 98
-0.179421 0.542502 -0.224619 105 197 99
-0.0379158 -0.9993 0.201275 123 0 153
-0.639854 -0.576474 0.0895205 46 54 139
-0.227121 -0.208715 -0.564628 99 101 56
-0.258595 -0.0320465 0.539458 95 123 196
-0.237903 0.998072 0.137215 97 255 145
0.647399 -0.356504 -0.137192 210 82 110
0.473531 0.141313 -0.243407 188 146 96
0.18017 -0.478884 0.580049 150 66 201
-0.414515 -0.410226 0.472616 75 75 188
0.0247192 -0.0393577 0.589325 131 122 203
0.377663 0.406619 0.219613 176 179 156
0.651672 -0.53057 0.0605609 211 60 135
0.570705 -0.0167883 0.155633 200 125 147
-0.549207 -0.502468 -0.30304 57 63 89
0.146506 -0.107247 0.605868 146 114 205
0.595539 -0.713671 -0.0890918 203 37 116
0.543183 -0.74843 -0.146225 197 32 109
0.31058 0.196958 -0.383444 167 153 79
0.236706 0.588652 0.210194 158 203 154
-0.0345842 0.602963 -0.242834 123 204 97
0.113886 0.330416 0.457007 142 170 186
0.053427 -0.67643 0.567651 134 41 200
-0.286964 -0.733765 -0.505708 91 34 63
-0.155992 0.450708 0.344376 108 185 171
-0.19817 -0.107216 0.606235 102 114 205
-0.0210998 -0.903256 -0.466196 125 12 68
-0.311431 -0.376883 -0.53266 88 79 60
-0.373873 0.422436 0.0996602 80 181 140
0.523682 -0.348864 0.354872 194 83 173
0.621007 -0.497385 -0.00988231 207 64 126
0.539565 -0.644554 0.235468 196 45 158
0.414477 0.428278 0.0812678 180 182 138
0.0305835 0.612121 0.0612529 131 206 135
-0.623614 -0.474427 -0.052929 48 67 121
-0.650246 -0.159034 -0.0945546 45 107 115
-0.196546 0.643923 0.159176 102 210 148
0.225561 -0.998596 -0.0876882 156 0 116
-0.560491 -0.336465 0.303582 56 85 166
0.311113 0.537741 -0.0197952 167 196 125
0.269676 0.174186 -0.468257 162 150 68
0.584075 -0.616701 -0.144692 202 49 109
0.195286 0.942035 0.0819781 152 248 138
0.565582 -0.061646 0.219728 200 120 156
0.551263 -0.535435 0.263933 198 59 161
-0.279018 -0.999632 0.117816 92 0 143
-0.489819 -0.594339 -0.344672 65 52 84
0.477322 -0.296634 -0.404294 188 90 76
-0.221122 -0.498679 -0.565371 99 64 55
-0.250339 0.622931 -0.122268 96 207 112
0.127746 0.281227 -0.469874 144 163 68
-0.308824 -0.744772 0.509022 88 33 192
0.239626 -0.622447 -0.536161 158 48 59
-0.0850863 -0.796693 -0.516837 117 26 62
0.171976 -0.797557 0.496516 149 26 191
-0.0877434 -0.779901 0.529014 116 28 195
0.258065 0.809054 0.0663244 160 231 136
0.513229 -0.844919 -0.0430766 193 20 122
0.5546 -0.571979 -0.27841 198 55 92
-0.156483 0.0724825 -0.519629 108 137 61
-0.457971 0.0576476 -0.322171 69 135 86
-0.161282 -0.778153 -0.511699 107 28 62
-0.475523 -0.163386 -0.427957 67 107 73
-0.0795363 -0.998604 -0.211592 117 0 101
0.407332 -0.643525 -0.428474 179 45 73
-0.0598045 0.766233 0.181896 120 225 151
-0.134231 0.2519 0.512826 110 160 193
0.369432 -0.931785 0.253719 175 9 160
0.0713526 0.844046 -0.197884 137 235 102
-0.281716 0.243267 -0.380447 92 159 79
-0.331078 0.490202 -0.0579412 85 190 120
0.398165 -0.0335281 0.457752 178 123 186
-0.564288 -0.0498724 0.274802 56 121 163
0.350467 0.518875 0.0612144 172 194 135
-0.288972 -0.000969733 -0.526351 91 127 60
-0.0456415 -0.0554105 -0.576057 122 120 54
0.251272 0.263285 0.409576 160 161 180
0.101188 -0.209633 0.617002 140 101 206
-0.108781 -0.934689 0.470552 114 8 187
-0.296463 -0.493737 -0.533778 90 65 59
-0.312117 0.377494 -0.247372 88 176 96
0.0522445 -0.600659 0.586585 134 51 202
0.201479 0.151119 0.49835 153 147 191
0.628148 -0.290255 -0.0372146 208 90 123
-0.559197 -0.438337 0.35597 56 72 173
-0.126413 0.426179 0.42047 111 182 181
-0.497962 -0.602377 0.345284 64 51 172
0.478732 -0.909742 -0.0182471 189 12 125
0.577667 -0.322719 0.255602 201 86 160
-0.284006 0.315931 0.384924 91 168 177
0.192373 0.987863 -0.12671 152 253 111
-0.075137 0.602853 0.105494 118 204 141
-0.162085 -0.730399 0.574566 107 34 201
0.549413 -0.276012 0.301624 198 92 166
-0.16068 -0.678429 -0.561283 107 41 56
0.280734 0.93138 -0.0724226 163 246 118
0.329854 -0.880195 -0.406757 170 15 76
-0.345324 -0.915975 -0.308037 83 11 88
0.405154 -0.284677 0.475231 179 91 188
0.535368 0.125123 0.125293 196 143 143
-0.0095204 0.505592 0.33721 126 192 170
0.205132 -0.998424 -0.289909 154 0 91
0.612913 -0.0204576 -0.0848767 206 125 117
0.593535 -0.586906 0.120097 203 53 143
0.529115 0.117179 -0.138125 195 142 110
-0.218816 -0.998998 -0.0241554 100 0 124
-0.236727 0.366781 -0.327697 97 174 86
0.543241 -0.317677 -0.332045 197 87 85
