ply
format ascii 1.0
comment Created by Open3D
element vertex 1208
property double x
property double y
property double z
property uchar red
property uchar green
property uchar blue
end_header
-0.0839726 -0.476338 -0.600119 117 67 51
0.473237 -0.55565 -0.397528 188 57 77
-0.547532 0.073048 0.161621 58 137 148
0.147465 0.865502 0.0941958 146 238 140
-0.571259 0.0573135 -0.0175879 55 135 125
-0.504431 0.219574 0.036656 63 155 132
0.0166436 0.659926 0.250457 130 212 159
-0.570072 -0.695028 0.130778 55 39 144
-0.289555 -0.130272 -0.56105 91 111 56
0.509806 0.0343598 0.271888 193 132 162
0.614484 -0.101999 -0.190561 206 114 103
0.625167 -0.586723 -0.133654 207 53 110
-0.273194 0.253504 -0.41329 93 160 75
0.348628 -0.174035 0.506539 172 105 192
-0.46117 -0.936702 0.0329484 69 8 132
0.202697 0.910382 0.197591 153 244 153
-0.0973045 -0.433036 0.607007 115 72 205
0.216252 0.525814 0.292883 155 195 165
0.618834 -0.250487 0.0993517 206 96 140
0.389404 0.457913 0.0278748 177 186 131
-0.511141 -0.544337 0.34722 62 58 172
0.0496386 0.468753 -0.326992 134 187 86
0.0743123 0.708136 -0.215856 137 218 100
0.123344 0.106184 -0.514632 143 141 62
0.0852165 0.466813 -0.323436 138 187 86
-0.156997 0.795767 -0.106467 107 229 114
-0.189083 0.429101 0.343889 103 182 171
-0.247897 0.113001 0.49769 96 142 191
-0.42617 -0.844206 0.337624 73 20 171
0.0464175 -0.998455 -0.354074 133 0 82
-0.0838369 0.100793 0.548565 117 140 197
-0.0156999 -0.351891 0.618401 125 83 206
0.425011 -0.869391 0.279846 182 17 163
0.24376 0.343538 0.361591 159 171 174
0.251983 0.327046 0.365993 160 169 174
-0.645027 -0.362753 0.176281 45 81 150
-0.181808 0.627213 0.100737 104 207 140
0.306401 0.18005 -0.396643 167 150 77
0.139059 0.619476 -0.238146 145 206 97
-0.468626 -0.0319494 -0.366116 68 123 81
0.590363 -0.0782383 -0.152207 203 118 108
-0.0625692 -0.728089 0.552175 120 35 198
0.10155 0.963981 0.290384 140 250 165
-0.542261 -0.778095 -0.132811 58 28 111
-0.498307 -0.837754 0.172644 64 21 150
-0.578108 -0.595007 -0.173584 54 52 105
0.578971 0.0343749 0.0151587 201 132 129
-0.538611 -0.718662 0.227616 59 36 157
-0.326026 0.33316 0.306816 86 170 167
0.463113 0.063048 -0.315244 187 136 87
-0.265422 0.0454811 0.514433 94 133 193
0.346564 -0.741758 -0.43759 172 33 72
-0.193452 0.208762 0.477611 103 154 188
-0.0970209 0.203783 -0.512672 115 153 62
-0.260549 0.950761 0.12429 94 249 143
0.285132 0.943055 -0.0818599 164 248 117
0.379976 0.418426 -0.0967 176 181 115
0.364396 -0.704341 -0.439742 174 38 71
-0.466991 -0.929978 0.00635328 68 9 128
0.568203 0.0672209 0.0374868 200 136 132
-0.1878 0.887309 -0.122109 104 241 112
-0.578703 -0.572779 0.204747 54 54 154
0.257561 -0.19895 -0.554164 160 102 57
0.485674 0.140263 -0.229208 189 145 98
0.0383072 0.515481 -0.297652 132 193 90
0.247282 0.478428 0.259069 159 188 161
0.304688 -0.549081 -0.540576 166 57 59
0.583507 -0.788787 0.0519713 202 27 134
-0.32746 -0.708198 0.470884 86 37 188
0.251185 -0.998843 0.0518387 160 0 134
0.151366 -0.998371 -0.272692 147 0 93
0.559701 -0.685313 0.162217 199 40 148
0.0445924 0.0520243 0.562125 133 134 199
0.131698 0.790171 -0.0557776 144 228 120
-0.442029 0.176987 -0.260112 71 150 94
0.0516691 -0.897027 -0.468254 134 13 68
-0.577576 -0.417009 -0.243086 54 74 97
-0.509385 -0.00444367 0.313132 63 127 167
0.0786023 -0.194082 -0.633582 138 103 47
0.652207 -0.235527 0.0846086 211 97 138
0.0185863 0.715422 0.260442 130 219 161
0.489952 -0.363307 -0.424975 190 81 73
-0.0681189 -0.211674 0.627571 119 101 208
0.174536 -0.387979 0.591243 150 78 203
-0.334659 0.437076 0.259246 85 183 161
-0.191173 -0.545532 0.604636 103 58 205
-0.136231 -0.979251 0.383851 110 3 176
0.182737 -0.628551 0.551376 151 47 198
0.00946115 -0.998594 -0.29814 129 0 89
-0.285991 -0.999669 0.131872 91 0 144
0.134259 0.953575 0.183885 145 249 151
0.243892 -0.998544 -0.176863 159 0 105
-0.183611 0.840041 0.171218 104 235 149
0.275892 0.663653 -0.0561442 163 212 120
0.0859776 -0.347417 0.638013 138 83 209
0.131963 0.51682 -0.288377 144 193 91
0.0289917 0.807999 0.221617 131 231 156
-0.577253 -0.185199 0.272231 54 104 162
-0.453 0.104932 -0.351825 70 141 83
0.0418179 -0.454937 0.618415 133 69 206
-0.138418 0.588579 0.253027 110 203 160
0.505527 -0.0962987 -0.330286 192 115 85
-0.533326 0.156666 0.038734 60 147 132
0.105031 -0.255111 0.62386 141 95 207
-0.216577 0.828901 -0.0128124 100 233 126
-0.228451 0.997087 -0.114531 98 255 113
-0.478199 -0.11984 -0.421525 67 112 74
-0.0682135 0.72424 0.254852 119 220 160
-0.124389 0.259974 -0.470747 112 161 67
-0.0936489 -0.600226 0.58496 116 51 202
-0.230674 -0.999231 0.0410766 98 0 133
0.00808243 -0.724984 -0.558418 129 35 56
0.0246657 0.384774 0.416913 131 177 181
-0.603551 -0.605819 -0.151315 51 50 108
0.257337 -0.41226 0.557341 160 75 199
-0.0582894 -0.935215 -0.435555 120 8 72
-0.0819886 0.67584 -0.0989881 117 214 115
0.463742 -0.317605 0.421916 187 87 181
0.270511 0.251516 0.404552 162 160 179
-0.585007 -0.0334568 0.250759 53 123 159
0.587493 -0.321526 -0.21893 202 87 100
-0.0705162 -0.903126 -0.500244 119 12 64
0.260729 -0.998546 -0.134674 161 0 110
-0.208199 0.621778 0.16159 101 207 148
-0.248368 -0.487107 -0.561589 96 65 56
-0.12625 0.569105 0.272963 111 200 162
-0.607611 -0.207254 -0.13936 50 101 110
0.123332 -0.999346 0.298655 143 0 166
0.242692 -0.436686 0.561565 158 72 199
0.0234943 -0.876979 -0.516923 130 16 62
0.206142 0.0759625 0.528895 154 137 195
-0.0113851 0.464135 0.404808 126 187 179
-0.193943 0.769732 -0.111268 103 226 113
-0.124815 0.686114 0.244418 112 215 159
0.30202 -0.484806 -0.533578 166 66 59
0.291861 -0.992783 -0.259801 165 1 94
-0.251581 -0.999125 -0.100542 95 0 115
0.0345741 0.885678 0.178526 132 240 150
0.619074 -0.265074 0.244601 206 94 159
-0.503551 -0.502177 0.368098 63 63 174
0.0874349 0.132654 -0.511605 139 144 62
0.365178 0.0204947 0.487321 174 130 190
0.157985 0.645526 0.201662 148 210 153
-0.630899 -0.342711 0.0797823 47 84 138
0.576189 -0.0306904 -0.202005 201 124 102
-0.222151 0.619297 0.214359 99 206 155
0.0108909 0.837068 0.268839 129 234 162
0.251305 0.987062 0.010322 160 253 129
0.565027 -0.659921 -0.169805 200 43 106
0.114427 -0.622895 -0.573915 142 48 54
0.208603 0.798711 -0.0682906 154 229 119
-0.540035 -0.559995 0.296143 59 56 165
0.253255 0.351761 0.352524 160 172 172
-0.471743 -0.910807 0.0979371 67 11 140
0.243606 0.39986 -0.302684 159 178 89
0.572221 -0.331632 -0.305877 200 85 89
-0.225563 0.282896 -0.420369 99 164 74
0.461289 -0.881644 -0.173826 186 15 105
0.617595 -0.171139 0.0943341 206 106 140
0.52558 -0.545651 -0.318745 195 58 87
0.586361 -0.767884 -0.113169 202 30 113
-0.368786 0.148564 -0.371324 80 146 80
-0.107592 -0.109419 0.597827 114 114 204
-0.4724 -0.337445 0.422679 67 84 181
-0.307208 0.178824 0.480526 88 150 189
0.555265 0.102891 0.0460285 198 141 133
0.417513 0.281158 -0.24902 181 163 96
0.0437871 0.84189 -0.190076 133 235 103
-0.317729 0.564377 -0.0165151 87 199 125
-0.25597 -0.999177 -0.13024 95 0 111
0.45196 0.318395 0.0135397 185 168 129
-0.476561 0.0436896 0.338326 67 133 171
-0.0600871 0.141141 0.538935 120 145 196
-0.646102 -0.434215 -0.136893 45 72 110
-0.453885 -0.854577 0.251766 70 19 160
0.62261 -0.607908 0.0209924 207 50 130
0.414816 -0.132762 0.44949 180 111 185
-0.0670531 -0.746987 -0.539719 119 32 59
0.45605 -0.91954 -0.0830863 186 10 117
0.0804946 -0.992742 -0.37468 138 1 80
0.176617 0.993444 -0.206471 150 254 101
0.173976 -0.999227 0.227673 150 0 157
0.38478 -0.836867 0.334453 177 21 170
-0.20605 -0.998415 -0.307856 101 0 88
-0.371761 0.120517 -0.384717 80 143 78
-0.0978139 0.625511 -0.0605404 115 207 120
-0.0919382 0.895565 -0.20511 116 242 101
-0.536926 -0.707896 0.281551 59 37 163
-0.0893725 0.732675 0.209676 116 221 154
0.478451 0.219618 0.163364 189 156 148
-0.253888 0.657321 0.1238 95 211 143
-0.318829 -0.234966 0.57352 87 98 201
-0.593019 -0.0906057 0.262324 52 116 161
0.274456 0.997167 -0.002225 162 255 127
0.178666 -0.465812 -0.586667 150 68 53
0.307299 0.500438 0.142186 167 191 146
0.240085 0.613278 -0.164568 158 206 107
0.529658 -0.115449 0.301192 195 113 166
0.0436001 -0.999489 0.336183 133 0 170
0.568837 -0.0620547 0.197558 200 120 153
0.152163 0.888646 -0.0560288 147 241 120
0.603151 0.0401597 -0.0659583 204 133 119
-0.371283 -0.911131 -0.285579 80 11 91
0.0460576 -0.267121 0.617923 133 93 206
0.216547 0.95366 0.226944 155 249 156
-0.618412 -0.263009 -0.110248 49 94 113
-0.116149 -0.603514 0.580667 113 51 202
-0.299252 -0.999467 -0.211498 89 0 101
-0.102909 0.103089 0.545278 114 141 197
-0.495412 -0.852615 0.172012 64 19 149
-0.559368 0.104113 -0.0463098 56 141 122
0.501908 -0.859283 0.0696377 191 18 136
0.597304 -0.488593 0.16969 204 65 149
-0.18619 0.54726 -0.255771 104 197 95
0.476112 -0.505764 0.39878 188 63 178
-0.0729798 -0.0186613 0.586733 118 125 202
0.194993 0.799518 0.126509 152 229 144
-0.291235 -0.559593 -0.524769 90 56 61
0.568428 0.0212901 -0.119839 200 130 112
-0.152506 -0.999752 0.263591 108 0 161
-0.225075 0.98755 -0.0125395 99 253 126
0.263271 0.303353 0.374034 161 166 175
-0.12066 -0.99859 -0.0758979 112 0 118
0.178001 -0.373838 -0.593075 150 80 52
0.0725946 -0.38413 -0.646644 137 79 45
0.0922546 -0.497416 0.601088 139 64 204
-0.170271 -0.450856 0.62569 106 70 207
-0.228947 0.359588 0.369333 98 173 175
-0.0514776 -0.998553 -0.0401793 121 0 122
0.213662 0.775709 0.0892612 155 226 139
-0.533504 -0.370752 -0.338918 59 80 84
0.499437 -0.630184 -0.331248 191 47 85
-0.618409 -0.48474 0.125799 49 66 144
-0.402456 0.389662 0.0378294 76 177 132
-0.61917 -0.393615 -0.122137 49 77 112
-0.210527 0.863271 0.077864 101 238 137
0.287524 -0.683532 0.504177 164 40 192
0.00994005 -0.331673 0.619445 129 85 206
-0.48756 -0.892073 0.0839846 65 14 138
0.286547 -0.651505 0.537949 164 44 196
-0.141682 0.850463 0.235869 109 236 158
0.308549 0.975338 0.0621342 167 252 135
0.446205 -0.567424 0.411883 184 55 180
-0.539957 -0.260659 -0.315353 59 94 87
0.59274 -0.358888 -0.205845 203 82 101
0.437663 0.285531 0.186111 183 164 151
-0.599509 -0.194211 0.189655 51 103 152
-0.393372 0.447835 -0.071054 77 185 118
-0.0485761 -0.688364 0.569175 121 40 200
-0.609744 -0.235407 -0.142502 50 97 109
-0.206644 -0.997181 0.320992 101 0 168
-0.0765992 0.862813 0.141666 118 238 146
0.00458967 0.598981 0.281101 128 204 163
-0.0932171 0.996425 0.262132 116 255 161
-0.625625 -0.333123 0.145449 48 85 146
-0.159219 0.251393 0.468425 107 160 187
-0.623645 -0.160716 -0.0210662 48 107 125
0.529745 -0.343272 -0.390156 195 84 78
0.213903 -0.691283 -0.533941 155 39 59
-0.558883 -0.650199 0.225641 56 45 156
-0.46031 -0.578047 -0.439025 69 54 72
0.0957946 -0.567789 -0.588915 140 55 52
0.448282 -0.405884 0.476685 185 76 188
-0.0883938 0.968677 -0.161999 116 251 107
0.0412177 0.291857 -0.441442 133 165 71
0.441698 -0.539723 0.457404 184 59 186
0.448684 -0.337224 0.436109 185 85 183
-0.417455 -0.183513 -0.473038 74 104 67
-0.367947 0.44324 -0.0252044 81 184 124
-0.551575 -0.673869 0.225871 57 42 156
-0.452011 -0.673872 0.416442 70 42 181
-0.0536921 0.200805 -0.486154 121 153 66
0.276902 0.91191 0.0607783 163 244 135
0.265456 0.0275729 -0.496779 161 131 64
0.401664 -0.674606 0.419093 179 41 181
0.527434 -0.132558 0.379247 195 111 176
-0.328741 -0.171926 -0.508829 86 106 63
0.443301 -0.724334 -0.361998 184 35 81
0.474822 -0.0489568 -0.355561 188 121 82
0.158935 -0.725533 0.564914 148 35 200
0.467195 -0.493335 0.400579 187 65 179
0.154937 -0.395642 0.597324 147 77 204
-0.17829 0.968414 0.244045 105 251 159
-0.10318 0.979346 0.283804 114 252 164
-0.545443 0.166395 0.0564829 58 149 135
0.560226 0.107518 0.123629 199 141 143
0.501211 -0.270029 0.391189 191 93 177
-0.282207 -0.709917 -0.525999 92 37 60
0.160157 0.458903 0.331627 148 186 170
-0.47303 -0.75259 -0.287561 67 32 91
-0.177109 0.665677 -0.118546 105 212 112
-0.31157 -0.712668 -0.468723 88 37 68
-0.334996 0.0806861 -0.432009 85 138 72
-0.564821 -0.00799774 0.192072 55 126 152
-0.259143 -0.946468 0.361622 94 7 174
0.495691 -0.100032 0.391223 191 115 177
0.331732 0.153133 -0.391788 170 147 78
-0.000617319 0.832258 0.227874 127 234 157
0.135744 0.503645 0.329043 145 192 169
0.396636 -0.268309 -0.521245 178 93 61
0.303128 -0.189725 0.534643 166 103 196
-0.547167 0.0942275 0.13238 58 140 144
0.599661 -0.469539 -0.168693 204 68 106
-0.619763 -0.582846 0.0413789 48 53 133
0.595133 -0.742354 -0.113512 203 33 113
0.508531 -0.538467 0.365616 192 59 174
0.46272 -0.0892882 0.391448 186 116 177
-0.28896 0.48348 -0.157609 91 189 107
0.278409 0.997654 -0.059641 163 255 120
0.506263 -0.600306 -0.332715 192 51 85
-0.285342 -0.81513 0.483724 91 24 189
0.051019 0.233696 -0.501053 134 157 64
0.399218 -0.689722 0.453111 178 40 185
-0.651749 -0.423186 0.111841 44 74 142
-0.0342969 0.940707 -0.255288 123 247 95
0.499409 -0.597572 0.381996 191 51 176
0.446714 -0.889087 0.182732 184 14 151
-0.546329 0.0475582 -0.150829 58 134 108
0.235629 0.785895 -0.0159805 158 228 125
0.557207 -0.748701 -0.0739466 199 32 118
-0.132234 0.494973 0.324209 111 191 169
-0.38486 -0.0387882 0.464558 78 123 187
-0.374521 -0.460316 -0.486016 80 69 66
-0.0741153 0.889172 -0.106623 118 241 114
-0.571544 -0.523441 0.290181 55 61 164
-0.460638 -0.919832 -0.224468 69 10 99
0.37464 -0.924147 -0.271965 175 10 93
0.0439775 0.880797 0.256053 133 240 160
0.180323 -0.163499 0.583243 150 107 202
0.538202 0.174764 -0.00146287 196 150 127
0.390647 -0.64323 0.472954 177 45 188
-0.517972 -0.846418 -0.0530284 61 20 121
0.618334 -0.392584 0.116903 206 77 142
0.410289 -0.149171 0.456579 180 108 186
0.0126458 0.291494 -0.443853 129 165 71
0.504881 -0.713495 0.258696 192 37 160
-0.174781 0.990242 0.176677 105 254 150
-0.370323 -0.604597 -0.460533 80 50 69
0.109543 -0.337618 -0.606857 141 84 50
-0.0435001 0.913186 0.181723 122 244 151
0.173523 0.985709 0.25083 150 253 159
0.170242 0.712582 0.0680634 149 218 136
-0.284981 -0.104378 -0.561034 91 114 56
-0.447636 0.125956 -0.337623 70 144 84
0.298982 -0.90109 0.390532 166 13 177
-0.488983 -0.126185 0.392732 65 111 178
-0.583758 -0.38181 0.251089 53 79 160
0.299777 -0.771093 -0.502177 166 29 63
-0.114625 -0.879272 -0.469303 113 15 68
-0.485267 0.20434 -0.134277 66 154 110
0.219726 0.578574 -0.198274 156 201 102
-0.340214 -0.203827 -0.505086 84 102 63
0.621486 -0.190215 -0.0363941 207 103 123
0.520664 -0.230967 -0.343045 194 98 84
-0.367555 -0.950151 -0.23969 81 6 97
0.607355 -0.413106 0.20008 205 75 153
0.56528 0.0281561 0.248859 200 131 159
-0.201647 -0.868432 0.453836 102 17 185
-0.127875 -0.0655745 -0.579247 111 119 54
0.327018 -0.666103 -0.486255 169 43 66
0.572367 0.137878 -0.0465606 200 145 122
-0.146366 0.982011 0.187396 109 253 151
0.525658 -0.340036 0.401888 195 84 179
0.0369353 0.696303 0.253871 132 216 160
-0.434267 -0.261242 0.46994 72 94 187
0.368069 -0.483534 -0.493583 174 66 65
0.493484 -0.130725 0.390113 190 111 177
-0.634397 -0.310447 0.0532207 47 88 134
0.146006 -0.808529 -0.534543 146 24 59
-0.221347 0.701723 0.0578181 99 217 135
0.431493 -0.205142 -0.477787 183 101 67
-0.534852 -0.227136 -0.318563 59 99 87
-0.495843 -0.132519 0.425415 64 111 182
-0.601784 -0.591028 0.109815 51 52 142
0.56712 -0.364508 0.268839 200 81 162
0.16278 0.692091 -0.16119 148 216 107
-0.256237 0.158182 0.47377 95 148 188
0.210598 0.694197 -0.0851441 154 216 117
-0.105677 0.867252 0.256334 114 238 160
0.283492 0.609768 -0.033712 164 205 123
0.222973 -0.998757 -0.0195901 156 0 125
-0.0616261 -0.399913 -0.608028 120 77 50
-0.583984 -0.67347 -0.0603142 53 42 120
-0.177648 -0.502734 0.620534 105 63 207
0.346649 -0.749251 0.441729 172 32 184
-0.491012 -0.145325 0.399978 65 109 178
-0.592223 0.000892793 0.0654207 52 128 136
0.174474 0.735522 0.0949192 150 221 140
0.492313 -0.234011 0.384783 190 98 177
-0.255179 -0.342752 0.571774 95 84 200
0.553138 -0.763974 0.20244 198 30 153
0.246843 -0.948714 -0.362419 159 7 81
-0.639321 -0.451646 0.0783341 46 70 137
-0.0213049 -0.295689 0.617808 125 90 206
0.15301 -0.998763 -0.0174918 147 0 125
-0.270878 -0.982389 0.30964 93 2 167
0.621717 -0.424806 0.220626 207 73 156
-0.0879393 0.709935 -0.176289 116 218 105
0.295819 -0.394078 0.5759 165 77 201
0.13488 0.587343 0.273768 145 202 162
0.105871 -0.588118 0.582189 141 53 202
0.358272 -0.881445 0.324476 173 15 169
-0.0837975 -0.969709 0.409199 117 4 180
0.073786 0.791169 -0.209375 137 228 101
-0.279051 -0.999321 0.00596305 92 0 128
-0.604084 -0.633422 -0.0922122 50 47 116
0.307437 -0.998653 -0.107034 167 0 114
0.483315 -0.38584 0.437196 189 78 183
0.604827 -0.0805508 -0.0359785 205 117 123
0.072456 -0.630374 -0.610729 137 47 50
0.615856 -0.454352 0.10583 206 70 141
-0.107991 0.971184 0.201577 114 251 153
0.607579 -0.311185 0.208874 205 88 154
-0.101295 0.372318 -0.380663 115 175 79
0.0342809 -0.245383 0.61709 132 96 206
0.0157125 0.0991771 -0.532257 130 140 60
-0.139101 0.803594 0.177533 110 230 150
-0.36968 -0.151838 -0.478129 80 108 67
0.0212145 -0.323207 -0.615416 130 86 49
-0.240256 0.754188 0.0301758 97 224 131
-0.510544 -0.895681 0.154229 62 13 147
0.605476 -0.0823774 0.0110508 205 117 129
0.091632 0.650044 0.145886 139 210 146
0.0832015 0.991469 0.264984 138 254 161
0.0660265 -0.367204 -0.648426 136 81 45
0.554816 -0.726027 0.16854 198 35 149
-0.514668 0.137963 -0.137946 62 145 110
-0.623803 -0.158671 0.0257028 48 107 131
-0.583118 -0.294572 -0.23208 53 90 98
-0.185104 -0.620484 -0.553981 104 48 57
0.296029 -0.748515 0.457288 165 32 186
-0.0431389 -0.609175 0.592446 122 50 203
0.0955717 -0.465018 0.604472 140 68 205
0.0806088 -0.72814 -0.548388 138 35 58
-0.291718 0.450027 -0.192951 90 185 103
0.285296 -0.578072 0.548557 164 54 197
-0.497515 -0.75622 0.277362 64 31 163
0.581789 -0.0637046 -0.154105 202 119 108
0.285523 0.060996 0.487679 164 135 190
-0.39817 -0.593038 -0.441523 77 52 71
-0.0753318 0.410272 -0.379597 118 180 79
-0.390937 0.0906381 0.412246 78 139 180
-0.0664435 0.978674 -0.183988 119 252 104
0.153007 -0.230827 0.623482 147 98 207
-0.0333513 0.776072 0.187983 123 226 151
0.320359 -0.495813 -0.551591 168 64 57
-0.640535 -0.455341 -0.123359 46 69 112
0.123995 0.0315378 -0.54516 143 132 58
-0.561108 -0.0158204 -0.171213 56 125 106
-0.371216 -0.750022 0.418369 80 32 181
-0.213717 0.292814 0.4648 100 165 187
0.290258 0.0826582 0.476808 165 138 188
-0.134758 -0.982661 -0.373909 110 2 80
0.0984617 -0.374172 0.643066 140 80 209
0.619758 -0.241376 -0.0930156 207 97 116
0.280022 -0.455882 0.542766 163 69 197
0.0298788 -0.852134 -0.53412 131 19 59
0.524644 -0.801549 -0.22871 194 25 98
0.142363 0.803308 0.217244 146 230 155
0.14014 -0.829652 0.491211 145 22 190
-0.466187 -0.0735712 0.433171 68 118 183
-0.361498 -0.898296 -0.311015 81 13 88
-0.557077 -0.66418 0.202893 56 43 153
-0.579889 -0.0389475 0.16694 54 123 149
0.476138 -0.0824891 0.380124 188 117 176
0.0871913 0.626051 -0.000975767 139 207 127
0.549966 0.120461 0.0166465 198 143 130
0.599445 -0.0535256 0.0414711 204 121 133
-0.244109 0.186651 -0.451198 96 151 70
-0.440243 -0.331671 0.500372 71 85 191
-0.599858 -0.173842 -0.261719 51 105 94
0.130866 0.889903 -0.191509 144 241 103
0.354053 -0.435242 0.526696 173 72 195
-0.549929 -0.21751 0.313048 57 100 167
0.239411 -0.174193 -0.587843 158 105 53
0.304008 -0.0740519 0.51676 166 118 193
-0.481888 -0.428561 -0.425346 66 73 73
-0.324916 0.390687 0.279521 86 177 163
0.24151 0.653309 -0.0808653 158 211 117
-0.408116 -0.0337688 -0.416244 75 123 74
-0.441776 -0.880478 0.238969 71 15 158
-0.374514 0.362004 0.23153 80 174 157
0.0687127 0.248581 -0.496953 136 159 64
-0.627406 -0.60016 -0.136286 48 51 110
-0.0230629 -0.561931 0.62707 125 56 207
-0.620539 -0.291205 0.139608 48 90 145
-0.192057 0.829644 0.093091 103 233 139
-0.353047 -0.122599 -0.484703 82 112 66
0.416324 -0.843013 -0.306216 181 20 88
0.223281 0.678325 0.156318 156 214 147
0.0483219 0.405925 -0.367324 134 179 81
-0.0912186 0.689886 0.249747 116 215 159
0.47585 -0.754077 -0.295324 188 31 90
0.29879 -0.884095 0.392007 166 15 177
0.407427 -0.504066 -0.462051 179 63 69
0.0369591 0.141604 0.53258 132 146 195
0.354377 0.471493 0.0532204 173 188 134
0.311595 0.225133 0.434173 167 156 183
-0.206935 0.874426 0.107138 101 239 141
0.630229 -0.333586 -0.0135627 208 85 126
-0.211158 0.389105 -0.32853 101 177 86
-0.106553 -0.558238 0.591597 114 56 203
0.0352876 0.118638 -0.553247 132 143 57
-0.524356 -0.403974 -0.339148 61 76 84
-0.296804 -0.34464 -0.574252 90 84 54
0.504307 -0.689879 -0.28999 192 40 91
0.392436 0.315057 -0.211484 178 168 101
-0.240563 -0.559255 0.555299 97 56 198
-0.276585 -0.502266 0.549638 92 63 198
-0.551963 -0.802436 -0.0749841 57 25 118
0.203816 0.878931 -0.126351 153 240 111
-0.430477 -0.105536 -0.425766 73 114 73
0.513786 -0.087629 0.384512 193 116 177
-0.170203 -0.947144 -0.398794 106 7 77
-0.105114 -0.998652 -0.0497516 114 0 121
0.198781 0.716752 0.188751 153 219 152
0.564306 0.00148565 0.226976 199 128 156
-0.205056 -0.472874 -0.573685 101 67 54
-0.156988 0.0909637 0.572495 107 139 200
0.0114302 -0.907505 0.467168 129 12 187
0.0298418 0.864899 0.275697 131 238 163
0.294701 0.317202 0.340775 165 168 171
0.350565 -0.924288 0.287024 172 10 164
0.287189 0.580972 -0.0318699 164 202 123
-0.267944 -0.0836697 0.545862 93 117 197
0.415463 -0.73468 0.368249 180 34 174
0.275427 -0.998793 -0.0129896 163 0 126
-0.589526 -0.125047 -0.266152 52 112 94
0.537201 -0.551013 -0.298142 196 57 89
-0.320543 0.00374748 -0.500687 87 128 64
0.618141 -0.684281 0.0384828 206 40 132
-0.0510708 -0.588915 0.591686 121 52 203
-0.330009 -0.999542 -0.0345964 85 0 123
0.119536 -0.497902 0.595961 143 64 203
0.0913724 0.86024 -0.1035 139 237 114
0.522375 0.166588 -0.201957 194 149 102
-0.497351 -0.616375 -0.324983 64 49 86
0.384759 -0.247778 0.518158 177 96 194
0.0226325 -0.310236 0.619677 130 88 207
-0.368189 -0.902707 -0.298806 81 12 89
-0.386845 0.272475 -0.317833 78 162 87
0.225887 -0.273402 -0.614202 156 93 49
0.063173 0.845284 0.158832 136 235 148
-0.211393 -0.999733 0.241924 101 0 158
-0.586089 -0.754793 -0.114607 53 31 113
-0.391922 0.0913049 -0.380447 78 139 79
-0.481718 -0.940911 -0.0799555 66 8 117
-0.432545 -0.835675 -0.281237 72 21 92
0.348472 -0.920873 -0.307232 172 10 88
-0.553777 -0.264559 -0.290443 57 94 90
0.56856 -0.717306 -0.135734 200 36 110
-0.39088 0.00327439 0.447387 78 128 185
0.389977 0.189931 -0.37189 177 152 80
-0.100545 0.885897 0.132132 115 240 144
0.522772 -0.08071 0.359444 194 117 173
0.00376836 0.891691 -0.219244 128 241 100
-0.112429 0.800845 0.190817 113 230 152
0.536347 -0.193034 0.310804 196 103 167
-0.298702 0.259635 -0.357404 89 161 82
0.0551179 -0.517988 0.601965 135 61 204
0.606351 -0.540647 0.194625 205 59 152
0.275571 -0.914245 -0.376023 163 11 80
0.47497 0.25928 -0.078163 188 161 118
0.0465891 0.736194 -0.198355 133 221 102
0.475728 -0.680394 -0.343466 188 41 84
-0.369124 0.259133 0.370702 80 161 175
-0.0285677 0.60002 0.0461936 124 204 133
-0.296106 -0.289279 -0.541496 90 91 58
-0.474205 0.228054 0.16374 67 157 148
0.552199 -0.847963 0.050452 198 19 134
0.400713 0.368121 -0.118174 179 174 112
0.541792 0.212693 0.100919 197 155 140
-0.401637 -0.939236 -0.203495 76 8 102
0.053427 -0.67643 0.567651 134 41 200
-0.339015 0.129185 -0.406345 84 144 76
0.0864164 -0.811898 0.523683 139 24 194
0.0163405 -0.999349 0.252871 130 0 160
0.553123 -0.767785 0.0762204 198 30 137
0.00690815 0.286264 0.47329 128 164 188
-0.62501 -0.272368 -0.185592 48 93 104
-0.132978 0.827706 -0.176981 111 233 105
-0.630431 -0.396018 -0.0330791 47 77 123
0.0358383 -0.98531 0.393876 132 2 178
0.0600795 -0.0843859 0.596039 135 117 203
-0.441752 0.276 -0.212953 71 163 100
0.271625 0.486555 0.220854 162 190 156
0.365067 0.321977 0.303228 174 169 166
0.261264 0.842865 -0.0250693 161 235 124
-0.279077 -0.364195 0.561336 92 81 199
0.266034 0.531381 -0.217227 161 195 100
0.265417 0.551238 -0.132252 161 198 111
0.224475 0.0984718 -0.482599 156 140 66
-0.099009 -0.375499 0.629392 115 80 208
-0.586277 -0.68053 0.0164411 53 41 130
0.453818 -0.370585 -0.4328 185 80 72
-0.303028 0.54183 -0.0263035 89 197 124
-0.198991 -0.0779588 0.590322 102 118 203
0.454946 -0.111788 -0.400334 186 113 76
0.521295 -0.855933 -0.00731939 194 18 127
0.531725 -0.277546 -0.328942 195 92 86
-0.43682 0.267515 0.211277 72 162 154
-0.493332 -0.394025 -0.411072 65 77 75
-0.104321 -0.795959 -0.541349 114 26 58
-0.129359 -0.998821 -0.333666 111 0 85
0.418527 -0.237499 0.461593 181 97 186
0.0763282 0.292022 0.459742 137 165 186
0.444356 -0.362435 0.439226 184 81 184
0.219882 0.030298 0.556618 156 131 198
-0.11167 0.186554 0.51822 113 151 194
0.129466 -0.994769 -0.35859 144 1 82
-0.236235 0.63784 -0.12633 97 209 111
0.620975 -0.395338 0.215167 207 77 155
0.593093 -0.056466 -0.106786 203 120 114
-0.381793 0.439694 0.151914 79 184 147
0.187682 -0.844151 0.468012 151 20 187
-0.119604 -0.998811 -0.246565 112 0 96
0.112592 -0.85543 -0.499672 142 18 64
0.177883 -0.998819 0.0995548 150 0 140
-0.153576 0.247396 0.496153 108 159 191
-0.354717 -0.100473 -0.478685 82 115 66
0.136461 0.225186 0.477308 145 156 188
0.264224 -0.998912 0.07191 161 0 137
0.132305 0.191958 0.49974 144 152 191
-0.594573 -0.464878 0.298395 52 68 166
0.527285 0.106042 0.171131 195 141 149
0.114676 0.961035 0.204636 142 250 154
-0.351261 -0.819481 0.397046 83 23 178
0.0127655 0.749023 -0.119573 129 223 112
0.0960582 0.911942 0.26114 140 244 161
-0.446628 -0.844172 -0.252317 71 20 95
-0.0808537 0.992154 -0.243613 117 254 96
0.478983 0.26702 0.0331485 189 162 132
-0.225561 -0.999706 0.218241 99 0 155
0.533234 -0.0860901 -0.278618 195 117 92
0.369831 -0.342944 -0.548351 175 84 58
-0.113847 0.446365 0.376197 113 184 175
-0.0600679 -0.310968 0.636852 120 88 209
-0.571409 -0.365279 -0.282415 55 81 91
0.612566 -0.396992 -0.151603 206 77 108
0.174237 -0.620194 0.56574 150 48 200
0.398651 0.233461 0.297964 178 157 165
-0.600839 -0.0579438 0.123561 51 120 143
0.0575187 -0.998583 -0.0279187 135 0 124
0.275566 0.000400024 0.513991 163 128 193
0.297373 -0.549734 0.521675 165 57 194
-0.223892 0.396877 -0.314032 99 178 87
-0.348645 -0.259292 -0.536431 83 94 59
-0.122541 0.0594682 -0.569855 112 135 55
-0.17208 -0.872306 0.46203 106 16 186
-0.265494 -0.641669 -0.557784 94 46 56
0.245412 0.673791 0.0119255 159 213 129
-0.589666 -0.445996 -0.206921 52 71 101
-0.331838 -0.813601 -0.406641 85 24 76
-0.034283 -0.999317 0.185442 123 0 151
-0.489458 -0.277764 0.403602 65 92 179
0.391496 -0.964448 0.158494 177 5 148
0.475879 0.278381 0.12048 188 163 143
0.2563 -0.259049 0.602827 160 94 204
0.51289 0.192123 -0.0646766 193 152 119
-0.569283 -0.553905 -0.220532 55 57 99
0.244707 0.989316 -0.0442057 159 254 122
0.134159 -0.237724 0.638345 145 97 209
0.346695 0.251212 -0.345146 172 160 83
-0.595863 -0.0238217 0.0582675 52 124 135
0.473375 -0.754899 0.309292 188 31 167
0.652589 -0.417942 -0.109377 211 74 114
-0.361553 0.198824 -0.346556 81 153 83
-0.38519 -0.549714 -0.462039 78 57 69
0.136288 0.859747 0.213598 145 237 155
0.0931608 -0.999112 0.22727 139 0 156
0.406625 -0.403974 -0.472908 179 76 67
0.276272 0.861632 -0.0388388 163 237 123
-0.240653 0.836061 -0.00875917 97 234 126
0.505119 -0.404307 0.374318 192 76 175
-0.385044 0.191714 -0.348568 78 152 83
0.607507 -0.409846 0.159011 205 75 148
0.571803 -0.0383721 0.226708 200 123 156
-0.0861916 0.817912 0.206784 117 232 154
0.286702 0.616209 -0.0813848 164 206 117
-0.249493 0.601647 -0.0598384 96 204 120
-0.168768 -0.818264 0.523406 106 23 194
0.597169 -0.405353 -0.190918 204 76 103
0.559667 -0.689893 -0.158687 199 40 107
0.0618489 0.823992 0.235571 135 233 158
-0.184452 0.37426 0.399455 104 175 178
-0.0946974 0.669527 0.177003 115 213 150
-0.222614 -0.801806 -0.479246 99 25 66
-0.598528 -0.631841 -0.00631004 51 47 127
-0.0934335 -0.487222 0.602696 116 65 204
0.199312 0.50249 -0.251086 153 192 95
0.503327 -0.610699 0.375056 192 50 175
0.499942 -0.649921 -0.321474 191 45 87
0.524192 -0.387414 0.386212 194 78 177
0.255657 0.447078 -0.252394 160 185 95
-0.638335 -0.30579 0.185852 46 89 151
0.630651 -0.244469 -0.173082 208 96 105
-0.168915 0.392529 0.381845 106 178 176
-0.264893 -0.999615 -0.173515 94 0 105
-0.0726078 0.946006 -0.146523 118 248 109
0.0399658 -0.856302 -0.516126 133 18 62
-0.0286986 -0.998306 -0.158332 124 0 107
0.430501 -0.114228 0.430705 182 113 182
-0.274571 0.617197 0.11392 92 206 142
-0.198812 0.730955 0.0891693 102 221 139
0.561696 -0.0408719 -0.251571 199 122 95
0.16979 0.409289 -0.377959 149 180 79
0.562042 0.147457 -0.0516703 199 146 121
0.126236 -0.8121 -0.509972 144 24 62
-0.101811 -0.681613 0.562672 115 41 199
-0.385466 0.0519935 -0.40411 78 134 76
-0.366454 -0.0430889 0.484314 81 122 189
0.240732 -0.335646 -0.577003 158 85 54
-0.289959 -0.667677 -0.522847 91 42 61
-0.0880133 -0.999509 0.24922 116 0 159
0.591998 -0.463108 0.245404 203 68 159
0.0965966 -0.946259 0.422157 140 7 181
-0.30786 -0.629343 -0.498426 88 47 64
0.60321 -0.490793 0.238439 204 65 158
0.0181823 0.835666 0.230433 130 234 157
-0.362645 -0.31505 -0.500474 81 87 64
-0.249211 0.55688 -0.179558 96 199 105
0.558424 -0.0827462 -0.236658 199 117 97
-0.114326 -0.0718051 0.591304 113 118 203
-0.487241 -0.612376 0.410382 65 49 180
-0.45263 -0.793394 0.305364 70 26 166
0.0718438 0.140833 -0.529333 137 145 60
-0.06886 0.767994 -0.0990085 119 225 115
0.588782 0.0684328 0.114417 203 136 142
-0.135752 0.563359 -0.26487 110 199 94
-0.0573592 0.886314 -0.114464 120 241 113
-0.0991111 -0.815191 0.510651 115 24 193
0.473318 -0.569221 -0.402456 188 55 76
0.484323 -0.482007 0.383083 189 66 176
0.214421 -0.425763 -0.615404 155 73 49
-0.577952 -0.313307 0.266355 54 88 161
-0.209694 -0.151653 0.588131 101 108 202
-0.184148 0.997711 0.193578 104 255 152
-0.365434 -0.999582 -0.034593 81 0 123
0.139439 0.612392 -0.212801 145 206 100
-0.233967 0.0719348 0.520197 98 137 194
-0.437528 -0.420498 -0.458845 72 74 69
-0.532657 -0.326702 -0.385622 60 86 78
0.153866 0.774188 0.103919 147 226 141
0.382752 -0.779868 -0.398868 176 28 77
0.176357 -0.6062 0.564844 150 50 200
-0.0697108 0.88227 -0.212686 119 240 100
-0.318342 -0.065698 -0.520555 87 119 61
0.630172 -0.23581 0.0346386 208 97 132
0.00428745 -0.303058 0.619397 128 89 206
-0.0676502 0.994402 0.278287 119 254 163
0.526287 -0.222852 -0.363483 195 99 81
-0.111946 0.757035 -0.182714 113 224 104
0.510882 0.172682 -0.113364 193 150 113
0.275062 -0.69185 -0.512196 163 39 62
-0.197944 0.777334 0.114827 102 227 142
-0.187183 0.988193 0.154905 104 253 147
0.279072 -0.738482 0.507571 163 33 192
0.288659 0.925962 -0.0264126 164 246 124
0.349921 -0.135095 0.500341 172 110 191
0.484918 -0.708712 0.294681 189 37 165
-0.266122 -0.593933 0.537101 94 52 196
-0.115906 -0.862749 -0.519786 113 17 61
0.153993 0.0552439 -0.527475 147 135 60
0.246848 0.096387 -0.486351 159 140 65
0.640624 -0.433346 0.0809617 209 72 138
0.263763 -0.0509818 0.561765 161 121 199
-0.470099 0.24226 0.248262 68 158 159
-0.386921 -0.629698 0.453678 78 47 185
-0.319193 -0.927421 -0.3205 87 9 87
-0.490224 -0.890305 0.112238 65 14 142
-0.171543 -0.998192 -0.326636 106 0 86
-0.265868 0.225831 -0.444979 94 156 71
0.377363 0.449341 -0.140704 176 185 110
0.149093 -0.143277 -0.579453 147 109 54
0.614414 -0.364515 0.140403 206 81 145
0.302419 0.553097 -0.0146199 166 198 126
0.3238 -0.700939 -0.505967 169 38 63
0.155054 0.508495 0.29734 147 192 165
0.0548543 -0.625163 0.580764 134 48 202
-0.175294 0.610061 0.0649998 105 205 136
0.376373 0.0454663 0.432471 175 133 183
0.394083 -0.502514 0.467755 178 63 187
-0.237935 0.644426 0.070997 97 210 137
0.520819 -0.895225 -0.0146927 194 13 126
0.473626 -0.59849 -0.406694 188 51 76
0.279763 -0.97786 0.288909 163 3 164
-0.505811 -0.04437 -0.304092 63 122 89
-0.259645 0.289099 -0.398927 94 164 77
-0.347412 -0.888742 -0.334864 83 14 85
0.402777 -0.174776 -0.460249 179 105 69
0.422036 0.314223 -0.211148 181 168 101
-0.0889282 0.538109 0.325713 116 196 169
-0.400786 -0.705923 0.412697 76 37 180
0.314201 0.351647 0.339569 168 172 171
0.248306 0.234654 -0.420471 159 157 74
-0.105779 -0.907624 -0.449475 114 12 70
-0.0638766 0.594647 0.278865 119 203 163
0.63819 -0.106844 0.0562946 209 114 135
-0.249328 0.848402 0.0192833 96 236 130
-0.522726 -0.464164 0.402905 61 68 179
0.45743 -0.777708 0.349597 186 28 172
0.0306892 -0.998759 0.0780325 131 0 137
0.238486 -0.348953 -0.573752 158 83 54
0.177001 0.854691 0.164815 150 236 149
0.179444 0.588633 0.264201 150 203 161
0.29478 0.570786 0.0141446 165 200 129
0.0454019 -0.494495 0.605696 133 64 205
0.0873968 0.260106 0.500563 139 161 191
0.431246 0.330967 0.231945 182 170 157
-0.435644 -0.364671 0.481751 72 81 189
0.112214 -0.386589 0.614053 142 78 206
0.221861 -0.642371 -0.544549 156 46 58
-0.618754 -0.54164 0.0416451 49 58 133
-0.396379 -0.286764 0.491856 77 91 190
-0.3402 0.494909 0.0112568 84 191 129
-0.108718 0.317188 -0.412669 114 168 75
-0.579048 -0.67935 0.111206 54 41 142
-0.058682 0.224745 -0.474541 120 156 67
0.582618 -0.662458 0.210442 202 43 154
-0.390746 0.409381 0.0289421 78 180 131
-0.427184 -0.519814 0.447123 73 61 185
-0.391485 -0.7672 -0.403073 78 30 76
0.4109 -0.0448352 0.431083 180 122 182
0.419725 -0.0212807 -0.405282 181 125 76
-0.244223 0.73646 0.0288905 96 221 131
-0.140017 0.159865 -0.511961 110 148 62
0.0498664 0.917576 0.19107 134 244 152
0.330336 -0.450315 -0.554899 170 70 57
-0.295758 -0.863774 -0.447443 90 17 70
0.546799 0.0706357 0.151445 197 137 147
0.132697 -0.330125 -0.602025 144 85 51
0.153703 -0.143785 0.589726 147 109 203
-0.170023 -0.803867 0.534144 106 25 196
0.488458 -0.416105 0.438456 190 74 183
0.24241 -0.999136 0.23486 158 0 157
-0.273377 -0.156229 -0.569517 93 108 55
-0.402477 -0.952051 -0.180672 76 6 104
-0.388653 0.231724 -0.338138 78 157 84
0.528439 0.154824 -0.0725657 195 147 118
-0.0286599 0.506851 -0.315652 124 192 87
0.188692 -0.789676 -0.500261 152 27 64
-0.431672 -0.686604 -0.426237 72 40 73
0.0529811 -0.999091 0.199181 134 0 153
0.31058 0.196958 -0.383444 167 153 79
0.0624544 -0.998533 -0.351343 135 0 83
0.408308 -0.129224 0.471242 180 111 188
0.027031 0.897621 0.263406 131 242 161
-0.383033 -0.402786 -0.485174 79 76 66
0.561181 -0.741347 -0.058355 199 33 120
-0.103613 -0.998648 -0.115569 114 0 113
-0.0669673 0.0614866 -0.539721 119 135 59
0.168288 0.994744 -0.164111 149 254 107
-0.18738 -0.128304 0.618293 104 111 206
0.108432 -0.0136712 0.606804 141 126 205
-0.406211 0.250363 0.278345 76 159 163
0.5181 -0.839603 -0.00261777 194 20 127
-0.31302 -0.354269 -0.570726 88 82 55
-0.091575 0.599173 0.268209 116 204 162
-0.328327 0.499181 0.0626046 86 191 135
0.273711 0.902128 0.0180161 162 243 130
-0.175962 0.976156 0.142111 105 252 146
0.335537 -0.016189 -0.485938 170 125 66
-0.193655 -0.998912 -0.129622 103 0 111
0.613841 0.0165978 0.0797172 206 130 138
-0.110426 0.677761 -0.206435 113 214 101
-0.155795 0.901638 0.213525 108 242 155
-0.437533 0.142634 -0.355043 72 146 82
-0.234562 -0.750061 0.501041 98 32 191
-0.25367 0.391765 0.370752 95 177 175
-0.635373 -0.292412 0.0271042 46 90 131
0.0579424 0.744093 0.215994 135 222 155
-0.219796 0.774651 0.00766366 99 226 128
0.391744 0.262808 0.304095 177 161 166
0.465348 0.292489 0.0321063 187 165 132
-0.61024 -0.50888 0.130227 50 63 144
0.0144414 0.472688 0.359271 129 188 173
0.194668 0.676667 -0.174203 152 214 105
0.327148 -0.231333 0.525979 169 98 195
0.41481 -0.802776 0.330806 180 25 170
-0.122073 -0.292284 0.609072 112 90 205
0.455937 -0.891652 -0.244648 186 14 96
-0.540618 -0.0491908 -0.282722 59 121 91
0.180809 -0.554033 -0.579904 151 57 54
0.146204 -0.0957744 0.592029 146 115 203
-0.487862 -0.2473 0.439894 65 96 184
0.475624 -0.611886 -0.371065 188 49 80
-0.239065 -0.377993 -0.56729 97 79 55
0.278108 0.241411 -0.381014 163 158 79
-0.454469 -0.366493 -0.443928 70 81 71
-0.276535 0.620309 -0.00707889 92 207 127
-0.273662 0.950775 -0.050824 93 249 121
-0.0139202 -0.755008 -0.541534 126 31 58
-0.547972 0.119639 -0.00443358 58 143 127
0.386558 -0.95802 0.184218 177 5 151
0.291339 0.924497 0.0318819 165 245 132
0.0702559 -0.559172 -0.631023 136 56 47
0.199756 0.806041 -0.151696 153 230 108
0.123772 -0.882325 -0.507464 143 15 63
0.443073 0.195474 0.261895 184 152 161
0.00790481 0.885022 0.259109 129 240 161
-0.396197 0.253451 -0.284245 77 160 91
0.394705 0.123085 0.375872 178 143 175
0.545407 -0.150393 -0.280355 197 108 92
-0.127594 0.744941 0.134416 111 222 145
0.503686 -0.0484782 0.32101 192 121 168
-0.641621 -0.109723 -0.0869143 46 114 116
-0.46232 0.226495 0.200504 69 156 153
-0.0968142 -0.166356 -0.590359 115 106 52
0.0168923 0.911478 -0.143953 130 244 109
0.00556327 0.962286 -0.180591 128 250 104
-0.561446 -0.662977 -0.264278 56 43 94
-0.193779 -0.643897 0.568987 103 45 200
0.578557 -0.0660665 -0.243132 201 119 97
0.546366 0.0394533 0.267817 197 133 162
-0.264623 -0.382253 0.566626 94 79 200
0.629016 -0.283149 -0.0204126 208 91 125
0.156497 -0.061055 0.574373 147 120 201
0.0790552 -0.423618 0.611231 138 73 205
-0.196601 -0.362617 -0.582149 102 81 53
-0.483844 -0.900624 0.0699046 66 13 136
-0.316999 0.515069 0.0693241 87 193 136
0.328649 -0.118593 0.511305 169 112 193
-0.150975 -0.206984 -0.59117 108 101 52
-0.627985 -0.418507 -0.0487484 47 74 121
-0.628654 -0.325622 -0.159243 47 86 107
0.272197 -0.249098 0.582231 162 96 202
0.304232 -0.620163 -0.53983 166 48 59
0.0967507 0.283548 -0.458016 140 164 69
0.618361 -0.57358 0.0787727 206 54 138
0.310289 -0.998335 -0.200639 167 0 102
0.350029 0.491552 0.0572742 172 190 135
-0.0461105 -0.998658 -0.272609 122 0 93
0.364131 0.123647 -0.382149 174 143 79
0.513569 -0.390872 -0.37068 193 78 80
0.262178 0.967458 0.175588 161 251 150
-0.612969 -0.563792 -0.014988 49 56 126
-0.553479 -0.0160567 -0.193167 57 125 103
-0.298372 0.0962014 0.488981 89 140 190
-0.355457 -0.683226 0.459658 82 40 186
-0.465737 0.0137075 -0.35762 68 129 82
-0.379029 0.372307 -0.151193 79 175 108
0.390562 -0.974043 0.133476 177 3 145
-0.0935254 -0.999274 0.226309 116 0 156
-0.467946 -0.8913 -0.144138 68 14 109
0.173503 0.756326 0.196636 150 224 153
-0.177828 0.63575 0.0689204 105 209 136
0.00356791 -0.164648 0.612365 128 107 206
0.153493 0.48906 -0.318452 147 190 87
0.291985 0.519738 0.143344 165 194 146
-0.126692 0.00904273 -0.582511 111 129 53
-0.0309628 -0.603547 0.615887 124 51 206
0.556143 0.0266279 -0.160359 198 131 107
-0.131883 -0.790854 -0.55069 111 27 57
-0.313992 -0.99923 0.215223 87 0 155
-0.0542136 0.738954 -0.174946 121 222 105
-0.287168 -0.182847 0.551612 91 104 198
-0.448199 -0.652673 -0.428573 70 44 73
-0.419838 -0.964814 0.130125 74 4 144
0.323807 -0.145852 -0.510177 169 109 62
0.448531 0.128527 0.319542 185 144 168
-0.272326 0.53936 0.228714 93 196 157
0.327025 -0.616823 -0.539351 169 49 59
-0.370627 -0.185647 -0.482253 80 104 66
-0.24546 0.304646 -0.3676 96 166 81
0.631429 -0.613022 -0.10848 208 49 114
-0.448414 -0.77776 -0.305859 70 28 89
-0.448612 -0.220246 0.459155 70 99 186
-0.330764 -0.350722 -0.521602 85 83 61
-0.122201 0.395339 0.42272 112 178 181
0.241457 0.403241 0.362141 158 179 174
0.228416 -0.596163 0.546327 157 51 197
0.531482 -0.739033 -0.195182 195 33 103
-0.11729 -0.9988 -0.214251 113 0 100
-0.00988079 -0.998675 -0.0464879 126 0 122
-0.233817 -0.617986 -0.5403 98 49 59
0.146637 0.740748 -0.0578246 146 222 120
0.356791 -0.810125 -0.397072 173 24 77
-0.385486 0.446179 -0.115445 78 184 113
0.0253975 -0.999276 0.281444 131 0 163
-0.252077 0.604888 -0.0962759 95 205 115
-0.583922 -0.58806 0.236766 53 53 158
0.225483 -0.99887 0.0248993 156 0 131
-0.396247 0.396609 -0.0477474 77 178 121
-0.0346111 0.815904 -0.224175 123 232 99
-0.143061 0.59216 0.107909 109 203 141
-0.605374 -0.0582661 0.0320264 50 120 132
0.0852783 0.089877 0.565807 138 139 200
-0.594272 -0.653592 0.0201868 52 44 130
0.387916 -0.0651882 -0.467838 177 119 68
0.148098 0.349405 0.442258 146 172 184
0.602466 0.0743255 -0.0435656 204 137 122
0.232328 -0.485759 0.56106 157 66 199
0.189034 0.927078 0.0608724 152 246 135
-0.205605 0.442634 -0.288798 101 184 91
0.122862 -0.998333 -0.22433 143 0 99
-0.249057 -0.465105 0.566328 96 68 200
-0.525978 0.131757 0.21658 60 144 155
-0.310976 -0.403629 0.543073 88 76 197
0.463284 -0.844091 0.292147 187 20 165
0.557382 0.0531758 0.134576 199 134 145
0.237804 -0.180201 -0.571443 158 105 55
0.345249 -0.285077 -0.532982 172 91 60
0.440739 0.16909 0.324607 184 149 169
-0.466837 0.0468593 -0.315358 68 133 87
-0.109717 -0.998718 -0.19457 114 0 103
0.244357 0.405669 0.330415 159 179 170
0.0994463 0.426431 -0.348752 140 182 83
0.197625 -0.998776 0.0391125 153 0 132
0.204644 -0.922549 0.442305 154 10 184
0.605079 -0.145436 -0.104929 205 109 114
0.202146 -0.0606576 -0.548664 153 120 58
0.272199 -0.99623 -0.266733 162 0 93
0.272186 -0.987146 0.279635 162 2 163
-0.0202371 -0.998981 -0.323434 125 0 86
0.188405 0.212407 -0.445799 152 155 71
-0.141424 0.145736 -0.51784 109 146 61
0.19403 0.799691 -0.0887871 152 229 116
0.184123 0.505316 -0.259591 151 192 94
0.122007 0.289393 -0.460323 143 164 69
0.310672 -0.742997 -0.464985 167 33 68
-0.0816189 0.913702 0.263396 117 244 161
0.0276621 -0.14265 0.607927 131 109 205
0.186747 -0.945314 0.419675 151 7 181
-0.311793 -0.618674 0.542177 88 49 197
0.306292 -0.960664 0.332679 167 5 170
0.167598 -0.998966 0.322932 149 0 169
0.120734 -0.675859 -0.557836 143 41 56
-0.161169 -0.31131 -0.605061 107 88 50
0.386769 -0.993848 -0.0170959 177 1 125
0.0872239 0.939739 -0.146343 139 247 109
0.0565897 -0.994445 -0.373431 135 1 80
0.0807892 0.134395 0.547361 138 145 197
0.164619 0.166484 -0.476453 148 149 67
0.612215 -0.0340692 0.108463 206 123 141
-0.334147 -0.999224 -0.163713 85 0 107
-0.375093 0.394884 -0.146019 80 178 109
0.62369 -0.0658638 0.102914 207 119 141
0.614216 -0.522582 -0.0782195 206 61 118
0.0918891 -0.153567 -0.591885 139 108 52
-0.580604 -0.559899 -0.277358 53 56 92
-0.393825 -0.321984 -0.478549 77 86 66
0.190598 0.454858 0.315217 152 185 168
0.178265 0.627697 -0.00186182 150 208 127
0.53537 -0.247927 0.32289 196 96 169
0.226386 -0.998925 0.0566307 156 0 135
0.112134 0.671801 -0.221783 142 213 99
0.209135 -0.735831 0.507353 154 34 192
-0.515257 0.149347 -0.212338 62 147 100
0.324082 -0.872363 -0.418667 169 16 74
-0.139678 0.877041 -0.16147 110 239 107
0.610828 -0.392585 0.203919 205 77 153
0.183491 0.988175 0.200586 151 253 153
-0.0155615 -0.251578 0.617707 126 95 206
-0.257118 -0.687598 0.514347 95 40 193
-0.544056 -0.286883 0.331462 58 91 170
0.264464 -0.587871 0.568342 161 53 200
0.579927 -0.626264 -0.234334 201 48 98
0.502269 0.0266278 -0.278726 192 131 92
-0.2114 -0.389785 -0.576567 101 78 54
-0.302832 0.229124 0.404524 89 157 179
-0.581134 -0.0104977 0.133236 53 126 144
-0.430243 -0.776978 0.390787 73 28 177
0.448894 -0.246737 -0.432261 185 96 72
-0.173959 -0.999427 -0.312606 105 0 88
0.272943 -0.717863 0.525152 162 36 194
-0.0683858 0.466009 -0.341256 119 187 84
0.392167 -0.74022 0.412853 178 33 180
0.164161 -0.66402 -0.556182 148 43 57
-0.517999 0.190332 -0.0899596 61 152 116
0.187642 -0.0487341 -0.581041 151 121 53
-0.109418 0.951618 0.280255 114 249 163
0.553283 -0.300618 -0.294867 198 89 90
-0.179107 -0.547763 -0.571147 105 58 55
-0.173087 -0.828311 0.487658 105 22 190
0.580646 -0.1836 -0.210663 202 104 101
-0.0803311 -0.345725 -0.605984 117 83 50
-0.625563 -0.443257 0.144945 48 71 146
0.620245 -0.498664 -0.0290628 207 64 124
-0.571861 -0.722083 -0.0162228 55 35 125
-0.371232 0.242868 0.351957 80 158 172
-0.574907 -0.222696 -0.258181 54 99 95
0.503369 0.16257 0.169526 192 148 149
-0.00948584 0.478493 -0.358626 126 189 82
0.542318 -0.521424 0.28572 197 61 164
0.0296285 0.835761 -0.117514 131 234 113
-0.598068 -0.325281 0.218419 51 86 155
0.582734 -0.152315 0.207676 202 108 154
0.252572 0.21513 -0.455595 160 155 69
-0.0501346 0.185137 -0.493541 121 151 65
-0.571648 -0.488228 -0.241559 55 65 97
0.270081 -0.278713 0.591879 162 92 203
-0.107394 0.234866 0.509393 114 157 192
-0.365239 0.412012 -0.207093 81 180 101
-0.575398 -0.64439 0.238008 54 45 158
0.168452 -0.736607 0.536455 149 34 196
0.207359 -0.582971 0.553592 154 53 198
0.32525 0.0111287 -0.493238 169 129 65
0.403984 -0.946148 0.170464 179 7 149
0.203928 0.852172 -0.0990604 154 236 115
0.613645 -0.310683 -0.176121 206 88 105
0.0123871 -0.998712 -0.010247 129 0 126
-0.1607 -0.282054 -0.6192 107 92 49
0.352276 0.438285 -0.207763 172 183 101
-0.406148 -0.355757 0.517446 76 82 193
-0.388371 0.222917 0.385531 78 156 177
-0.160316 0.355802 0.439649 107 173 184
0.202999 -0.751426 -0.511548 153 32 62
0.368723 0.312889 0.265547 175 167 161
0.510705 -0.831831 -0.232446 193 21 98
0.60759 -0.257096 0.157203 205 95 148
-0.388993 0.0476667 0.433239 78 134 183
0.547977 -0.230959 -0.304084 197 98 89
0.393129 0.398632 -0.080716 178 178 117
0.324843 -0.209498 -0.521499 169 101 61
-0.2049 -0.999058 -0.159512 101 0 107
-0.152808 0.995865 0.214023 108 254 155
0.388771 -0.155002 -0.468026 177 108 68
0.474355 -0.910749 -0.0335278 188 11 123
-0.587257 0.0988685 -0.0688752 53 140 119
-0.354922 0.0572552 0.468598 82 135 187
0.46236 -0.917279 -0.0518041 186 11 121
0.499542 -0.708303 0.27151 191 37 162
0.246835 0.684654 -0.0205054 159 215 125
-0.527568 -0.479915 0.338211 60 66 171
0.138424 -0.98654 0.365901 145 2 174
-0.495163 -0.819319 -0.189063 64 23 103
-0.362026 0.386898 0.192115 81 177 152
-0.290061 0.375455 0.338973 91 175 171
0.177542 0.521533 -0.251928 150 194 95
0.0125 -0.70219 -0.56835 129 38 55
-0.0478915 0.00267584 0.608598 121 128 205
-0.211672 0.708116 -0.00504815 101 218 127
-0.0933638 0.0380588 -0.555448 116 132 57
0.0663428 0.812089 -0.205321 136 231 101
0.183756 0.288304 0.427358 151 164 182
0.133356 0.14962 0.526177 145 147 195
-0.186783 0.582057 0.0770793 104 202 137
-0.210413 0.736774 -0.0977655 101 221 115
-0.17247 0.486124 0.339234 106 189 171
0.237419 0.842494 -0.0756497 158 235 118
-0.138401 -0.855949 -0.492047 110 18 65
-0.00645177 0.604524 0.053506 127 205 134
0.293467 0.162048 0.440073 165 148 184
0.257226 0.455586 0.267115 160 186 162
-0.28124 0.946243 0.0136063 92 248 129
0.355335 -0.209547 -0.501503 173 101 64
-0.201634 0.956854 -0.174728 102 249 105
0.384616 -0.989983 0.0655724 177 1 136
-0.60876 -0.176138 0.150134 50 105 147
0.535815 0.0856909 -0.192872 196 138 103
0.183726 -0.359959 -0.592503 151 82 52
-0.621075 -0.309625 0.226943 48 88 156
0.112884 0.698737 -0.173653 142 217 105
0.0443833 0.738683 0.241422 133 222 158
-0.564658 -0.30849 -0.274646 56 88 92
-0.395742 -0.489001 0.478285 77 65 188
0.153173 -0.594243 0.603727 147 52 204
0.456548 0.341295 -0.0515161 186 171 121
-0.461566 0.0234287 -0.33599 69 130 85
0.580377 -0.161881 -0.203475 201 107 102
-0.127564 0.994731 -0.218153 111 254 100
-0.558265 -0.671224 0.277423 56 42 163
-0.126503 0.825895 0.0087382 111 233 129
0.0187851 -0.532115 0.60397 130 60 205
0.335098 -0.946696 -0.291724 170 7 90
0.26185 0.835005 0.0695048 161 234 136
-0.417578 -0.822648 0.376209 74 23 175
0.483851 -0.695182 0.366505 189 39 174
0.30788 -0.790743 -0.484365 167 27 66
-0.13094 -0.995868 -0.349419 111 1 83
0.00309096 -0.945407 0.437022 128 7 183
-0.0474653 0.207101 0.533374 121 154 196
-0.191654 0.71476 0.147381 103 219 146
0.0135158 -0.999515 0.336728 129 0 170
0.110498 -0.892931 -0.498184 142 14 64
-0.297525 0.497549 0.238616 90 191 158
-0.533374 0.0916936 -0.253616 59 139 95
0.21417 0.922128 -0.165665 155 245 106
-0.490687 -0.826549 -0.20203 65 22 102
0.472972 -0.0583494 -0.402704 188 120 76
-0.371598 -0.0431811 -0.449805 80 122 70
-0.474434 0.204607 -0.238006 67 154 97
-0.233095 0.605028 0.204576 98 205 154
-0.611059 -0.536174 0.112267 50 59 142
-0.313658 0.070354 0.502568 88 136 192
-0.555997 -0.495842 0.29613 57 64 165
0.493615 -0.879069 0.0438446 190 15 133
-0.365124 0.357432 -0.222948 81 173 99
-0.117845 -0.322627 0.63757 112 86 209
-0.566023 0.0263515 -0.113939 55 131 113
0.0500666 -0.977591 0.401044 134 3 179
0.164083 0.792134 0.0265661 148 228 131
-0.0820493 -0.934926 0.451862 117 8 185
-0.63419 -0.373235 0.0209024 47 80 130
-0.504486 0.0705385 0.279095 63 136 163
0.358738 0.462481 -0.0417813 173 186 122
0.254561 0.115986 0.493598 160 142 190
-0.0219747 0.12786 -0.519006 125 144 61
0.393166 -0.292097 -0.491992 178 90 65
0.319513 -0.789667 -0.432854 168 27 72
-0.203582 0.731034 -0.0115083 102 221 126
-0.00127738 0.994099 0.288955 127 254 164
-0.157772 0.958977 0.257819 107 250 160
-0.548708 0.19055 0.0963628 58 152 140
0.504451 -0.741841 0.239353 192 33 158
0.0706804 0.687494 -0.110222 137 215 113
-0.101367 0.564016 -0.244925 115 199 96
-0.186622 -0.664733 -0.542191 104 43 58
