ply
format ascii 1.0
comment Created by Open3D
element vertex 1213
property double x
property double y
property double z
property uchar red
property uchar green
property uchar blue
end_header
0.850394 -0.271531 0.0253954 236 93 131
0.955138 0.00856362 0.727712 249 129 220
0.661536 0.0371456 0.400473 212 132 179
-0.282531 0.00157758 -0.877165 91 128 16
0.918077 0.155688 -0.909692 245 147 12
-0.653405 -0.0447683 -0.849044 44 122 19
0.336835 -0.15998 0.795112 170 107 229
0.11188 0.0290718 -0.715528 142 131 36
-0.092701 -0.154372 -0.331005 116 108 85
-0.936263 -0.271751 -0.539522 8 93 59
0.955138 -0.164975 0.617418 249 106 206
-0.956512 -0.00623074 -0.674533 6 127 41
-0.560628 0.0350056 -0.629069 56 132 47
0.3364 0.177936 -0.912098 170 150 11
0.833277 -0.0531534 0.70005 234 121 217
0.338481 -0.223014 0.314917 171 99 168
0.955117 0.038516 0.624805 249 132 207
0.246385 -0.223343 -0.330495 159 99 85
0.955138 -0.0425745 0.696088 249 122 216
0.737931 0.186491 -0.939744 222 151 8
0.952081 0.123055 -0.238333 249 143 97
0.34983 -0.0802771 0.278953 172 117 163
0.314534 0.0275036 -0.874424 168 131 16
0.657218 0.0334264 0.0737715 211 132 137
0.954728 -0.186553 -0.0785247 249 104 117
0.955138 -0.227766 0.741713 249 98 222
0.953903 -0.0363296 -0.738829 249 123 33
0.556761 -0.271531 -0.84607 198 93 20
0.584091 -0.271531 0.567858 202 93 200
0.664454 0.00943587 -0.471098 212 129 67
0.518864 -0.271531 -0.725026 194 93 35
-0.769598 -0.182465 -0.33024 29 104 85
-0.25049 0.246933 -0.922501 96 159 10
0.8138 -0.0334453 -0.571849 231 123 55
-0.248222 0.0116296 -0.894641 96 129 13
-0.899509 -0.00904525 -0.337562 13 126 84
0.154431 -0.0161743 -0.88048 147 125 15
0.953632 0.0894168 0.0130137 249 139 129
0.347422 -0.0554303 0.258479 172 120 160
0.576055 -0.227436 -0.997584 201 99 0
0.955108 -0.181716 0.310196 249 104 167
0.502086 0.202021 -0.946142 192 153 7
-0.952789 -0.265895 -0.752827 6 94 32
0.90052 -0.271531 -0.0419597 242 93 122
0.433298 -0.271531 0.751008 183 93 223
0.566586 0.0407591 0.650895 200 133 210
-0.853207 -0.271928 -0.907884 19 93 12
0.877315 0.179354 0.831739 239 150 234
0.665872 -0.271531 -0.182519 212 93 104
0.803835 -0.0672036 0.824359 230 119 233
0.392 -0.000971732 -0.355104 177 127 82
0.896291 0.158148 0.621476 242 148 207
0.344813 0.0804249 -0.76897 171 138 29
-0.247052 -0.120766 -0.333414 96 112 85
-0.770137 -0.148904 -0.331216 29 109 85
0.338515 -0.119245 0.548062 171 112 197
0.628711 0.0363968 -0.112956 208 132 113
0.846515 -0.0292318 -0.561992 235 124 56
0.557844 0.102293 -0.758493 199 141 31
0.160149 0.236689 -0.826808 148 158 22
0.93175 -0.00127621 -0.996923 246 127 0
0.0228705 0.123858 -0.995785 130 143 1
0.953802 -0.176252 -0.597704 249 105 51
0.394224 -0.271531 -0.358077 178 93 82
-0.524935 0.0331751 -0.644998 61 132 45
0.584652 0.0410685 0.469947 202 133 187
0.951101 0.124254 -0.365265 249 143 81
0.72516 0.136628 0.292475 220 145 165
0.425578 0.00349556 0.836181 182 128 234
0.954982 -0.212981 0.131241 249 100 144
0.78125 -0.271531 -0.846509 227 93 20
0.954781 -0.125285 -0.0373376 249 112 123
0.787574 0.193111 -0.818642 228 152 23
0.928084 0.079774 0.938045 246 138 247
-0.785289 -0.0912178 -0.998625 27 116 0
0.827396 -0.036681 0.543375 233 123 197
0.953735 -0.175504 -0.508669 249 105 63
0.566932 0.0268619 0.197213 200 131 153
0.143855 -0.271531 -0.924772 146 93 10
0.620047 -0.271531 0.0133918 207 93 129
0.362422 0.0103288 -0.596889 174 129 51
0.0181569 0.0314628 -0.675 130 132 41
0.864632 0.101076 0.221549 238 140 156
-0.0215089 -0.271531 -0.643765 125 93 45
0.953818 -0.156866 -0.617889 249 107 49
-0.953282 -0.0902302 -0.990673 6 116 1
0.95345 0.0647124 -0.332745 249 136 85
0.105918 -0.24989 -0.998126 141 96 0
0.896867 -0.271531 -0.48452 242 93 66
0.625779 0.012173 -0.626096 207 129 48
0.164285 -0.271531 -0.80449 148 93 25
0.359484 -0.271531 -0.490425 173 93 65
0.786942 0.241011 0.84297 228 158 235
0.844732 -0.0285541 -0.176857 235 124 105
0.338672 -0.116916 -0.184427 171 113 104
0.954928 -0.115287 0.0766173 249 113 137
0.510809 0.161714 -0.942639 193 148 7
-0.30543 0.267042 -0.899346 89 162 13
0.829206 0.237194 -0.662838 233 158 43
0.239439 -0.271424 -0.358743 158 93 82
-0.468942 0.0768684 -0.997797 68 137 0
0.320741 -0.0776023 0.475587 168 118 188
-0.445649 0.0662471 -0.99812 71 136 0
0.951442 0.125705 -0.866761 249 144 17
0.424121 -0.271531 0.683869 182 93 215
0.841412 0.27467 0.539735 235 163 196
-0.540877 -0.0606172 -0.998625 59 120 0
0.330845 0.0108341 -0.854503 170 129 19
0.192223 0.251705 -0.856234 152 160 18
0.955138 -0.180144 0.491408 249 105 190
-0.587594 0.0370988 -0.594981 53 132 52
0.706745 0.0359342 0.248539 218 132 159
0.263395 0.0226037 -0.514397 161 130 62
-0.956512 -0.104876 -0.480665 6 114 66
0.848408 0.0105168 -0.890541 236 129 14
-0.221445 -0.05251 -0.877122 99 121 16
0.234552 0.0169832 -0.415489 157 130 75
-0.768256 -0.271476 -0.363075 30 93 81
0.0370341 0.0101491 -0.99824 132 129 0
0.453512 0.0100058 1 185 129 255
-0.890879 0.00434962 -1 14 128 0
0.421326 -0.271531 0.637077 181 93 209
0.811206 -0.0521059 -0.670783 231 121 42
0.587918 -0.271531 -0.208084 202 93 101
-0.386644 0.112229 -0.996592 78 142 0
-0.38578 -0.0183734 -0.998619 78 125 0
0.69304 0.0786367 0.50247 216 138 192
0.274836 0.191649 -0.93191 163 152 9
0.371631 0.0115982 -0.500126 175 129 64
-0.474677 -0.271531 -0.540544 67 93 59
-0.952611 0.0638659 -0.832871 6 136 21
0.916643 0.155797 -0.0555334 244 147 120
-0.365715 0.0543674 -0.72171 81 134 35
0.886623 0.250876 0.160796 241 159 148
0.049686 0.0216591 -0.340012 134 130 84
0.436199 0.0356663 0.408145 183 132 180
0.953991 -0.0861809 -0.865961 249 117 17
0.95459 -0.184294 -0.185353 249 104 104
0.849892 0.0420827 -0.564676 236 133 56
0.341951 -0.193354 0.879976 171 103 240
0.695115 0.0254039 -0.38486 216 131 78
0.26215 -0.000425407 -0.349817 161 127 83
-0.783342 0.121239 -0.917164 28 143 11
0.951908 0.105885 -0.454939 249 141 69
0.348936 -0.200144 -0.997824 172 102 0
-0.510933 -0.0587844 -0.307075 62 120 88
0.658936 -0.0763526 -0.9975 212 118 0
0.872545 -0.275079 0.951892 239 92 249
0.846954 -0.0312051 0.328538 235 124 169
-0.260982 0.0172463 -0.456272 94 130 69
0.583407 0.0380488 -0.19341 202 132 103
0.647961 0.0939284 0.918614 210 139 245
0.955117 -0.0472437 0.338459 249 121 171
0.940043 0.109519 -0.9941 247 141 1
-0.483736 0.214129 -0.79435 66 155 26
0.951882 0.139062 0.498655 249 145 191
0.495405 -0.248503 -0.997608 191 96 0
0.818882 0.250082 -0.207419 232 159 101
0.841022 0.0136727 -0.522467 235 129 61
-0.478454 0.200255 -0.941058 66 153 8
-0.770279 0.01358 -0.998625 29 129 0
0.896204 0.155798 -0.307601 242 147 88
-0.51423 0.0260938 -0.702667 62 131 38
0.702873 -0.271531 0.656818 217 93 211
-0.288319 0.10412 -0.743987 91 141 33
-0.269607 0.0138807 -0.385716 93 129 78
0.954967 -0.0942277 0.115122 249 115 142
0.1256 0.0106931 -0.890941 144 129 14
0.55823 0.246846 -0.902448 199 159 12
0.653668 0.0165471 0.287997 211 130 164
0.395362 0.170816 -0.927478 178 149 9
0.836999 -0.271531 0.250476 234 93 159
-0.954817 -0.00545238 -0.354488 6 127 82
-0.792073 -0.0644208 -0.406663 27 119 76
-0.87299 0.0822475 -0.379497 16 138 79
0.398128 -0.199955 -0.997767 178 102 0
0.220522 -0.271531 -0.875069 156 93 16
0.296327 -0.046336 -0.0653219 165 122 119
0.455438 -0.271531 0.788883 186 93 228
-0.205853 -0.271531 -0.456673 101 93 69
-0.26732 0.0324532 -0.897113 93 132 13
-0.406578 0.0583828 -0.998312 76 135 0
-0.219033 0.223493 -0.826942 100 156 22
0.587178 0.0372784 -0.0395069 202 132 122
0.956453 -0.246745 0.891709 249 96 241
0.33888 -0.227783 0.0542751 171 98 134
0.729533 0.126261 -0.327838 221 144 86
0.495169 -0.271531 0.163639 191 93 148
0.633464 0.0356931 -0.0899829 208 132 116
-0.487241 0.118915 -0.996341 65 143 0
0.835833 -0.0139645 0.185923 234 126 151
0.700734 0.0973182 -0.52776 217 140 60
0.702616 0.0840521 0.591337 217 138 203
0.950611 0.144579 0.521899 249 146 194
-0.65758 -0.271531 -0.706717 44 93 37
-0.0122228 -0.254636 -0.99822 126 95 0
0.538014 -0.271531 -0.751487 196 93 32
0.955138 0.0114845 0.593185 249 129 203
0.51297 0.0413318 0.634919 193 133 208
-0.927888 0.084067 -0.632894 9 138 47
0.372982 0.248506 -0.920243 175 159 10
0.579775 0.0350192 0.364292 201 132 174
0.904638 -0.271665 -0.256512 243 93 95
-0.67104 0.0336866 -0.451717 42 132 70
-0.0628895 0.259211 -0.846666 119 161 20
0.760507 0.201697 0.29638 224 153 165
0.842023 0.220196 -0.84215 235 156 20
-0.783327 -0.0712772 -0.374094 28 118 80
0.820794 -0.188278 1 232 103 255
-0.676277 -0.271531 -0.788329 41 93 27
0.776871 0.234226 -0.871699 227 157 16
-0.798877 0.00446691 -0.52904 26 128 60
-0.63009 -0.0223294 -0.892324 47 125 14
0.875501 -0.0558327 -0.997283 239 120 0
-0.823329 0.080748 -0.967455 23 138 4
0.67511 0.181191 -0.794582 214 151 26
0.956391 0.0550361 0.923111 249 135 245
-0.744747 0.157255 -0.907512 33 148 12
-0.66902 0.259514 -0.817403 42 161 23
-0.359771 0.0403099 -0.620771 82 133 48
0.310048 -0.068891 0.574706 167 119 201
-0.00851871 -0.198003 -0.998298 126 102 0
0.539385 -0.271531 0.800934 196 93 230
0.955138 -0.201481 0.803267 249 102 230
-0.655161 -0.271531 -0.436654 44 93 72
0.728784 0.155437 -0.0646378 220 147 119
0.955138 0.0312249 0.823947 249 131 233
-0.112926 -0.26404 -0.336412 113 94 85
0.746393 -0.271531 -0.573293 223 93 54
0.659561 -0.180917 1 212 104 255
0.897926 0.202693 -0.682601 242 153 40
0.641876 -0.271531 -0.583924 209 93 53
0.954588 -0.139965 -0.187515 249 110 104
0.159232 0.209464 -0.796036 148 154 26
0.385602 0.211709 -0.93397 177 154 8
-0.897532 0.0804302 -0.378101 13 138 79
-0.890028 -0.271594 -0.35244 14 93 83
0.853992 0.040623 -0.357828 236 133 82
0.517166 0.237848 -0.847038 193 158 20
0.631901 0.0273629 0.791554 208 131 228
0.881475 0.226283 -0.751849 240 156 32
-0.185729 -0.0783538 -0.35253 104 118 83
0.330494 -0.0849862 0.611374 170 117 205
0.806148 -0.0314755 0.253003 230 123 160
0.369141 0.0554488 -0.899441 175 135 13
0.953758 0.0143226 -0.539135 249 129 59
-0.0246782 -0.271531 -0.41798 124 93 74
0.41689 0.0759075 0.976948 181 137 252
0.66154 -0.271906 0.969792 212 93 251
0.64867 0.206117 -0.816278 210 154 23
0.864433 0.0904803 0.882515 238 139 240
-0.389927 0.206221 -0.787497 78 154 27
0.775822 -0.271531 -0.530188 226 93 60
0.67074 0.0155477 -0.703498 213 129 38
0.953878 -0.213755 -0.702954 249 100 38
0.749136 0.0559744 0.998553 223 135 255
0.849132 0.269887 0.387589 236 162 177
-0.273249 -0.271531 -0.709951 93 93 37
0.39159 0.0268836 -0.188229 177 131 104
0.295797 -0.0148033 -0.139643 165 126 110
0.816789 -0.271531 0.523037 232 93 194
-0.661299 0.279257 -0.869583 43 163 17
0.955103 -0.244029 0.386026 249 96 177
-0.765599 0.0532425 -0.721948 30 134 35
0.676769 -0.0597756 -0.997482 214 120 0
0.553407 0.0364322 -0.238878 198 132 97
0.852317 0.0321723 -0.684707 236 132 40
0.80718 0.23642 -0.559004 230 158 56
0.656254 -0.0802135 1 211 117 255
0.283161 0.0571193 -0.729667 164 135 34
0.462222 -0.0416259 1 186 122 255
0.867778 -0.267803 0.994094 238 93 254
-0.56877 -0.0456022 -0.881777 55 122 15
0.652546 0.033345 0.608591 211 132 205
0.490425 0.0812838 0.966403 190 138 251
0.8329 -0.020704 0.782408 234 125 227
0.282484 -0.0435939 -0.85853 164 122 18
0.486374 -0.271531 -0.504941 190 93 63
0.954007 -0.0308066 -0.888031 249 124 14
0.954969 0.0492941 0.689213 249 134 215
-0.0915318 -0.271531 -0.720142 116 93 36
0.956512 0.0130848 0.947719 249 129 248
0.621093 -0.271928 0.891603 207 93 241
-0.956512 0.00684125 -0.505027 6 128 63
0.395418 0.0134716 -0.450025 178 129 70
-0.155952 0.0836253 -0.890873 108 138 14
0.954945 -0.0806041 0.0915648 249 117 139
-0.849625 -0.248448 -0.337547 19 96 84
0.953181 0.0735456 -0.746105 249 137 32
0.833785 0.010589 0.843563 234 129 235
0.877223 0.172119 0.299643 239 149 166
0.953778 0.0256203 -0.565919 249 131 55
0.80093 0.213792 -0.405261 230 155 76
0.571786 0.026926 -0.997588 200 131 0
-0.12885 0.0913452 -0.723829 111 139 35
0.953913 -0.1938 -0.752829 249 103 32
0.41945 -0.00332158 -0.997744 181 127 0
0.822982 0.230666 -0.791466 232 157 27
-0.924669 -0.196404 -0.999978 10 102 0
-0.121382 -0.271531 -0.651664 112 93 44
0.337018 -0.154383 -0.293815 170 108 90
0.352491 0.0408395 0.994485 172 133 254
-0.805698 0.235951 -0.892801 25 158 14
0.514091 0.0380837 0.0616106 193 132 135
0.875539 0.136255 -0.354484 239 145 82
-0.249438 0.267468 -0.885299 96 162 15
0.890897 0.25334 0.467559 241 160 187
-0.817247 0.072537 -0.409726 23 137 75
-0.164749 -0.271531 -0.642383 106 93 46
0.738176 0.140513 0.224087 222 145 156
0.179301 0.0363252 -0.648628 150 132 45
0.954512 -0.216395 -0.245841 249 100 96
-0.428529 -0.0505393 -0.998625 73 121 0
0.802948 -0.071285 -0.347086 230 118 83
-0.0442203 0.0831661 -0.997323 122 138 0
-0.622111 -0.271497 -0.973075 48 93 3
0.519757 0.0319004 0.356382 194 132 173
0.643026 -0.271531 0.114991 209 93 142
0.834776 -0.0474599 -0.209361 234 121 101
-0.295136 0.238182 -0.932065 90 158 9
0.309466 0.00683511 -0.169088 167 128 106
-0.217115 -0.271531 -0.660073 100 93 43
0.19759 0.0180579 -0.366442 153 130 81
-0.763062 0.12839 -0.919046 30 144 10
0.581494 -0.271928 0.904481 202 93 243
0.44965 0.0362988 0.00439608 185 132 128
0.756295 0.126252 0.850601 224 144 236
0.776804 0.235146 0.037181 227 157 132
-0.127132 0.0335936 -0.597025 111 132 51
0.953999 -0.138371 -0.876854 249 110 16
0.0264872 0.223422 -0.928324 131 156 9
0.337169 -0.18535 0.517982 170 104 194
0.918831 -0.271515 0.125311 245 93 143
0.955138 -0.224438 0.536877 249 99 196
-0.393593 0.174062 -0.940355 77 150 8
0.873933 0.236427 -0.518871 239 158 61
0.954086 0.0840182 0.395156 249 138 178
0.0883706 0.182728 -0.775765 139 151 29
0.426354 -0.271531 -0.371824 182 93 80
0.898664 0.179341 -0.00262599 242 150 127
-0.117449 -0.20791 -0.998438 113 101 0
0.68833 -0.271531 0.465056 215 93 187
-0.558302 0.0175195 -0.328619 56 130 86
-0.229179 0.0432846 -0.875007 98 133 16
0.083624 -0.220853 -0.998179 138 99 0
0.292197 -0.212948 -0.33022 165 100 85
0.907314 0.155826 -0.428265 243 147 73
0.715744 -0.271531 -0.467361 219 93 68
0.95452 -0.0444112 -0.239753 249 122 97
0.497332 -0.271531 0.695597 191 93 216
0.780502 0.239416 0.0750045 227 158 137
-0.62408 -0.271531 -0.663124 48 93 43
-0.791069 -0.271531 -0.553854 27 93 57
0.750482 0.188705 -0.584709 223 152 53
-0.607927 0.0399198 -0.89852 50 133 13
0.142511 0.188906 -0.779451 146 152 28
-0.792794 -0.0234928 -0.440951 26 125 71
0.950558 0.140018 -0.703156 249 145 38
-0.473752 -0.231416 -0.998625 67 98 0
0.955081 -0.0953068 0.235083 249 115 157
0.61928 -0.271531 0.191489 206 93 152
0.854413 0.0384426 0.308235 236 132 167
0.508467 -0.271531 -0.61135 192 93 50
0.904411 0.205637 -0.219338 243 154 100
0.680111 0.0351302 -0.184609 214 132 104
0.283433 -0.00616776 -0.354784 164 127 82
0.338797 -0.112948 0.490467 171 113 190
0.188073 0.250958 -0.907964 151 159 12
0.520473 -0.271531 -0.652157 194 93 44
0.81266 0.235535 -0.630244 231 158 47
-0.474168 0.0374869 -0.998617 67 132 0
0.344822 -0.265545 0.292041 171 94 165
-0.467746 -0.08685 -0.336957 68 116 85
0.829203 -0.271531 0.825381 233 93 233
-0.942747 -0.271305 -0.863752 7 93 17
0.824425 -0.0280787 -0.500315 233 124 64
0.150948 0.0392032 -0.523649 147 132 61
0.714046 -0.271531 0.529656 219 93 195
0.30067 -0.0393344 0.403781 166 122 179
0.839976 0.0299295 -0.630549 235 131 47
-0.792688 -0.271531 -0.727665 26 93 35
0.692677 -0.271531 -0.0170705 216 93 125
0.0923078 -0.00800336 -0.892935 139 126 14
-0.406962 -0.230019 -0.331503 76 98 85
-0.929364 -0.271892 -0.767013 9 93 30
0.504949 0.0216575 -0.561377 192 130 56
-0.209826 -0.0381815 -0.342727 101 123 84
0.954431 -0.19274 -0.309317 249 103 88
0.953604 -0.049084 -0.372167 249 121 80
-0.956512 -0.0519405 -0.452274 6 121 70
0.628608 0.205713 -0.945605 208 154 7
-0.422064 -0.271531 -0.648623 74 93 45
0.590877 -0.271531 0.720879 203 93 219
-0.409082 -0.271531 -0.914639 75 93 11
0.903118 0.224518 0.781261 243 156 227
-0.420219 0.0227982 -0.998625 74 130 0
0.469326 -0.271531 0.346063 187 93 172
-0.947311 -0.0363343 -0.996791 7 123 0
0.346579 -0.267407 -0.0913864 172 93 116
-0.504747 0.0367503 -0.598942 63 132 51
0.899105 0.170071 -0.528319 242 149 60
-0.176151 0.0211287 -0.526327 105 130 60
0.253949 0.0721115 -0.997278 160 137 0
0.81497 -0.271531 -0.633692 231 93 47
0.848156 -0.011618 -0.676616 236 126 41
0.729006 0.169422 0.710867 220 149 218
-0.566841 0.255684 -0.923838 55 160 10
0.900147 0.156503 -0.735762 242 147 34
-0.0521935 -0.271531 -0.777536 121 93 28
0.313448 -0.0722671 0.00886261 167 118 129
-0.106822 0.0795598 -0.897955 114 138 13
-0.773044 -0.00615767 -0.893452 29 127 14
0.919931 -0.271513 0.0871603 245 93 139
0.0912243 0.0309974 -0.695679 139 131 39
0.27913 -0.270224 -0.989948 163 93 1
-0.537057 0.026562 -0.360848 59 131 81
0.903205 0.219382 0.550681 243 155 198
0.532573 0.0860825 0.950517 195 138 249
0.358889 0.0170059 0.347552 173 130 172
0.499169 0.0155858 -0.422177 191 129 74
0.473637 0.0211309 -0.582072 188 130 53
-0.335365 0.155831 -0.952899 85 147 6
-0.956512 -0.197039 -0.717855 6 102 36
0.715613 -0.271531 -0.385123 219 93 78
0.951228 -0.267393 0.710628 249 93 218
0.955138 -0.153958 0.774888 249 108 226
0.956373 -0.0719498 0.877376 249 118 239
0.910488 0.155839 0.451798 244 147 185
0.948283 0.147335 -0.820377 248 146 23
0.206983 0.0260367 -0.442061 154 131 71
0.830281 -0.271531 0.604117 233 93 205
-0.956512 -0.121402 -0.688343 6 112 40
0.352035 0.121457 -0.892986 172 143 14
-0.795362 -0.0723609 -0.483949 26 118 66
0.788783 0.147281 -0.990982 228 146 1
0.811162 -0.0497124 -0.343357 231 121 84
0.954818 -0.0783174 -0.00912081 249 118 126
0.954765 -0.0832203 -0.0495318 249 117 121
0.683173 0.0355642 0.351282 215 132 172
0.523601 -0.271531 -0.403565 194 93 76
0.446011 0.015349 -0.423757 184 129 73
0.6852 0.211436 -0.822494 215 154 23
0.899445 0.172436 -0.596809 242 149 51
0.39725 0.0164722 -0.521891 178 130 61
-0.919868 -0.156996 -1 10 107 0
0.751095 -0.0210433 -0.997407 223 125 0
0.955138 -0.10962 0.570182 249 114 200
0.894674 0.196763 0.364342 242 153 174
0.150029 -0.0341482 -0.299216 147 123 89
-0.125991 -0.00626856 -0.893292 111 127 14
-0.956512 0.018972 -0.882033 6 130 15
0.898757 0.228632 -0.104972 242 157 114
-0.659386 -0.0661464 -0.838689 43 119 21
-0.956013 -0.126505 -0.980279 6 111 3
-0.314713 0.032139 -0.492702 87 132 65
0.589465 -0.271531 0.202463 203 93 153
-0.870533 0.0697233 -0.99764 17 136 0
0.170021 0.141219 -0.751556 149 146 32
-0.0625185 -0.0138661 -0.301521 120 126 89
-0.70556 0.243258 -0.920525 38 159 10
0.0614934 0.0346842 -0.438694 135 132 72
0.0272157 0.258856 -0.888176 131 161 14
-0.322234 0.107983 -0.740284 86 141 33
-0.191037 0.21564 -0.790753 103 155 27
0.845086 -0.0348897 0.221919 235 123 156
-0.203716 -0.271531 -0.433974 102 93 72
-0.013688 0.142056 -0.994867 126 146 1
0.613163 -0.271531 -0.565061 206 93 55
0.0512285 -0.0467841 -0.85964 134 122 18
0.214122 -0.0295119 -0.872089 155 124 16
0.869366 0.238964 -0.412137 238 158 75
0.953587 0.0455836 -0.459346 249 133 69
0.388198 -0.291948 -0.290124 177 90 91
0.954993 0.0468444 0.356757 249 133 173
0.840995 0.08397 -0.906357 235 138 12
0.892624 -0.271531 -0.438291 241 93 72
-0.684416 -0.271531 -0.428427 40 93 73
0.69972 -0.271531 0.703446 217 93 217
0.137162 0.104271 -0.737372 145 141 33
0.29657 -0.286076 -0.424093 165 91 73
0.411644 0.0353216 0.621235 180 132 207
-0.714779 -0.000160216 -0.89387 36 127 14
0.953405 0.0709726 -0.960204 249 137 5
-0.447769 0.110515 -0.996664 70 142 0
0.900029 0.145894 0.862023 242 146 237
0.857319 0.0575387 -0.736439 237 135 34
-0.885435 0.0850946 -0.460609 15 138 69
0.751429 0.212187 0.424918 223 155 182
0.644682 -0.271531 -0.537382 210 93 59
0.337716 -0.137134 0.747071 171 110 223
0.431711 -0.271531 -0.409743 183 93 75
-0.625959 0.275881 -0.883734 48 163 15
0.235685 0.0647585 -0.726075 158 136 35
0.954013 -0.213576 -0.897081 249 100 13
0.899504 0.161462 -0.157787 242 148 107
0.693041 0.0765591 -0.432757 216 137 72
0.405365 0.25271 -0.871235 179 160 16
0.812912 -0.0570372 -0.588323 231 120 52
0.83596 -0.0469472 -0.872049 234 122 16
-0.589628 0.0297182 -0.682326 52 131 41
-0.095493 -0.0787384 -0.327752 115 117 86
0.190779 -0.271531 -0.931894 152 93 9
-0.781828 -0.271531 -0.482014 28 93 66
0.226991 0.0323011 -0.668743 156 132 42
-0.897095 0.0819905 -0.413587 13 138 75
0.470568 0.0747189 0.859357 187 137 237
0.0616916 -0.0318812 -0.998208 135 123 0
0.714113 0.129779 -0.558448 219 144 56
0.865744 -0.271531 0.792817 238 93 229
0.955138 -0.222618 0.498168 249 99 191
0.0312391 -0.271531 -0.515371 131 93 62
0.620354 0.0371393 0.516767 207 132 193
0.341545 -0.0925489 0.46151 171 116 186
0.955138 -0.157284 0.447919 249 107 185
-0.314497 -0.271531 -0.617256 87 93 49
-0.752345 0.0637773 -0.998192 32 136 0
0.377956 -0.271515 0.79809 176 93 229
-0.70711 0.21163 -0.923281 37 154 10
0.66744 -0.271531 -0.793812 213 93 26
-0.887056 0.0895547 -0.570812 14 139 55
-0.161329 0.0421165 -0.875871 107 133 16
0.360685 -0.271531 -0.365291 173 93 81
-0.721082 -0.271531 -0.452359 36 93 70
0.626645 -0.271531 0.240739 207 93 158
-0.174047 0.0932401 -0.909778 105 139 12
-0.721653 -0.271531 -0.601749 35 93 51
0.633109 -0.271531 -0.424877 208 93 73
0.338612 -0.117084 0.80796 171 113 231
0.953781 -0.241519 -0.584977 249 97 53
0.350725 -0.269534 0.0175915 172 93 130
0.839508 0.273629 0.217556 235 162 155
0.955136 -0.119802 0.400984 249 112 179
0.954987 -0.190254 0.136117 249 103 145
0.827096 -0.0329817 0.187595 233 123 151
-0.343059 0.0273183 -0.366348 84 131 81
0.366844 -0.256956 -0.99762 174 95 0
-0.153214 0.101931 -0.996842 108 140 0
0.0290244 -0.177373 -0.99825 131 105 0
-0.569737 0.0620373 -0.899457 55 135 13
0.0157311 0.205959 -0.929059 130 154 9
0.702513 -0.271531 0.0658551 217 93 136
-0.131939 0.0595917 -0.902487 111 135 12
0.342928 -0.2586 0.648845 171 95 210
-0.497448 -0.0589393 -0.998625 64 120 0
0.763411 -0.157022 1 225 107 255
0.512736 -0.271531 -0.833267 193 93 21
0.689536 0.0334983 0.130897 215 132 144
0.468061 0.0210716 0.205252 187 130 154
0.953106 0.0752696 -0.71375 249 137 36
0.866161 0.0993684 -0.995752 238 140 1
-0.77353 -0.271493 -0.974069 29 93 3
0.953794 -0.064478 -0.587469 249 119 53
-0.537501 -0.00192257 -0.893747 59 127 14
-0.0178943 -0.271531 -0.562564 125 93 56
-0.673639 -0.271531 -0.838353 42 93 21
0.457764 0.0393204 0.482851 186 133 189
-0.203935 0.0876241 -0.908346 101 139 12
0.322353 -0.0804764 0.652251 169 117 211
0.955138 -0.11518 0.446496 249 113 184
0.670292 0.0345431 0.700598 213 132 217
0.662225 -0.0227871 -0.890091 212 125 14
-0.230406 0.212031 -0.914504 98 155 11
0.953648 -0.0728938 -0.407487 249 118 76
-0.703688 -0.0469797 -0.880863 38 122 15
0.463635 0.0370034 -0.0397982 187 132 122
0.939373 -0.2711 0.988105 247 93 253
0.956352 0.00656379 0.876297 249 128 239
-0.112213 0.213522 -0.780102 113 155 28
0.820996 -0.0472422 0.724295 232 121 220
0.953498 0.0867796 -0.154615 249 139 108
0.95483 -0.178029 0.000469938 249 105 128
0.953479 -0.25708 -0.436908 249 95 72
0.809282 0.240392 -0.293124 231 158 90
0.126369 -0.0493071 -0.300866 144 121 89
-0.559132 -0.271528 -0.951831 56 93 6
-0.151693 0.256393 -0.826976 108 160 22
0.883907 0.243201 0.295284 240 159 165
0.2955 -0.0413229 -0.104051 165 122 114
0.953999 0.0667105 -0.242024 249 136 97
0.900768 0.183886 0.710686 242 151 218
0.342353 -0.0655105 0.956593 171 119 249
0.829688 -0.271531 -0.281348 233 93 92
-0.956512 -0.0388496 -0.701715 6 123 38
-0.956511 -0.245517 -0.790924 6 96 27
0.599859 -0.0467927 1 204 122 255
0.274057 0.0355862 -0.891656 162 132 14
0.455009 0.0200093 -0.609685 186 130 50
0.571144 0.166876 -0.786301 200 149 27
0.441156 0.0186208 0.207962 184 130 154
0.954865 0.0183393 0.0279863 249 130 131
0.542268 -0.271531 -0.0566568 197 93 120
-0.194787 -0.15227 -0.331058 103 108 85
-0.936688 -0.275279 -0.417117 8 92 74
0.52441 -0.233937 1 194 98 255
0.699029 0.0613793 0.772682 217 135 226
0.501704 -0.271531 0.389826 191 93 177
-0.0348407 -0.0548088 -0.304404 123 121 89
-0.564718 -0.271531 -0.83296 55 93 21
0.827276 -0.0223927 0.326275 233 125 169
0.871081 0.137915 -0.787962 239 145 27
0.625129 0.0949334 -0.996147 207 140 0
0.544076 -0.271531 -0.585533 197 93 53
-0.871329 -0.271928 -0.500223 16 93 64
0.424508 -0.271531 0.179825 182 93 150
0.315708 0.00688387 -0.214176 168 128 100
-0.0619098 -0.271531 -0.896234 120 93 13
-0.605034 -0.179082 -0.998625 50 105 0
-0.33465 -0.271531 -0.388375 85 93 78
0.506843 0.0425459 0.663163 192 133 212
-0.329847 0.0351346 -0.998601 85 132 0
0.808888 0.231065 -0.449633 231 157 70
0.439616 -0.271531 -0.819318 184 93 23
0.31943 0.137821 -0.775974 168 145 29
0.953499 0.0966295 0.0927909 249 140 139
0.379416 -0.0675454 0.999874 176 119 255
-0.827003 -0.141235 -0.335725 22 109 85
0.888006 0.21767 0.826127 241 155 233
0.87706 -0.271531 -0.738436 239 93 33
0.458963 0.157857 -0.938822 186 148 8
-0.127147 0.140446 -0.739681 111 145 33
0.685735 0.0147878 -0.448404 215 129 70
0.954733 -0.058659 -0.0745273 249 120 118
-0.646844 0.0318816 -0.410304 45 132 75
-0.349345 0.0397577 -0.601066 83 133 51
-0.26631 0.100922 -0.747271 94 140 32
0.404574 0.0322077 0.0861716 179 132 138
0.304366 -0.271531 -0.547669 166 93 58
0.298108 0.0842565 -0.996848 166 138 0
0.51861 -0.0790505 1 194 117 255
0.50368 0.0375143 0.396635 192 132 178
0.694625 0.0785696 -0.131476 216 138 111
0.715339 0.151895 0.44581 219 147 184
0.698942 -0.0391511 -0.884766 217 123 15
0.0307523 0.032287 -0.409688 131 132 75
0.860507 0.257036 -0.00759191 237 160 127
0.95455 -0.261765 0.764714 249 94 225
0.141274 -0.00505903 -0.303485 146 127 89
-0.262429 -0.0669896 -0.863046 94 119 17
0.529582 0.0331407 0.162076 195 132 148
0.953871 -0.137702 -0.69216 249 110 39
0.635226 0.0940184 0.898809 208 139 242
0.298952 0.198545 -0.80932 166 153 24
0.592743 0.0370953 -0.0696303 203 132 119
-0.321693 0.190055 -0.93439 86 152 8
-0.706032 -0.0387782 -0.998625 37 123 0
0.234586 -0.0166592 -0.312159 157 125 88
-0.00582564 0.226113 -0.802055 127 156 25
-0.0490132 -0.271531 -0.459283 121 93 69
0.362555 0.0309671 0.466395 174 131 187
0.745045 -0.142528 -0.997413 222 109 0
0.537377 -0.271531 -0.790073 196 93 27
0.0689785 -0.0185373 -0.892226 136 125 14
-0.107689 -0.0265225 -0.855569 114 124 18
0.901942 0.224113 -0.190062 242 156 103
0.85046 -0.271531 0.578114 236 93 201
-0.663431 -0.271531 -0.935563 43 93 8
-0.266605 -0.0125053 -0.868311 94 126 17
0.95404 -0.0662114 -0.93636 249 119 8
0.380676 -0.271911 0.904629 176 93 243
-0.254635 0.0191764 -0.694274 95 130 39
0.439668 -0.271531 -0.653627 184 93 44
0.0705906 -0.17708 -0.998196 137 105 0
-0.583694 -0.0195145 -0.300522 53 125 89
0.812553 0.245612 -0.244697 231 159 96
0.308237 0.00437881 0.0837043 167 128 138
0.953681 0.0607944 -0.925961 249 135 9
-0.677573 0.0368734 -0.556573 41 132 57
-0.154863 -0.0171449 -0.316243 108 125 87
0.581323 -0.247293 0.999815 202 96 255
0.57584 0.0383915 -0.172455 201 132 106
0.740764 -0.271531 0.201201 222 93 153
-0.956512 -0.0298241 -0.815758 6 124 23
0.647356 0.0340595 0.121348 210 132 143
0.901249 0.176969 -0.108769 242 150 114
0.817501 -0.0271551 -0.776082 232 124 29
0.429229 -0.271531 0.786035 182 93 228
0.343763 -0.265318 0.926008 171 94 246
0.11116 -0.271531 -0.901521 142 93 13
-0.895185 -0.289469 -0.396144 13 91 77
-0.827606 -0.251798 -0.999463 22 95 0
-0.704814 -0.271531 -0.836389 38 93 21
0.839095 -0.0423808 -0.806901 234 122 25
0.345043 0.00534729 -0.67018 171 128 42
0.895077 -0.0184381 1 242 125 255
0.85893 0.254512 -0.298246 237 160 89
0.320896 -0.0462999 -0.842492 168 122 20
0.926778 -0.271501 -0.476536 246 93 67
0.95366 -0.188443 -0.416999 249 103 74
0.382446 -0.234605 0.999929 176 98 255
-0.139985 -0.271531 -0.483046 110 93 66
0.516565 0.0640704 -0.748952 193 136 32
0.726501 0.0406554 0.999849 220 133 255
0.397728 -0.271531 0.802885 178 93 230
-0.891863 -0.271928 -0.503026 14 93 63
-0.413931 -0.271531 -0.574347 75 93 54
0.774944 -0.270497 0.863242 226 93 238
0.42714 -0.271531 -0.172134 182 93 106
0.410649 0.0334437 0.566553 180 132 200
0.295498 0.0515469 -0.997702 165 134 0
0.95502 -0.104994 0.171143 249 114 149
0.639296 0.0287703 0.186249 209 131 151
-0.245338 -0.0129481 -0.86302 96 126 17
0.576594 -0.271531 -0.942522 201 93 7
-0.911445 -0.271928 -0.895569 11 93 13
-0.785793 -0.0857529 -0.343213 27 117 84
0.954025 -0.179833 -0.91543 249 105 11
0.75329 0.209019 0.367678 224 154 174
0.697576 0.0584846 -0.997147 216 135 0
0.932911 -0.271486 0.240182 246 93 158
-0.555501 -0.25328 -0.998559 57 95 0
0.654322 0.00611774 1 211 128 255
-0.660182 -0.271531 -0.650666 43 93 45
-0.956485 -0.248551 -0.938389 6 96 8
0.825806 -0.0621177 -0.632421 233 120 47
0.0368787 -0.271531 -0.679112 132 93 41
0.946407 -0.0848235 -0.994758 248 117 1
-0.545283 0.0387119 -0.538575 58 132 59
-0.862346 0.0804257 -0.362302 18 138 81
-0.0862935 -0.271531 -0.921926 116 93 10
-0.0594933 -0.271531 -0.495427 120 93 64
0.419483 -0.00358579 0.250358 181 127 159
0.9307 -0.271496 -0.933895 246 93 8
-0.260627 -0.123112 -0.998577 94 112 0
0.703688 0.113719 -0.597463 217 142 51
0.707821 0.201369 -0.943507 218 153 7
-0.517252 -0.271531 -0.862745 62 93 17
-0.314607 -0.0999369 -0.998596 87 115 0
0.338925 -0.228477 0.156319 171 98 147
0.494903 0.0142291 0.294462 191 129 165
0.922664 -0.271895 0.886566 245 93 241
0.740218 -0.271531 -0.695504 222 93 39
-0.693762 -0.00394948 -0.312026 39 127 88
0.3621 -0.0559302 0.998857 174 120 255
0.465711 -0.271531 -0.827501 187 93 22
-0.673735 0.137858 -0.995443 42 145 1
0.622822 0.0422785 -0.745336 207 133 32
0.89946 0.155857 0.00633546 242 147 128
-0.51353 0.0356765 -0.619134 62 132 49
0.95472 0.0492719 0.0458558 249 134 133
-0.153296 0.268908 -0.863969 108 162 17
-0.270122 0.0259792 -0.65348 93 131 44
-0.432175 -0.155725 -0.330942 72 108 85
0.899421 0.219103 -0.319836 242 155 87
0.380406 -0.271518 0.164307 176 93 148
0.955138 -0.0466981 0.656014 249 122 211
0.709947 0.0887658 0.809613 218 139 231
-0.554444 -0.271531 -0.526888 57 93 60
0.392313 -0.119636 1 178 112 255
-0.362067 -0.271531 -0.443719 81 93 71
-0.886748 -0.271928 -0.754956 14 93 31
0.620989 0.0168435 1 207 130 255
-0.215749 0.107232 -0.751558 100 141 32
0.84996 0.26233 0.0958368 236 161 140
0.74223 0.179644 -0.698273 222 150 38
0.678689 0.0661949 -0.707238 214 136 37
0.953491 -0.254482 -0.370767 249 95 80
0.336543 0.0229233 0.545406 170 130 197
-0.152455 0.18281 -0.914606 108 151 11
0.552957 0.0332638 0.763922 198 132 225
-0.0457749 -0.117626 -0.998346 122 113 0
0.864602 -0.208769 1 238 101 255
0.732487 0.184146 0.437395 221 151 183
0.611299 -0.271531 -0.263484 205 93 94
0.511816 -0.114891 1 193 113 255
0.519307 0.0200018 -0.598364 194 130 51
0.712965 -0.160946 -0.997446 218 107 0
-0.760656 -0.000433682 -0.853662 31 127 19
0.129889 -0.177396 -0.330422 144 105 85
0.780663 0.21714 -0.270514 227 155 93
0.430292 0.0338905 0.100626 182 132 140
-0.176932 -0.27152 -0.37632 105 93 80
-0.707368 -0.203894 -0.998625 37 102 0
0.534968 0.0289075 0.186517 196 131 151
-0.956512 0.0157704 -0.936321 6 130 8
0.711322 0.109972 0.78895 218 142 228
0.370399 -0.271531 -0.526245 175 93 60
-0.455144 -0.271531 -0.584565 69 93 53
0.632842 -0.271531 0.441599 208 93 184
-0.00499703 0.0286197 -0.371295 127 131 80
0.798821 0.0902237 0.955813 229 139 249
0.33792 -0.215455 -0.0910791 171 100 116
-0.39692 0.0376689 -0.445363 77 132 71
0.279428 0.155774 -0.945315 163 147 7
0.431335 -0.271531 -0.895196 182 93 13
0.49956 -0.271531 -0.653463 191 93 44
0.955125 -0.0845958 0.365824 249 117 174
0.0395415 0.0342426 -0.640695 133 132 46
-0.573498 0.0286196 -0.885662 54 131 15
-0.0278696 -0.135626 -0.998323 124 110 0
-0.0157598 -0.271531 -0.837749 125 93 21
-0.746668 0.276233 -0.892274 32 163 14
0.40771 0.0835154 0.907668 179 138 243
-0.424455 -0.271531 -0.798304 73 93 26
0.353931 -0.271152 0.730847 173 93 221
-0.956512 -0.173042 -0.627498 6 105 47
0.36855 0.0197536 -0.2403 174 130 97
-0.945051 0.0752864 -0.913345 7 137 11
0.738831 -0.0701542 -0.99742 222 119 0
-0.910181 -0.271928 -0.538978 11 93 59
0.337119 -0.180163 0.110064 170 105 142
0.313473 -0.271884 -0.380231 167 93 79
-0.221028 -0.271531 -0.583921 99 93 53
0.0773 -0.271531 -0.852952 137 93 19
-0.135041 0.0266021 -0.4077 110 131 76
0.509117 -0.253587 0.999616 192 95 255
-0.800967 -0.271531 -0.536239 25 93 59
0.890746 -0.271531 -0.905995 241 93 12
0.518766 -0.271453 -0.979781 194 93 3
0.764282 -0.193064 1 225 103 255
0.954532 -0.00450128 -0.230671 249 127 98
-0.73249 0.138888 -0.740141 34 145 33
0.39237 0.0343635 0.487066 178 132 190
0.827035 -0.0625081 0.822089 233 120 232
0.892955 0.155823 0.367934 241 147 174
0.954118 0.0815672 0.251017 249 138 160
-0.490743 -0.148233 -0.998625 65 109 0
0.441659 -0.271531 0.673858 184 93 213
-0.956512 -0.236411 -0.651984 6 97 44
-0.140031 0.0471569 -0.998325 110 134 0
0.347324 -0.000416085 0.828524 172 127 233
-0.0814792 0.176024 -0.757458 117 150 31
0.825901 -0.0645939 -0.377928 233 119 79
0.944588 -0.271017 0.215779 248 93 155
-0.55701 -0.223851 -0.330634 56 99 85
-0.56055 -0.271531 -0.488724 56 93 65
-0.304083 0.239502 -0.823651 89 158 22
0.368307 0.0314149 0.670975 174 132 213
0.69472 -0.271531 0.762523 216 93 225
0.831617 -0.182731 -0.997326 234 104 0
0.296967 -0.0468704 0.528644 165 122 195
0.403067 0.0131034 -0.69341 179 129 39
-0.956512 -0.14932 -0.927054 6 108 9
-0.701176 -0.02644 -0.853043 38 124 19
-0.0138981 -0.0537962 -0.998305 126 121 0
0.83918 0.0188982 0.225918 234 130 156
-0.637104 -0.0987769 -0.998625 46 115 0
-0.834044 -0.164148 -0.999871 21 107 0
-0.435273 0.0295397 -0.6985 72 131 38
0.955138 -0.236264 0.595281 249 97 203
-0.391854 -0.05584 -0.308043 78 120 88
0.955124 -0.189974 0.361079 249 103 174
0.63941 -0.0320814 -0.997519 209 123 0
-0.276238 0.255283 -0.842482 92 160 20
0.952709 -0.265753 0.11302 249 94 142
0.732519 0.0942221 0.895666 221 140 242
0.676575 0.0280158 -0.314895 214 131 87
0.692443 -0.271531 -0.506414 216 93 63
-0.634956 -0.271531 -0.879566 47 93 15
0.708817 0.0628542 0.99638 218 136 255
0.824659 -0.0377237 -0.319658 233 123 87
-0.0490151 0.147792 -0.748457 121 146 32
-0.11213 0.0298169 -0.678889 113 131 41
0.559202 -0.271531 -0.674596 199 93 41
0.562263 -0.227787 1 199 98 255
0.400244 0.045694 -0.997653 179 133 0
0.342353 -0.08757 0.90788 171 116 243
0.95649 -0.10004 0.885514 249 115 240
-0.954219 -0.261294 -0.985339 6 94 2
-0.531406 0.0326355 -0.409247 60 132 75
0.691234 -0.230064 1 216 98 255
0.0875039 -0.271531 -0.389092 139 93 78
0.777743 -0.271531 -0.37374 227 93 80
-0.742741 -0.271531 -0.573936 33 93 54
0.664525 0.124335 -0.763286 212 143 30
0.377236 0.0293412 -0.0548362 176 131 121
-0.518104 -0.271531 -0.734674 61 93 34
0.849047 -0.0131259 0.550436 236 126 198
0.811157 -0.271531 0.172647 231 93 150
0.0133702 -0.0830539 -0.331425 129 117 85
0.85395 0.086859 0.973405 236 139 252
0.672371 -0.271531 -0.727361 213 93 35
-0.114607 0.184364 -0.92165 113 151 10
0.683116 0.0331101 -0.108548 215 132 114
0.936939 -0.271641 0.871379 247 93 239
0.368091 0.101533 -0.90691 174 140 12
-0.360285 -0.117848 -0.333637 82 112 85
0.577239 0.0373394 0.56054 201 132 199
0.707531 -0.271531 -0.0601347 218 93 120
0.728457 0.230713 -0.855605 220 157 18
-0.49449 -0.0998825 -0.998625 64 115 0
-0.710281 0.0722691 -0.720469 37 137 36
0.827773 0.270777 0.501366 233 162 191
0.498579 0.00492395 0.273808 191 128 162
0.847967 0.259412 -0.0904612 236 161 116
0.850528 0.0208667 -0.787242 236 130 27
0.85914 -0.271531 -0.921902 237 93 10
-0.302587 -0.0138643 -0.31334 89 126 88
0.953952 -0.203174 -0.809316 249 102 24
0.337441 -0.205955 0.392225 171 101 178
0.413404 0.00702853 0.231933 180 128 157
0.448605 -0.271531 -0.0787671 185 93 117
0.953867 -0.0472601 -0.686437 249 121 40
-0.366162 -0.251543 -0.335654 81 95 85
-0.505388 -0.0379672 -0.998625 63 123 0
-0.524954 0.212529 -0.792072 61 155 27
-0.0210716 0.0404252 -0.554148 125 133 57
0.598502 0.037322 -0.114256 204 132 113
-0.54084 0.131048 -0.995821 59 144 1
0.757257 0.214983 0.557278 224 155 199
0.642599 -0.271531 0.590135 209 93 203
0.954798 -0.00965548 -0.0245395 249 126 124
0.622509 -0.271531 -0.464826 207 93 68
-0.903349 -0.277586 -0.381483 12 92 79
0.843036 0.069999 0.846243 235 136 235
-0.75135 0.0591636 -0.877685 32 135 16
0.879191 0.266067 0.609687 240 161 205
0.78834 -0.269163 -0.990903 228 93 1
0.811524 -0.271531 -0.409041 231 93 75
0.435856 0.107789 -0.759613 183 141 31
0.6906 -0.271928 0.898737 216 93 242
0.949345 0.144447 -0.418067 249 146 74
0.622627 0.0361909 0.623428 207 132 207
0.846745 -0.265093 0.997364 235 94 255
0.142714 0.223647 -0.80915 146 156 24
0.766122 0.232022 0.666401 225 157 212
0.422172 0.155858 -0.955367 181 147 6
0.414028 -0.271531 -0.215863 180 93 100
0.00699825 -0.271531 -0.787872 128 93 27
-0.956512 -0.115274 -0.499406 6 113 64
0.330156 0.155854 -0.95498 170 147 6
0.870326 -0.271531 -0.874293 238 93 16
0.827196 -0.0387361 0.0381504 233 123 132
0.384872 -0.0406696 -0.885842 177 122 15
-0.0867656 0.0384687 -0.483091 116 132 66
0.438217 0.031566 -0.18448 183 132 104
0.0309774 0.115558 -0.744718 131 142 33
0.343154 -0.0953342 0.218951 171 115 155
-0.128078 -0.271531 -0.619719 111 93 48
0.518725 0.015813 -0.333503 194 130 85
0.95499 -0.125369 0.139573 249 112 145
-0.0480083 -0.271531 -0.601074 121 93 51
0.857583 -0.168107 1 237 106 255
0.704207 0.0974183 -0.0232052 217 140 125
0.758074 0.197457 -0.62236 224 153 48
0.84951 0.00872859 -0.584685 236 129 53
-0.0937363 0.0218208 -0.34621 116 130 83
0.848753 0.0907393 0.941087 236 139 247
-0.316267 -0.0305857 -0.869524 87 124 17
-0.655735 0.016646 -0.335262 44 130 85
-0.572076 -0.271494 -0.973761 55 93 3
0.864278 0.0905494 -0.771318 238 139 29
0.776567 -0.271531 -0.00994112 227 93 126
0.582309 -0.0875154 -0.997577 202 116 0
0.699077 0.0955763 -0.565456 217 140 55
0.428829 0.032735 -0.137232 182 132 110
-0.128031 -0.271531 -0.902583 111 93 12
0.693325 0.0663641 0.321252 216 136 168
0.863632 0.257195 0.0797054 238 160 138
0.457615 0.0365131 0.0319925 186 132 132
-0.659009 -0.107561 -0.334772 43 114 85
0.95513 0.00834926 0.380402 249 129 176
-0.486822 0.16104 -0.935602 65 148 8
0.682246 0.0111418 -0.544207 214 129 58
0.894473 0.251389 0.605031 242 160 205
0.956512 0.00433582 0.898779 249 128 242
-0.332682 0.035268 -0.65663 85 132 44
-0.806768 -0.260383 -0.997674 25 94 0
0.558811 0.138592 -0.994378 199 145 1
0.886834 -0.271531 0.0471495 241 93 134
0.32014 -0.00887264 -0.445001 168 126 71
0.843384 0.261778 0.255706 235 161 160
0.343203 -0.0073806 -0.892583 171 127 14
0.0851523 -0.27148 -0.976365 138 93 3
0.904926 0.139892 -0.993951 243 145 1
0.511775 0.0217625 -0.520679 193 130 61
0.953959 -0.0794256 -0.819597 249 117 23
0.485706 -0.164214 -0.997676 189 107 0
0.266563 -0.271531 -0.593654 161 93 52
0.953857 0.0152142 -0.973076 249 129 3
-0.0951397 0.0188868 -0.895014 115 130 13
0.52548 0.0404442 0.61502 194 133 206
0.725229 -0.271531 0.0381384 220 93 132
0.258284 -0.271531 -0.920564 160 93 10
-0.0212942 0.0498842 -0.723173 125 134 35
0.0930795 0.246026 -0.916703 139 159 11
0.5947 0.0301198 0.778983 203 131 227
0.0730522 -0.271531 -0.534658 137 93 59
0.0923094 0.117848 -0.995927 139 143 1
-0.656967 0.0366528 -0.510787 44 132 62
-0.156462 -0.271531 -0.787513 108 93 27
0.669235 0.0909614 -0.996229 213 139 0
0.824401 -0.00722616 0.284474 233 127 164
-0.644122 0.276666 -0.858012 45 163 18
0.500226 -0.271531 -0.358323 191 93 82
0.767186 -0.244977 0.999873 225 96 255
0.777353 -0.271531 -0.095517 227 93 115
0.891876 0.190763 0.199349 241 152 153
0.265125 -0.0430173 -0.882928 161 122 15
0.789464 0.216438 -0.742614 228 155 33
0.781574 -0.271531 -0.946858 227 93 7
0.335746 -0.0708765 0.805922 170 118 230
0.585039 -0.271531 0.0742025 202 93 137
0.768374 -0.271928 0.95658 225 93 249
0.00739531 0.0259272 -0.713592 128 131 37
-0.703204 0.242308 -0.795033 38 158 26
0.954413 -0.105121 -0.322704 249 114 86
-0.109512 0.026168 -0.367218 114 131 81
0.887944 0.15331 0.320672 241 147 168
0.950129 0.14202 -0.346936 249 146 83
-0.836671 -0.271903 -0.626645 21 93 48
0.95384 -0.203016 -0.646584 249 102 45
0.474894 0.0370379 0.732417 188 132 221
0.815357 0.228438 -0.744146 231 157 33
0.22175 -0.118877 -0.333616 156 112 85
0.954705 -0.156952 -0.096355 249 107 115
0.247059 -0.255181 -0.33113 159 95 85
0.126912 0.0220962 -0.346997 144 130 83
0.900636 0.217182 -0.0696429 242 155 119
0.813185 0.276364 0.786282 231 163 228
0.845452 0.270994 0.421221 235 162 181
0.953703 -0.0631088 -0.467151 249 119 68
-0.445396 -0.217759 -0.330308 71 100 85
-0.617506 0.232936 -0.929638 49 157 9
-0.10807 -0.255149 -0.998338 114 95 0
-0.270061 -0.0149602 -0.998581 93 126 0
0.76033 0.153292 -0.363434 224 147 81
0.498566 0.0141933 0.228767 191 129 157
0.919296 -0.279432 -0.28584 245 92 91
0.548406 0.0203517 -0.511353 197 130 62
0.82843 -0.0588861 -0.497758 233 120 64
0.461 -0.271531 -0.523802 186 93 61
-0.434397 -0.151572 -0.998625 72 108 0
0.104989 -0.271531 -0.7423 141 93 33
-0.956512 -0.241164 -0.731775 6 97 34
-0.506494 -0.199226 -0.998625 63 102 0
0.934994 -0.271469 0.761571 247 93 225
-0.120084 -0.0316424 -0.998441 112 123 0
0.451597 0.082515 0.948563 185 138 248
-0.956512 -0.108826 -0.455918 6 114 69
0.850427 0.16916 0.85421 236 149 236
-0.181118 0.124599 -0.894364 104 143 13
0.337251 -0.189734 0.0530778 170 103 134
0.839351 -0.0035733 0.648917 235 127 210
0.954557 -0.0692886 -0.211341 249 119 101
0.893263 -0.271531 0.367808 241 93 174
0.849818 0.0045824 0.414226 236 128 180
0.366238 -0.271531 -0.72257 174 93 35
-0.713829 -0.271531 -0.516167 36 93 62
-0.468703 0.0306981 -0.383625 68 131 79
0.307619 -0.023079 -0.294085 167 125 90
0.258506 -0.271531 -0.518694 160 93 61
0.954647 -0.06992 -0.141495 249 119 109
0.585764 -0.271531 -0.504355 202 93 63
-0.465163 0.265828 -0.914922 68 161 11
0.689045 0.0647429 -0.159343 215 136 107
0.82372 0.268735 0.301739 233 162 166
0.149858 -0.271531 -0.610609 147 93 50
-0.21819 -0.0727495 -0.827674 100 118 22
0.00305892 -0.191751 -0.330042 128 103 85
-0.524624 0.0284835 -0.998625 61 131 0
0.738783 0.176171 -0.662203 222 150 43
0.8955 -0.26911 0.857448 242 93 237
0.33719 -0.183227 -0.232234 170 104 98
-0.329305 0.0717323 -0.726973 86 137 35
0.82982 -0.271531 -0.529045 233 93 60
-0.76423 0.0145739 -0.539813 30 129 59
0.891234 0.157648 0.793166 241 148 229
0.0669443 0.0387678 -0.497976 136 132 64
-0.307047 -0.0528699 -0.876926 88 121 16
-0.919058 -0.275362 -0.427904 10 92 73
0.522208 -0.0299898 -0.890338 194 124 14
-0.943467 -0.271221 -0.672458 7 93 42
0.868567 0.101693 0.275855 238 140 163
0.83164 0.22076 -0.869478 234 156 17
-0.231187 -0.106004 -0.998549 98 114 0
0.338906 -0.110494 0.576195 171 113 201
-0.807019 -0.270621 -0.841724 25 93 20
0.826502 -0.0359035 0.740312 233 123 222
0.343443 -0.186938 0.978128 171 104 252
-0.0899265 0.212319 -0.780134 116 155 28
0.744943 -0.103702 -0.997413 222 114 0
0.414423 0.236132 -0.842952 180 158 20
-0.110497 -0.24466 -0.33252 113 96 85
0.778412 0.217278 -0.53042 227 155 60
0.631738 -0.271531 -0.204342 208 93 101
0.713213 0.0575018 -0.359109 218 135 82
0.82297 -0.0641875 -0.848189 232 119 19
0.954877 -0.184727 0.0369962 249 104 132
-0.180785 0.0169958 -0.482737 104 130 66
0.34155 -0.251321 0.705662 171 95 217
0.836665 0.152812 -0.82076 234 147 23
0.895982 0.246949 0.81034 242 159 231
0.73274 0.168222 -0.157961 221 149 107
0.952062 0.136119 0.685609 249 145 215
-0.437085 0.271357 -0.873292 72 162 16
-0.73504 0.283831 -0.862252 34 164 18
0.7511 0.201114 -0.936756 223 153 8
0.522994 -0.271531 0.745838 194 93 223
0.895961 0.202179 -0.588202 242 153 53
-0.455991 0.0976262 -0.738686 69 140 33
-0.141152 -0.271531 -0.944411 110 93 7
0.461704 0.0401617 -0.99766 186 133 0
-0.784432 -0.0841944 -0.449782 27 117 70
0.903237 0.15578 0.392979 243 147 178
-0.720071 -0.271418 -0.357988 36 93 82
0.803871 0.134437 0.859518 230 145 237
0.607227 0.0361285 0.120569 205 132 143
0.567461 0.0245341 0.315322 200 131 168
0.694689 0.0966798 -0.750452 216 140 32
0.876942 -0.22787 -0.997281 239 98 0
0.328826 -0.269447 -0.990449 169 93 1
0.681159 -0.271531 -0.578249 214 93 54
0.849319 0.0114312 0.0839603 236 129 138
0.391525 0.116502 -0.995586 177 142 1
0.00598498 -0.032475 -0.861781 128 123 18
0.954562 -0.23252 -0.207271 249 98 101
0.955335 -0.214864 0.983649 249 100 253
0.954871 0.0537766 0.317312 249 134 168
-0.411153 0.0901379 -0.997389 75 139 0
0.480594 -0.271531 0.559139 189 93 199
-0.221585 0.155806 -0.949766 99 147 6
0.484788 0.0306047 0.360278 189 131 173
0.954004 -0.0939587 -0.88425 249 116 15
0.361215 -0.271389 0.608581 174 93 205
0.343562 0.00350798 -0.494886 171 128 64
0.573581 0.0347665 0.755377 201 132 224
-0.956512 -0.0109362 -0.52806 6 126 60
-0.0595251 -0.217212 -0.998364 120 100 0
0.889413 -0.271531 -0.386127 241 93 78
0.945704 0.0284977 -0.994935 248 131 1
0.59219 0.0367515 0.105186 203 132 141
0.0551752 0.164241 -0.929695 135 148 9
0.71822 -0.271531 0.16821 219 93 149
0.95511 -0.0184078 0.315855 249 125 168
-0.103292 0.0266059 -0.711044 114 131 37
0.824467 0.00324424 1 233 128 255
0.850887 0.263862 0.128078 236 161 144
0.729655 -0.261679 -0.996914 221 94 0
-0.320369 -0.0530334 -0.998598 87 121 0
0.569293 -0.271531 -0.626298 200 93 48
-0.191533 0.250108 -0.820053 103 159 23
0.336916 -0.163546 -0.0210472 170 107 125
0.914602 0.155873 0.6332 244 147 208
0.954883 -0.253642 0.846659 249 95 235
0.84418 -0.00481904 0.376464 235 127 175
-0.266751 0.166456 -0.918698 93 149 10
0.490531 0.0191309 -0.631422 190 130 47
-0.0462145 -0.00992212 -0.998347 122 126 0
0.799859 -0.271531 -0.731145 229 93 34
-0.889711 0.0808746 -0.966572 14 138 4
0.320086 -0.270925 -0.769919 168 93 29
-0.434866 -0.197367 -0.329918 72 102 85
0.814862 -0.144284 1 231 109 255
-0.488624 -0.271531 -0.945914 65 93 7
0.955138 -0.07756 0.490717 249 118 190
-0.956512 -0.239988 -0.495683 6 97 64
0.955103 -0.245073 0.626722 249 96 207
0.726543 -0.271531 -0.307007 220 93 88
0.955138 -0.190261 0.447689 249 103 185
0.683629 -0.271531 0.0588606 215 93 135
-0.695517 -0.0763109 -0.998625 39 118 0
0.953939 -0.0844656 -0.79107 249 117 27
-0.783376 0.00173556 -0.67097 28 128 42
-0.942427 0.00225859 -0.340889 7 128 84
0.281712 0.148493 -0.990639 163 146 1
-0.735756 0.218634 -0.919141 34 155 10
-0.0850746 0.220653 -0.922089 117 156 10
0.69838 0.067724 0.64873 217 136 210
0.627135 -0.163822 -0.997532 207 107 0
0.342353 -0.056357 0.905752 171 120 243
0.813325 -0.271531 -0.460247 231 93 69
0.929455 -0.2715 0.50176 246 93 191
0.790423 -0.271531 -0.424299 228 93 73
-0.316274 0.264859 -0.855199 87 161 18
0.786845 0.199822 -0.798289 228 153 26
0.69108 0.0277628 0.294751 216 131 165
0.893701 -0.0131254 -0.997265 241 126 0
0.336976 -0.17064 0.542232 170 106 197
0.726887 -0.271531 0.0643941 220 93 136
0.695497 0.0537051 -0.313748 216 134 87
-0.590833 0.0356415 -0.443893 52 132 71
0.955057 -0.0109261 0.210329 249 126 154
-0.693447 -0.0316839 -0.308236 39 123 88
0.751861 -0.271531 0.524514 223 93 194
0.399764 -0.271531 0.645626 178 93 210
-0.94151 -0.144584 -0.340427 7 109 84
-0.452519 -0.271531 -0.496817 70 93 64
-0.588082 0.263764 -0.915042 53 161 11
0.241285 -0.150883 -0.997976 158 108 0
0.784784 -0.271531 -0.588196 228 93 53
0.496517 0.012462 -0.336855 191 129 85
0.955136 -0.0972512 0.401623 249 115 179
-0.483046 -0.00996108 -0.893186 66 126 14
0.834588 0.0489239 0.262108 234 134 161
0.404258 -0.157312 1 179 107 255
-0.673503 -0.219395 -0.330389 42 100 85
-0.841996 -0.271927 -0.582343 20 93 53
0.476487 -0.0744268 -0.997686 188 118 0
0.954581 0.0169947 -0.1925 249 130 103
0.457186 -0.0356244 -0.88841 186 123 14
-0.0359588 0.0681898 -0.725387 123 136 35
-0.274666 0.0248322 -0.511781 92 131 62
0.493168 0.24174 -0.922928 190 158 10
0.847053 -0.0267013 -0.602218 235 124 51
-0.283159 -0.225086 -0.33078 91 99 85
0.833784 0.00282452 -0.381049 234 128 79
0.354567 0.0125373 0.200623 173 129 153
0.319966 -0.00471422 0.203437 168 127 153
-0.6544 0.155737 -0.941546 44 147 7
-0.244639 -0.271531 -0.779886 96 93 28
0.481664 -0.00553519 0.257466 189 127 160
0.419987 0.0361976 0.721492 181 132 219
0.698756 0.0831436 -0.0959776 217 138 115
0.839558 -0.0434006 0.0576087 235 122 135
0.866515 -0.271531 -0.186679 238 93 104
-0.421288 -0.0928834 -0.339028 74 116 84
0.766753 0.21861 -0.0544407 225 155 121
0.775693 0.231567 0.330093 226 157 170
0.155995 -0.271531 -0.428754 147 93 73
0.633956 0.0352935 -0.066778 208 132 119
0.681233 0.0431636 0.402014 214 133 179
0.579995 0.0175935 -0.484612 201 130 66
-0.956512 -0.113966 -0.731817 6 113 34
