ply
format ascii 1.0
comment Created by Open3D
element vertex 1214
property double x
property double y
property double z
property uchar red
property uchar green
property uchar blue
end_header
0.69304 0.0786367 0.50247 216 138 192
-0.800513 0.0291268 -0.88458 25 131 15
-0.55637 -0.0426683 -0.300685 57 122 89
-0.266605 -0.0125053 -0.868311 94 126 17
0.843833 0.0249876 -0.551729 235 131 57
0.955099 -0.0982811 0.279039 249 115 163
0.954699 0.0200559 -0.101479 249 130 115
0.736231 0.155747 -0.958692 221 147 5
0.861875 0.116625 -0.382008 237 142 79
0.152375 -0.169271 -0.998091 147 106 0
0.347565 -0.0166422 0.989662 172 125 254
0.803871 0.134437 0.859518 230 145 237
0.368966 0.0284488 0.014355 175 131 129
-0.327853 -0.271531 -0.535159 86 93 59
-0.6231 0.0380399 -0.502651 48 132 63
0.752157 0.187375 -0.246046 223 151 96
0.691743 0.170506 -0.786845 216 149 27
0.929989 0.154859 0.0128726 246 147 129
-0.647079 -0.0417704 -0.998625 45 122 0
0.954412 0.00588433 -0.323598 249 128 86
0.830888 -0.271531 0.453408 233 93 185
0.382376 0.187997 -0.808223 176 151 24
0.647173 -0.133949 -0.997511 210 110 0
-0.0077886 0.0215897 -0.998297 127 130 0
0.95594 0.0414155 0.980566 249 133 253
0.831175 0.0085262 -0.595457 233 129 52
0.622936 -0.271531 -0.800484 207 93 25
-0.801244 0.0484125 -0.379875 25 134 79
0.95504 -0.253087 0.708133 249 95 218
0.416774 -0.271498 -0.972346 181 93 4
0.688598 0.0693955 -0.589565 215 136 52
-0.577397 0.0850872 -0.907143 54 138 12
0.955138 0.00378667 0.768615 249 128 225
0.711394 -0.077004 -0.997447 218 118 0
0.731039 -0.271531 0.475813 221 93 188
0.946251 -0.270883 0.245982 248 93 159
0.955104 -0.055603 0.294972 249 120 165
0.337098 -0.179944 0.787956 170 105 228
0.11188 0.0290718 -0.715528 142 131 36
0.835859 0.239909 -0.469416 234 158 68
0.180384 0.240197 -0.833423 150 158 21
0.467633 -0.271531 0.806235 187 93 230
-0.0877607 -0.271531 -0.666231 116 93 43
0.167193 -0.000880294 -0.998071 149 127 0
0.748871 0.209151 0.752575 223 154 223
-0.545895 0.267163 -0.843953 58 162 20
-0.124169 0.0301401 -0.424627 112 131 73
0.954914 0.0491933 0.235185 249 134 157
0.8794 -0.271531 -0.115846 240 93 113
0.834415 -0.0503009 -0.486005 234 121 66
0.85103 0.00946036 0.317409 236 129 168
-0.501288 -0.271531 -0.574589 64 93 54
-0.956512 -0.14051 -0.6586 6 110 44
-0.936263 -0.271751 -0.539522 8 93 59
0.602 -0.0470674 -0.997557 204 121 0
0.42871 0.0383263 0.710331 182 132 218
0.22508 -0.271531 -0.636002 156 93 46
0.597471 0.234729 -0.847595 204 157 19
0.850362 0.0314161 -0.893505 236 132 14
-0.744622 0.0239181 -0.611004 33 131 50
0.627593 0.162817 -0.942727 208 148 7
0.0456706 -0.22043 -0.330387 133 99 85
0.30732 0.00927658 0.575072 167 129 201
0.341529 0.205059 -0.916839 171 154 11
0.945704 0.0284977 -0.994935 248 131 1
0.613436 0.0350441 0.746277 206 132 223
0.0174139 -0.271531 -0.924948 130 93 10
0.430206 0.083998 0.884216 182 138 240
0.737931 0.186491 -0.939744 222 151 8
0.177522 -0.166191 -0.330718 150 106 85
0.468448 -0.271531 0.401734 187 93 179
-0.954542 -0.263882 -0.416963 6 94 74
-0.483217 0.0367048 -0.60777 66 132 50
0.954737 -0.206495 -0.0713882 249 101 118
0.669129 0.0263079 0.324223 213 131 169
0.882083 -0.270854 -0.337724 240 93 84
-0.666001 0.0264662 -0.879313 43 131 15
0.183357 -0.0271199 -0.891503 151 124 14
0.870403 -0.271531 -0.0963974 238 93 115
-0.50378 -0.0794353 -0.327476 63 117 86
0.507729 -0.271531 -0.707016 192 93 37
0.342391 0.00378768 0.891731 171 128 241
-0.759874 -0.201269 -0.329929 31 102 85
-0.62713 -0.00462917 -0.86891 48 127 17
-0.7341 -0.271531 -0.55461 34 93 57
0.541542 -0.271531 -0.642954 197 93 46
0.428806 -0.271531 -0.00451018 182 93 127
0.686307 -0.271531 -0.530114 215 93 60
-0.848953 -0.184146 -0.33754 19 104 84
0.938921 -0.0715439 0.99928 247 118 255
0.55625 -0.234891 -0.997604 198 98 0
0.955108 -0.181716 0.310196 249 104 167
-0.954361 -0.264352 -0.731781 6 94 34
-0.956512 -0.0217656 -0.546476 6 125 58
-0.222362 0.0804593 -0.882814 99 138 15
0.95513 -0.0126801 0.382727 249 126 176
0.349985 -0.00787839 -0.347894 172 126 83
0.368925 0.023653 0.160478 175 131 148
-0.105338 -0.153843 -0.998423 114 108 0
0.661463 -0.271531 -0.203208 212 93 102
0.0422163 -0.271531 -0.649557 133 93 45
0.794099 -0.0698528 0.842946 229 119 235
-0.704198 0.0304274 -0.47587 38 131 67
0.440796 -0.271531 0.804142 184 93 230
0.955069 -0.162919 0.843322 249 107 235
0.955138 -0.0507868 0.570635 249 121 200
0.238209 -0.21227 -0.330201 158 100 85
0.954684 -0.141639 -0.11307 249 109 113
0.537243 -0.271928 0.937001 196 93 247
0.663181 -0.001462 1 212 127 255
0.129889 -0.177396 -0.330422 144 105 85
0.323873 -0.0840491 -0.30996 169 117 88
0.628711 0.0363968 -0.112956 208 132 113
0.847207 -0.024394 -0.582557 236 124 53
-0.690585 0.0812301 -0.897416 39 138 13
0.481104 0.0394682 0.521495 189 133 194
0.841106 -0.0102622 0.393933 235 126 178
0.557844 0.102293 -0.758493 199 141 31
0.165255 0.2238 -0.810854 149 156 24
0.93175 -0.00127621 -0.996923 246 127 0
0.124603 -0.271531 -0.787531 143 93 27
-0.811318 0.257667 -0.822214 24 160 23
-0.956512 -0.114555 -0.773273 6 113 29
0.953802 -0.176252 -0.597704 249 105 51
0.95388 -0.234796 -0.70492 249 98 38
0.955133 -0.225162 0.390087 249 99 177
-0.0437845 -0.178885 -0.330361 122 105 85
0.337221 -0.149493 -0.202752 170 108 102
0.72516 0.136628 0.292475 220 145 165
0.456529 -0.271531 0.527178 186 93 195
0.449999 0.0359197 0.0516875 185 132 134
0.901052 0.173807 -0.644843 242 150 45
0.714013 -0.032414 -0.997444 219 123 0
0.299921 -0.0558153 -0.225585 166 120 99
-0.486822 0.16104 -0.935602 65 148 8
0.535247 0.0367849 0.117402 196 132 142
0.90052 -0.271531 -0.0419597 242 93 122
0.875856 0.230314 -0.661522 239 157 43
-0.25411 -0.271531 -0.491159 95 93 65
-0.894622 0.0887069 -0.91853 13 139 10
-0.117594 0.159373 -0.748065 113 148 32
0.566932 0.0268619 0.197213 200 131 153
0.143855 -0.271531 -0.924772 146 93 10
0.30463 -0.0166559 0.376105 166 125 175
0.951478 0.132936 -0.329768 249 144 85
0.918345 -0.13244 -0.997192 245 111 0
0.864632 0.101076 0.221549 238 140 156
0.474631 -0.271531 0.167822 188 93 149
-0.956512 -0.139777 -0.832455 6 110 21
0.346267 -0.0877247 0.257661 172 116 160
0.803749 0.210802 -0.813261 230 154 24
0.953818 -0.156866 -0.617889 249 107 49
-0.956512 0.00598181 -0.882435 6 128 15
-0.287341 0.160702 -0.923218 91 148 10
0.453028 0.0214577 -0.566412 185 130 55
-0.632445 -0.0673232 -0.861666 47 119 18
-0.798731 0.0452955 -0.450611 26 133 70
-0.956189 -0.103915 -0.974876 6 114 3
-0.202512 -0.271531 -0.699791 102 93 38
0.105918 -0.24989 -0.998126 141 96 0
-0.429818 0.0301817 -0.369088 73 131 80
0.68195 -0.19436 1 214 103 255
-0.859667 -0.271928 -0.756071 18 93 31
0.414423 0.236132 -0.842952 180 158 20
0.179293 -0.271531 -0.789666 150 93 27
0.359484 -0.271531 -0.490425 173 93 65
-0.637942 -0.111858 -0.334102 46 113 85
0.844732 -0.0285541 -0.176857 235 124 105
0.748754 -0.271531 0.557315 223 93 199
0.338672 -0.116916 -0.184427 171 113 104
0.510543 0.182646 -0.945207 193 151 7
-0.30543 0.267042 -0.899346 89 162 13
0.953915 -0.064505 -0.756384 249 119 31
0.643706 0.0115475 -0.474765 210 129 67
0.953745 0.0950656 0.81009 249 140 231
0.22554 0.20398 -0.937064 156 154 8
0.341367 -0.271531 -0.596089 171 93 51
0.488433 0.221764 -0.824064 190 156 22
0.795839 0.266799 0.788854 229 162 228
0.589108 0.0880774 0.867299 203 139 238
0.75046 0.212084 0.717962 223 155 219
0.624278 0.242422 -0.905909 207 158 12
-0.0456166 -0.096552 -0.998346 122 115 0
0.430557 -0.271531 0.560672 182 93 199
0.955016 0.00360548 0.166802 249 128 149
0.813862 0.0385229 -0.772447 231 132 29
-0.19683 -0.271531 -0.542865 102 93 58
-0.785753 -0.271531 -0.707505 27 93 37
0.831431 -0.0264278 0.130941 234 124 144
0.828592 0.0903617 0.953312 233 139 249
0.640263 0.00924463 0.273603 209 129 162
0.533167 -0.271531 -0.772632 195 93 29
0.243094 0.0674505 -0.997433 158 136 0
-0.88177 0.093616 -0.713678 15 139 37
0.148915 0.0236487 -0.358095 146 131 82
0.469453 0.246051 -0.860912 187 159 18
-0.790289 -0.271531 -0.432199 27 93 72
0.0563004 0.252803 -0.904443 135 160 12
0.43126 -0.271531 -0.874966 182 93 16
0.939998 -0.271401 -0.0798259 247 93 117
0.295593 -0.015102 -0.0140538 165 126 126
0.331634 0.0225126 0.518307 170 130 194
-0.471109 0.0830703 -0.735318 67 138 34
0.453512 0.0100058 1 185 129 255
-0.70808 -0.0176865 -0.311687 37 125 88
0.811206 -0.0521059 -0.670783 231 121 42
-0.952639 0.010889 -0.991369 6 129 1
0.892343 0.223635 -0.359318 241 156 82
0.162532 0.193279 -0.782699 148 152 28
0.714577 -0.253055 0.999633 219 95 255
-0.262199 0.0184724 -0.713186 94 130 37
-0.813199 0.0930852 -0.841663 24 139 20
0.314895 -0.0746157 0.686196 168 118 215
0.487674 -0.165232 1 190 106 255
-0.910032 -0.196998 -1 11 102 0
0.150115 0.173709 -0.937461 147 150 8
-0.308321 0.1558 -0.949142 88 147 6
-0.382576 -0.271531 -0.652157 79 93 44
0.827224 -0.271531 -0.210916 233 93 101
0.540246 0.0648073 0.994732 196 136 254
0.871701 0.11858 -0.826813 239 143 22
0.1678 -0.271127 -0.348543 149 93 83
0.823295 0.113578 -0.913977 232 142 11
0.294014 0.132086 -0.995055 165 144 1
0.795229 0.0753915 -0.996581 229 137 0
0.690905 0.0481522 -0.0949029 216 134 115
0.760003 0.212115 -0.021536 224 155 125
0.337262 -0.189455 -0.0606839 171 103 120
-0.624065 -0.271531 -0.433903 48 93 72
0.442545 0.0378529 0.428076 184 132 182
0.588156 -0.271531 0.682972 202 93 215
0.259584 -0.249961 -0.997927 161 96 0
-0.588095 0.0256568 -0.70656 53 131 37
0.664197 -0.271531 -0.895662 212 93 13
0.831341 -0.271531 0.323951 233 93 169
0.759813 0.0957885 -0.995982 224 140 1
0.2504 0.0294566 -0.674439 159 131 42
0.00568559 -0.0019754 -0.89345 128 127 14
0.374862 0.255436 -0.899549 175 160 13
0.0558987 -0.145362 -0.998215 135 109 0
0.951074 0.131997 -0.778485 249 144 28
-0.457127 -0.194976 -0.998625 69 103 0
0.944412 0.151305 -0.294062 248 147 90
0.804209 0.267326 0.694535 230 162 216
0.902757 0.211928 0.57039 243 155 200
-0.449968 -0.231655 -0.331734 70 98 85
-0.581272 -0.271531 -0.485286 53 93 66
0.295259 -0.0175047 0.624663 165 125 207
0.955117 -0.0262404 0.338437 249 124 171
0.331789 -0.219332 -0.325237 170 100 86
-0.0298131 -0.271531 -0.654218 124 93 44
0.951882 0.139062 0.498655 249 145 191
0.0367209 0.151946 -0.986761 132 147 2
0.495405 -0.248503 -0.997608 191 96 0
0.955138 0.0016876 0.653564 249 128 211
0.661639 -0.00339727 0.257041 212 127 160
0.74603 0.166012 -0.416721 223 149 74
0.157965 0.0317226 -0.705006 148 132 38
0.58608 -0.208099 -0.997574 202 101 0
-0.770279 0.01358 -0.998625 29 129 0
0.193582 -0.0952564 -0.998038 152 115 0
0.897445 0.157185 0.154281 242 148 147
0.338581 -0.224301 0.369721 171 99 175
-0.151506 -0.271531 -0.473015 108 93 67
-0.75694 0.147492 -0.92523 31 146 10
0.953709 -0.212771 -0.474795 249 100 67
-0.341531 -0.0479919 -0.880173 84 121 15
0.666366 0.00919691 -0.67418 212 129 42
0.544907 0.0885136 0.87461 197 139 239
0.100915 0.0399638 -0.998118 140 133 0
-0.799226 -0.0708042 -0.388003 26 118 78
0.878853 -0.271531 0.615299 240 93 206
-0.192111 -0.271531 -0.472519 103 93 67
0.284931 -0.271531 -0.563006 164 93 56
-0.477617 -0.271531 -0.606198 67 93 50
0.922698 -0.272436 0.944225 245 93 248
0.33888 -0.227783 0.0542751 171 98 134
-0.956402 0.0343694 -0.429134 6 132 73
0.729533 0.126261 -0.327838 221 144 86
0.633464 0.0356931 -0.0899829 208 132 116
0.653788 0.0359746 0.999927 211 132 255
-0.00798648 0.247689 -0.910055 126 159 11
0.49956 -0.271531 -0.653463 191 93 44
0.422131 -0.271531 -0.198362 181 93 102
-0.234224 -0.104104 -0.335601 98 114 85
-0.956512 -0.0506178 -0.492732 6 121 65
-0.181639 -0.231768 -0.998501 104 98 0
-0.69616 0.0272952 -0.406609 39 131 76
0.945792 0.149858 -0.551469 248 147 57
-0.524249 -0.214013 -0.330167 61 100 85
0.253898 0.013624 -0.423094 160 129 74
0.950611 0.144579 0.521899 249 146 194
0.804297 0.0539164 -0.889589 230 134 14
-0.0509091 -0.267698 -0.993931 121 93 1
-0.823068 0.0785137 -0.428585 23 138 73
-0.346406 0.255402 -0.838851 83 160 21
-0.943145 0.0710503 -0.392014 7 137 78
0.533841 0.0142597 -0.685922 196 129 40
0.955081 -0.0953068 0.235083 249 115 157
0.812035 0.253869 -0.0629809 231 160 119
-0.282633 0.0241171 -0.470283 91 131 68
0.349619 0.0391085 -0.874348 172 132 16
0.42083 -0.0520597 -0.997743 181 121 0
0.876836 -0.271531 -0.630064 239 93 47
0.538321 0.0377613 -0.133774 196 132 110
0.365784 0.0114068 0.32212 174 129 169
0.955074 -0.2491 0.670982 249 96 213
0.398494 -0.271942 -0.307786 178 93 88
0.954838 0.0307387 0.00683777 249 131 128
0.864003 0.144853 0.840122 238 146 235
0.955138 0.0126051 0.81434 249 129 231
0.372982 0.248506 -0.920243 175 159 10
-0.35417 -0.168896 -0.998609 82 106 0
-0.697196 -0.271531 -0.787833 39 93 27
0.669178 0.164351 -0.78367 213 148 28
0.947725 -0.27015 -0.975027 248 93 3
0.337119 -0.180163 0.110064 170 105 142
0.692516 0.0811257 -0.192196 216 138 103
0.916917 0.155772 -0.888514 244 147 14
0.66185 -0.271531 0.332418 212 93 170
-0.873258 0.0907116 -0.57451 16 139 54
-0.32086 -0.00192004 -0.312724 87 127 88
0.321592 -0.0788204 0.589046 169 117 203
0.42924 -0.271531 0.102491 182 93 141
-0.780333 -0.271531 -0.755764 28 93 31
-0.462045 -0.271531 -0.946056 69 93 7
-0.237582 0.248638 -0.839958 97 159 20
0.620928 -0.271531 0.357032 207 93 173
0.337719 -0.0968332 -0.281569 171 115 92
0.954931 0.051714 0.828109 249 134 233
0.715271 0.125082 0.60607 219 143 205
-0.911393 -0.271928 -0.68828 11 93 40
0.390946 0.0311279 -0.0198641 177 131 125
0.763515 -0.271531 0.0126236 225 93 129
0.365657 -0.271448 -0.155986 174 93 108
0.764056 0.220853 0.0280691 225 156 131
-0.956512 -0.173042 -0.627498 6 105 47
0.385602 0.211709 -0.93397 177 154 8
0.601688 -0.268908 0.858318 204 93 237
0.908623 -0.271529 0.429237 243 93 182
0.68905 0.0850189 -0.626748 215 138 48
0.843256 0.0769199 0.241167 235 137 158
0.807456 -0.0499313 0.837435 230 121 234
-0.827793 -0.104464 -0.336273 22 114 85
0.955135 0.0175135 0.399185 249 130 178
-0.956512 -0.224688 -0.629984 6 99 47
0.705135 -0.077822 1 217 118 255
0.517166 0.237848 -0.847038 193 158 20
0.484733 -0.271531 0.0942841 189 93 140
0.542278 -0.251689 0.999678 197 95 255
0.605698 0.0328596 -0.293815 205 132 90
0.914396 0.0794764 0.868038 244 138 238
0.717456 -0.271531 0.550265 219 93 198
0.340898 -0.102291 0.616718 171 114 206
0.321163 -0.0789368 -0.0573123 168 117 120
0.61367 -0.271531 0.488963 206 93 190
0.66154 -0.271906 0.969792 212 93 251
0.649189 0.190662 -0.802244 210 152 25
-0.823822 -0.151895 -0.999075 22 108 0
-0.776766 0.113535 -0.883987 28 142 15
0.732399 -0.271531 -0.631529 221 93 47
0.953873 -0.194495 -0.694902 249 103 39
0.208511 0.186365 -0.782507 154 151 28
0.89306 0.223612 0.341552 241 156 171
0.955138 -0.154882 0.527547 249 108 195
-0.769615 -0.271531 -0.883522 29 93 15
0.895861 0.206694 0.806055 242 154 230
0.895358 -0.271531 -0.680632 242 93 41
-0.355353 0.228478 -0.807547 82 157 25
-0.593532 0.0381116 -0.573169 52 132 54
0.473022 -0.271928 0.936757 188 93 247
0.13544 -0.183647 -0.998113 145 104 0
-0.315092 0.214331 -0.798948 87 155 26
-0.429862 0.0376734 -0.454808 73 132 70
0.954413 -0.105121 -0.322704 249 114 86
0.461006 -0.271531 0.566328 186 93 200
0.80718 0.23642 -0.559004 230 158 56
0.656254 -0.0802135 1 211 117 255
0.583407 0.0380488 -0.19341 202 132 103
0.0244828 -0.0682478 -0.998256 131 119 0
0.63716 0.0340882 0.594526 209 132 203
0.839446 0.289844 0.857355 235 164 237
0.369282 0.0247944 -0.177534 175 131 105
-0.248052 -0.0282244 -0.328209 96 124 86
0.331076 -0.0109093 -0.324625 170 126 86
-0.896431 -0.0920912 -1 13 116 0
-0.0638265 0.25666 -0.891767 119 160 14
-0.023793 -0.00709055 -0.998318 124 127 0
-0.538738 -0.163031 -0.330741 59 107 85
-0.622278 -0.271531 -0.716443 48 93 36
-0.697499 -0.189724 -0.998625 39 103 0
-0.249897 0.0210281 -0.652395 96 130 44
0.390155 -0.271531 0.538259 177 93 196
0.337629 -0.198886 0.845303 171 102 235
0.376571 0.0127919 -0.521517 176 129 61
0.955122 0.01178 0.354338 249 129 173
0.0179891 0.0558248 -0.900269 130 135 13
0.911518 -0.09755 -0.997247 244 115 0
0.617173 0.0138744 -0.602094 206 129 51
0.713002 0.0766428 0.826545 218 137 233
0.4569 -0.271531 0.107843 186 93 141
-0.849981 0.0211782 -1 19 130 0
-0.151559 0.0682282 -0.90421 108 136 12
0.953021 0.0830846 -0.941163 249 138 8
0.953181 0.0735456 -0.746105 249 137 32
0.955138 -0.153958 0.774888 249 108 226
-0.487811 -0.189646 -0.998625 65 103 0
0.80093 0.213792 -0.405261 230 155 76
-0.58305 -0.271531 -0.714532 53 93 36
0.337646 0.0197573 -0.846839 171 130 20
-0.0101514 -0.15106 -0.9983 126 108 0
0.623187 0.244398 -0.879199 207 159 15
0.190894 -0.0361582 -0.998041 152 123 0
0.490531 0.0191309 -0.631422 190 130 47
0.953769 -0.0486055 -0.553571 249 121 57
0.111229 -0.271531 -0.696452 142 93 39
0.822982 0.230666 -0.791466 232 157 27
0.689537 0.046274 0.3173 215 133 168
0.598215 0.096699 -0.996113 204 140 0
0.716365 0.108105 0.813898 219 141 231
0.69331 0.0834022 -0.171302 216 138 106
0.771491 -0.271531 0.432776 226 93 183
0.955138 0.00856362 0.727712 249 129 220
0.135836 -0.271531 -0.401428 145 93 76
0.66939 0.0312836 0.564044 213 131 199
-0.0186269 -0.271531 -0.897706 125 93 13
0.20315 0.0306957 -0.48419 153 131 66
0.514205 0.0209378 -0.313847 193 130 87
-0.0777758 -0.202599 -0.329979 118 102 85
0.440869 -0.271075 0.846958 184 93 235
-0.616964 -0.0713184 -0.998625 49 118 0
0.95446 -0.156964 -0.286643 249 107 91
0.321814 -0.101009 -0.994117 169 115 1
0.564183 0.0418865 0.437425 199 133 183
0.038973 0.0149214 -0.321212 132 129 87
-0.609341 -0.270769 -0.989478 50 93 1
0.844124 0.106383 -0.912091 235 141 11
0.952957 0.114587 0.228935 249 142 157
0.342365 -0.0224056 0.894671 171 125 242
0.759108 -0.271928 0.942615 224 93 248
0.748218 -0.271531 0.579378 223 93 201
0.643026 -0.271531 0.114991 209 93 142
0.184011 0.0723557 -0.997361 151 137 0
0.7898 0.250872 0.381393 228 159 176
0.834776 -0.0474599 -0.209361 234 121 101
0.862467 -0.00132635 -0.997296 237 127 0
0.770651 0.0938626 0.912261 226 139 244
0.536441 0.00911376 0.242155 196 129 158
0.2364 -0.0217357 -0.87377 158 125 16
0.0879128 0.0366468 -0.463511 139 132 68
-0.380719 -0.271531 -0.583081 79 93 53
-0.0229293 -0.156044 -0.330964 125 108 85
-0.815287 0.139715 -0.811235 24 145 24
0.147926 -0.271531 -0.50942 146 93 63
0.411135 -0.00755802 0.268433 180 127 162
0.847588 0.120789 -0.79927 236 143 26
-0.956511 -0.141657 -0.948035 6 109 7
-0.805698 0.235951 -0.892801 25 158 14
-0.805467 -0.0315103 -0.998308 25 123 0
0.756295 0.126252 0.850601 224 144 236
-0.125947 -0.271531 -0.841751 111 93 20
-0.217173 -0.069499 -0.849866 100 119 19
-0.125454 -0.179334 -0.330339 112 105 85
-0.222989 0.0973871 -0.910897 99 140 11
0.146926 -0.271531 -0.674711 146 93 41
0.953759 -0.231659 -0.540539 249 98 59
0.532925 0.0353932 -0.235026 195 132 98
0.847258 -0.0237394 -0.457082 236 124 69
0.338284 -0.125618 -0.271533 171 111 93
0.815243 -0.0201251 -0.353811 231 125 82
0.68833 -0.271531 0.465056 215 93 187
-0.61427 -0.271531 -0.508198 49 93 63
0.553126 -0.00109471 0.254485 198 127 160
0.361341 0.0258701 0.120161 174 131 143
0.955138 -0.150737 0.563891 249 108 199
0.822045 0.259066 0.0118189 232 161 129
0.918757 0.155669 0.76363 245 147 225
0.727259 -0.271928 0.890755 220 93 241
0.340857 -0.102444 0.536097 171 114 196
-0.397606 0.188099 -0.942216 77 151 7
0.292197 -0.212948 -0.33022 165 100 85
0.600257 -0.271531 0.183186 204 93 151
0.258284 -0.271531 -0.920564 160 93 10
0.784663 0.242592 0.0549207 228 158 135
0.953957 0.0333598 -0.816153 249 132 23
-0.672585 -0.0511356 -0.844329 42 121 20
0.505473 0.146848 -0.991481 192 146 1
0.448605 -0.271531 -0.0787671 185 93 117
-0.175732 0.102843 -0.996829 105 141 0
0.0484158 -0.183444 -0.330255 134 104 85
-0.703677 0.154462 -0.934607 38 147 8
0.344422 -0.166679 0.982489 171 106 253
-0.956512 -0.128167 -0.573716 6 111 54
0.900147 0.156503 -0.735762 242 147 34
-0.0366022 0.260974 -0.859788 123 161 18
0.365882 0.0286019 0.611268 174 131 205
-0.792794 -0.0234928 -0.440951 26 125 71
-0.473752 -0.231416 -0.998625 67 98 0
0.604919 -0.271487 -0.349253 205 93 83
0.621637 -0.271002 -0.334885 207 93 85
0.361375 -0.271531 -0.450097 174 93 70
0.919819 0.155565 -0.329663 245 147 85
-0.46266 -0.0601323 -0.872131 69 120 16
0.392947 -0.271531 0.606222 178 93 205
-0.635573 0.181098 -0.761694 46 151 30
-0.568566 -0.271531 -0.871028 55 93 16
0.953952 -0.203174 -0.809316 249 102 24
0.904411 0.205637 -0.219338 243 154 100
0.900001 0.197878 -0.0118899 242 153 126
-0.814999 -0.270237 -0.890241 24 93 14
0.954553 0.0689376 0.456248 249 136 186
0.649264 -0.271531 0.542955 210 93 197
0.338515 -0.119257 0.470727 171 112 188
0.336968 -0.168524 0.0836884 170 106 138
-0.454455 0.0438751 -0.998539 70 133 0
0.896425 0.158727 -0.425581 242 148 73
0.549497 -0.105427 -0.997611 198 114 0
0.342882 -0.0932944 -0.0913263 171 116 116
0.465167 0.0314015 0.759525 187 132 224
0.313536 -0.132835 -0.332844 167 111 85
0.150948 0.0392032 -0.523649 147 132 61
0.839337 -0.0313258 -0.222091 235 124 99
0.677022 0.0309084 0.0225095 214 131 130
0.833086 0.24333 -0.574464 234 159 54
0.713038 -0.271531 -0.0132548 218 93 126
-0.209826 -0.0381815 -0.342727 101 123 84
0.955111 0.0204978 0.320234 249 130 168
0.27662 0.00636954 -0.420078 163 128 74
0.955137 -0.021646 0.408555 249 125 180
0.588438 0.0248667 0.802979 203 131 230
0.768238 0.20747 -0.510788 225 154 62
0.892741 0.252592 0.639786 241 160 209
-0.608627 0.0660896 -0.898345 50 136 13
0.626426 -0.271928 0.95186 207 93 249
-0.884726 0.083983 -0.432937 15 138 72
0.862958 0.233829 -0.384881 238 157 78
0.631661 0.0786851 0.855261 208 138 237
0.86762 0.26589 0.412782 238 161 180
-0.255646 -0.0380672 -0.886736 95 123 14
0.954711 0.0635725 0.786662 249 136 228
0.461444 -0.271531 -0.62806 186 93 47
-0.4726 -0.0455551 -0.301027 67 122 89
-0.360785 0.106934 -0.737792 81 141 33
-0.184559 0.183101 -0.904591 104 151 12
0.642135 0.0349931 0.632837 209 132 208
0.413742 -0.184303 -0.99775 180 104 0
0.867778 -0.267803 0.994094 238 93 254
0.338968 -0.228662 -0.0864202 171 98 116
-0.789057 0.176736 -0.770288 27 150 29
-0.592165 -0.0265612 -0.861545 52 124 18
0.516748 -0.271531 0.807984 193 93 231
0.329687 -0.0912344 -0.241119 170 116 97
-0.525311 0.0367425 -0.596673 61 132 51
0.400244 0.045694 -0.997653 179 133 0
0.503618 -0.271531 0.108703 192 93 141
0.850753 0.00515499 0.634027 236 128 208
0.892853 0.250432 0.447173 241 159 185
-0.168856 0.0270272 -0.998488 106 131 0
-0.813503 0.0812691 -0.740604 24 138 33
0.446011 0.015349 -0.423757 184 129 73
0.566513 -0.271531 0.580304 200 93 201
-0.668181 0.14651 -0.924727 42 146 10
0.331727 -0.271503 -0.625565 170 93 48
0.258874 -0.181895 -0.997953 161 104 0
-0.836568 0.0919656 -0.855111 21 139 18
-0.341608 0.209239 -0.93949 84 154 8
0.50198 -0.185956 1 192 104 255
0.557359 0.209752 -0.945024 199 154 7
0.838762 -0.271531 -0.776734 234 93 28
0.343099 0.048468 0.946316 171 134 248
0.0912243 0.0309974 -0.695679 139 131 39
0.829586 0.269636 0.334761 233 162 170
0.944608 0.0771451 0.892215 248 137 241
-0.830667 -0.271836 -0.937993 22 93 8
0.000565665 0.188764 -0.774849 128 152 29
0.640683 -0.271531 -0.0762283 209 93 118
0.252406 0.152512 -0.985013 160 147 2
0.795142 0.0931184 0.889648 229 139 241
0.140927 0.0572276 -0.997811 145 135 0
0.418892 0.029378 0.999986 181 131 255
-0.834514 -0.271892 -0.515879 21 93 62
0.955046 0.0441112 0.400348 249 133 179
0.457303 -0.271531 -0.475243 186 93 67
0.621565 -0.0975483 -0.997537 207 115 0
0.856007 -0.271531 0.690243 237 93 216
-0.59108 0.125783 -0.745206 52 144 32
-0.64947 0.10413 -0.99691 45 141 0
-0.543386 0.249499 -0.82169 58 159 23
0.350725 0.0195767 0.366359 172 130 174
-0.221028 -0.271531 -0.583921 99 93 53
-0.702647 -0.271531 -0.678957 38 93 41
0.313121 -0.270973 -0.834645 167 93 21
-0.816932 0.193081 -0.845208 23 152 20
-0.111022 -0.271443 -0.360312 113 93 82
0.844663 -0.258124 -0.997049 235 95 0
-0.537149 -0.271531 -0.871036 59 93 16
0.204942 0.0357571 -0.616884 154 132 49
0.933059 -0.271484 0.184195 246 93 151
0.0157311 0.205959 -0.929059 130 154 9
0.953972 -0.249586 -0.937009 249 96 8
-0.506711 -0.271522 -0.377103 63 93 79
-0.239925 -0.271531 -0.836156 97 93 21
0.337769 -0.136911 -0.0930906 171 110 116
0.955793 -0.0902835 0.867891 249 116 238
-0.956512 -0.0577425 -0.536463 6 120 59
0.953691 -0.251412 -0.561949 249 95 56
0.948283 0.147335 -0.820377 248 146 23
0.206983 0.0260367 -0.442061 154 131 71
-0.177612 0.0171164 -0.468064 105 130 68
0.545081 -0.271531 0.691446 197 93 216
-0.795362 -0.0723609 -0.483949 26 118 66
0.333236 0.0210953 0.407267 170 130 179
0.955138 -0.00979383 0.744013 249 126 222
0.954556 0.00482097 -0.212253 249 128 100
0.805287 -0.0568006 -0.361833 230 120 81
0.954818 -0.0783174 -0.00912081 249 118 126
0.762769 0.226093 0.499548 225 156 191
-0.259419 -0.153588 -0.331011 94 108 85
0.901249 0.176969 -0.108769 242 150 114
0.38934 0.0809779 0.878895 177 138 240
-0.154313 0.0284369 -0.575407 108 131 54
0.831754 -0.271531 0.0763927 234 93 137
0.210518 -0.242894 -0.998015 154 97 0
0.954035 0.0221585 -0.928618 249 130 9
0.859353 0.123615 0.231697 237 143 157
0.341587 -0.0904669 0.159729 171 116 148
-0.614409 -0.271531 -0.883435 49 93 15
0.595613 0.0341295 0.156801 203 132 147
0.751095 -0.0210433 -0.997407 223 125 0
-0.118166 0.146296 -0.921981 112 146 10
0.338419 -0.121405 0.673556 171 112 213
0.823208 0.251171 -0.227939 232 160 98
0.465882 -0.271531 0.209451 187 93 154
0.241315 -0.10784 -0.997976 158 114 0
0.827386 0.0437321 -0.997246 233 133 0
0.863245 0.108647 0.295584 238 141 165
0.723199 -0.227143 -0.997435 220 99 0
0.463102 0.0203142 -0.9977 187 130 0
0.698678 -0.154901 1 217 108 255
0.955138 -0.168042 0.485 249 106 189
-0.321843 0.0824381 -0.997598 86 138 0
0.838989 -0.271531 -0.847667 234 93 19
0.0373519 -0.0351383 -0.888204 132 123 14
0.954721 0.037893 -0.0739406 249 132 118
0.902708 0.179805 -0.702858 243 150 38
-0.956138 -0.250972 -0.369579 6 96 80
0.853663 -0.271485 -0.974568 236 93 3
-0.79832 0.025048 -0.669098 26 131 42
-0.0625185 -0.0138661 -0.301521 120 126 89
-0.70556 0.243258 -0.920525 38 159 10
0.478921 0.0148165 -0.416368 189 129 74
0.672438 0.0371259 0.418669 213 132 181
-0.173931 0.226509 -0.794455 105 156 26
0.84921 -0.0162184 0.229585 236 125 157
0.56441 -0.18087 1 199 104 255
-0.214908 -0.0430335 -0.998533 100 122 0
-0.798863 0.00346146 -0.559338 26 128 56
-0.203716 -0.271531 -0.433974 102 93 72
0.493442 0.0219558 -0.512584 190 130 62
0.37463 0.032616 0.429062 175 132 182
0.00244197 0.129267 -0.99557 128 144 1
0.954501 0.0101229 -0.254413 249 129 95
-0.0315355 0.00693274 -0.312353 123 128 88
0.214122 -0.0295119 -0.872089 155 124 16
0.952531 -0.195097 -0.987671 249 103 2
0.721367 0.146601 -0.991458 219 146 1
0.815858 0.261163 0.225492 232 161 156
0.869366 0.238964 -0.412137 238 158 75
0.21877 -0.271531 -0.557151 155 93 56
-0.747561 0.0227029 -0.590163 32 130 52
-0.525692 0.0386369 -0.498205 60 132 64
0.819557 -0.0378118 -0.506386 232 123 63
0.311743 -0.0703138 0.0245288 167 119 131
-0.839728 0.0880583 -0.523583 20 139 61
0.517381 0.0213985 -0.542102 193 130 58
0.69972 -0.271531 0.703446 217 93 217
0.955138 -0.230695 0.517068 249 98 193
0.137162 0.104271 -0.737372 145 141 33
0.856676 0.265422 0.165017 237 161 149
0.844468 -0.0105617 -0.0125915 235 126 126
0.712286 0.120112 -0.0150239 218 143 126
-0.956458 0.0311442 -0.38774 6 131 78
0.891786 0.237795 -0.0630447 241 158 119
-0.27465 0.187408 -0.787554 92 151 27
-0.401504 -0.0877953 -0.336629 76 116 85
0.606436 -0.271531 0.585913 205 93 202
-0.559027 -0.115545 -0.998625 56 113 0
-0.166609 0.0452961 -0.899692 106 133 13
-0.795819 -0.271531 -0.497079 26 93 64
0.599514 0.138636 -0.994334 204 145 1
0.755964 0.215752 0.523807 224 155 194
0.387396 -0.207316 -0.99778 177 101 0
0.337363 -0.20008 0.668002 171 102 213
-0.433145 0.212174 -0.943489 72 155 7
0.955101 0.0161852 0.285124 249 130 164
-0.0991403 0.0369497 -0.592652 115 132 52
-0.879912 -0.0866371 -0.33754 15 116 84
0.311981 0.00059954 0.748645 167 128 223
0.343708 -0.26261 0.44613 171 94 184
0.852946 0.0289791 0.841844 236 131 235
0.797645 -0.00385628 -0.749904 229 127 32
-0.0749859 0.20659 -0.776737 118 154 28
-0.537142 0.0317616 -0.659955 59 132 43
0.921144 -0.274923 -0.273842 245 92 93
0.954585 0.0383192 -0.174847 249 132 105
0.120195 -0.0652884 -0.998132 143 119 0
-0.430548 -0.0555357 -0.875183 73 120 16
0.52612 -0.271531 -0.543608 195 93 58
-0.167434 0.0245219 -0.544777 106 131 58
0.881532 -0.271531 0.783146 240 93 227
-0.463818 0.272714 -0.893432 68 162 14
0.0293454 0.208206 -0.790193 131 154 27
0.798086 0.0135778 -0.893682 229 129 14
0.0915568 -0.104849 -0.33546 139 114 85
0.659414 -0.271531 -0.774903 212 93 29
-0.182787 0.182921 -0.766649 104 151 30
0.349518 0.00691746 -0.590024 172 128 52
0.215092 -0.0190592 -0.89203 155 125 14
-0.113975 0.192939 -0.7658 113 152 30
0.520446 -0.271531 0.688999 194 93 215
0.806525 -0.103244 1 230 114 255
-0.741792 -0.175357 -0.998625 33 105 0
0.103293 0.251472 -0.844652 141 160 20
-0.541697 -0.263309 -0.997987 58 94 0
0.952057 0.136193 0.826661 249 145 233
0.921591 -0.27151 -0.171274 245 93 106
0.0290244 -0.177373 -0.99825 131 105 0
0.952096 0.10185 -0.498098 249 140 64
0.458728 0.0336828 0.138108 186 132 145
0.954784 -0.164783 -0.0356892 249 106 123
-0.0482268 0.250294 -0.904745 121 159 12
0.341775 -0.25254 -0.301303 171 95 89
-0.497739 -0.0692699 -0.850478 64 119 19
0.684247 0.0280816 0.149967 215 131 147
0.898156 0.189513 0.179452 242 152 150
0.953106 0.0752696 -0.71375 249 137 36
0.954269 0.0546384 -0.238194 249 134 97
0.243991 -0.242192 -0.330889 159 97 85
0.532409 0.168073 -0.942997 195 149 7
0.255851 -0.144906 -0.331595 160 109 85
0.823961 -0.251501 -0.99725 233 95 0
-0.0178943 -0.271531 -0.562564 125 93 56
0.823195 -0.0619169 -0.805197 232 120 25
0.955 -0.224393 0.149437 249 99 147
0.457764 0.0393204 0.482851 186 133 189
-0.889671 0.0908363 -0.621725 14 139 48
-0.510933 -0.0587844 -0.307075 62 120 88
0.955133 0.0372216 0.749325 249 132 223
-0.238813 -0.271531 -0.397204 97 93 77
-0.907295 -0.252934 -0.99992 12 95 0
-0.0321706 -0.267969 -0.339531 123 93 84
0.644202 -0.0131899 -0.891972 210 126 14
0.902162 0.21402 -0.284416 243 155 91
-0.359771 0.0403099 -0.620771 82 133 48
-0.882581 -0.014995 -1 15 126 0
0.359793 0.121707 -0.904187 173 143 12
-0.946376 -0.27088 -0.500433 7 93 64
0.539516 0.0166987 -0.439322 196 130 71
0.760665 -0.271531 -0.665347 224 93 43
0.762825 0.229433 0.787668 225 157 228
-0.124502 0.225626 -0.791174 112 156 27
0.713623 0.145452 0.380305 218 146 176
-0.0709689 -0.271037 -0.347971 118 93 83
0.838138 -0.0137677 0.520702 234 126 194
0.920054 -0.271513 -0.139089 245 93 110
-0.0988451 0.0333049 -0.881603 115 132 15
0.809282 0.240392 -0.293124 231 158 90
0.106151 -0.0461266 -0.29992 141 122 89
-0.57581 -0.271531 -0.939933 54 93 8
-0.308764 0.257445 -0.922654 88 160 10
0.899068 -0.271531 0.472197 242 93 188
-0.884196 -0.271928 -0.870664 15 93 16
-0.850289 0.0942025 -0.742971 19 140 33
0.883907 0.243201 0.295284 240 159 165
-0.754144 -0.216802 -0.998625 31 100 0
-0.0525001 -0.271531 -0.821112 121 93 23
0.294464 -0.0283528 -0.0882317 165 124 116
-0.0556599 0.0412406 -0.534956 120 133 59
0.799868 -0.271531 0.30006 229 93 166
0.951215 0.127499 -0.657556 249 144 44
0.746425 0.184937 -0.670888 223 151 42
0.841927 -0.00338533 0.145385 235 127 146
0.840502 0.280751 0.743412 235 163 222
0.205616 -0.271515 -0.961675 154 93 5
-0.108675 -0.014642 -0.998428 114 126 0
0.577559 -0.271531 -0.923222 201 93 10
0.210715 -0.108301 -0.998015 154 114 0
0.369141 0.0554488 -0.899441 175 135 13
0.274057 0.0355862 -0.891656 162 132 14
0.335939 -0.0833849 0.755848 170 117 224
0.954746 0.0100334 -0.064379 249 129 119
0.877315 0.179354 0.831739 239 150 234
0.853013 -0.271531 -0.476098 236 93 67
0.94129 0.152783 -0.10471 248 147 114
0.401055 0.0181221 0.200676 179 130 153
0.830492 -0.0250588 0.617743 233 124 206
0.313162 -0.0633686 0.382013 167 119 176
0.550002 -0.271531 -0.0377117 198 93 123
-0.819581 0.103454 -0.928063 23 141 9
0.956495 -0.0122018 0.886729 249 126 241
-0.730138 0.219107 -0.77599 34 155 29
0.324814 -0.0777828 0.142557 169 118 146
-0.783083 -0.000592008 -0.701387 28 127 38
-0.180248 -0.166661 -0.330661 105 106 85
0.861539 -0.271531 0.0687919 237 93 136
0.700734 0.0973182 -0.52776 217 140 60
0.405701 -0.271531 -0.910667 179 93 11
0.503953 -0.234057 1 192 98 255
-0.569737 0.0620373 -0.899457 55 135 13
0.337265 -0.147235 0.769153 171 109 226
-0.376518 0.0492443 -0.998448 79 134 0
0.528191 0.088535 0.930576 195 139 246
-0.564718 -0.271531 -0.83296 55 93 21
0.953811 -0.203703 -0.609065 249 102 50
0.661323 0.240943 -0.896781 212 158 13
0.404519 0.0354982 0.640405 179 132 209
-0.622619 0.0200342 -0.895278 48 130 13
0.827198 -0.0138509 0.307694 233 126 167
0.188674 0.155776 -0.945663 152 147 7
0.625129 0.0949334 -0.996147 207 140 0
0.509164 0.0397371 0.534969 192 133 196
0.827158 -0.271531 0.268397 233 93 162
0.852243 0.0315146 -0.766707 236 132 30
-0.81384 -0.0674596 -0.339213 24 119 84
0.823747 -0.271898 0.971743 233 93 251
0.954502 -0.181314 -0.253755 249 104 95
0.956479 -0.0357295 0.967079 249 123 251
0.955029 0.0455124 0.70929 249 133 218
0.379416 -0.0675454 0.999874 176 119 255
0.0562419 0.0337763 -0.652452 135 132 44
-0.956512 -0.148752 -0.628667 6 109 47
0.479398 -0.125096 1 189 112 255
-0.956512 -0.213614 -0.944732 6 100 7
-0.135041 0.0266021 -0.4077 110 131 76
0.0699274 -0.271531 -0.61019 136 93 50
0.869177 -0.271531 -0.719594 238 93 36
0.475615 -0.271531 0.0707716 188 93 137
-0.357392 -0.0975457 -0.337676 82 115 84
-0.0441389 0.0286712 -0.998344 122 131 0
0.954742 -0.0788968 -0.0681783 249 117 119
0.744943 -0.103702 -0.997413 222 114 0
-0.838032 -0.0340561 -0.999935 21 123 0
0.121036 -0.00208359 -0.893249 143 127 14
-0.628412 0.0316692 -0.401519 47 132 76
-0.368867 0.0410485 -0.595219 80 133 52
-0.495323 -0.271531 -0.877829 64 93 16
0.0960013 0.0154498 -0.322375 140 129 86
-0.26419 0.0816026 -0.741013 94 138 33
0.900029 0.145894 0.862023 242 146 237
-0.798942 0.00658538 -0.427062 26 128 73
-0.7745 0.162566 -0.758358 29 148 31
0.282311 0.0713287 -0.997266 163 137 0
0.51861 -0.0790505 1 194 117 255
-0.250442 -0.0665667 -0.86484 96 119 17
0.366895 0.246006 -0.862077 174 159 18
-0.220118 -0.245045 -0.998538 99 96 0
0.680349 -0.0313289 -0.881635 214 124 15
-0.203676 -0.0129997 -0.342125 102 126 84
0.51169 0.0339749 0.152295 193 132 147
0.846977 0.158618 -0.820672 235 148 23
-0.357676 0.0360394 -0.717731 82 132 36
0.811552 -0.271531 -0.0553838 231 93 120
0.555902 -0.271531 -0.38573 198 93 78
0.364873 0.00979044 -0.671968 174 129 42
-0.435653 -0.271531 -0.590583 72 93 52
0.691196 -0.271531 0.817721 216 93 232
0.919768 -0.271514 0.213428 245 93 155
0.454186 -0.271531 0.693298 185 93 216
0.84036 -0.271531 -0.550107 235 93 57
0.953885 -0.113434 -0.712697 249 113 37
0.92379 -0.271506 -0.560567 245 93 56
-0.693893 -0.271531 -0.844474 39 93 20
0.955138 -0.072646 0.676023 249 118 214
0.946223 0.150878 0.403653 248 147 179
0.545823 0.012658 -0.406259 197 129 76
0.69745 0.0667458 0.681224 216 136 214
-0.729022 -0.271513 -0.372364 35 93 80
0.901942 0.224113 -0.190062 242 156 103
-0.554928 0.0725301 -0.731951 57 137 34
0.51038 -0.271531 0.827444 193 93 233
-0.177866 -0.138379 -0.332049 105 110 85
-0.584949 0.0941942 -0.735567 53 140 34
-0.254635 0.0191764 -0.694274 95 130 39
0.908893 -0.280735 0.93174 243 92 246
-0.553168 0.027428 -0.886435 57 131 14
0.829906 0.252844 -0.252552 233 160 95
0.342804 -0.0348299 0.869926 171 123 238
0.953767 0.056264 -0.945824 249 135 7
0.535774 -0.21703 1 196 100 255
0.581323 -0.247293 0.999815 202 96 255
0.848287 -0.0101319 -0.366692 236 126 81
0.533137 0.0380893 0.0700143 195 132 136
0.466949 0.0348763 -0.152399 187 132 108
0.693215 -0.246651 -0.99742 216 96 0
0.11116 -0.271531 -0.901521 142 93 13
0.819236 -0.0653875 0.595354 232 119 203
0.362464 0.0104513 -0.570998 174 129 55
0.839095 -0.0423808 -0.806901 234 122 25
0.342424 0.00383527 -0.690313 171 128 39
-0.73786 0.124311 -0.917962 33 143 10
-0.284956 0.0300029 -0.570169 91 131 55
0.775822 -0.271531 0.230156 226 93 157
-0.168735 0.0216063 -0.664073 106 130 43
0.607654 -0.123449 -0.997551 205 112 0
0.338588 -0.117625 0.740616 171 113 222
0.953642 -0.203085 -0.402861 249 102 76
-0.415925 -0.203796 -0.998625 74 102 0
0.849052 0.00963611 -0.534766 236 129 59
0.110272 0.139804 -0.75235 142 145 32
0.587164 -0.271531 -0.0374149 202 93 123
-0.483046 -0.00996108 -0.893186 66 126 14
0.843603 -0.0375985 0.796163 235 123 229
0.867897 0.232775 -0.698644 238 157 38
-0.554665 0.0446428 -0.998529 57 133 0
-0.940084 -0.164388 -0.999019 8 107 0
0.314404 -0.0033097 0.774448 168 127 226
0.39237 0.0343635 0.487066 178 132 190
0.337271 0.0802648 -0.904001 171 138 12
0.386345 -0.250551 -0.997704 177 96 0
0.713043 -0.139233 -0.997445 218 110 0
0.774944 -0.270497 0.863242 226 93 238
-0.0972072 -0.271531 -0.509851 115 93 62
0.632888 -0.182805 -0.997526 208 104 0
0.310454 0.0653212 -0.997163 167 136 0
0.730689 -0.271531 0.819848 221 93 232
0.767364 -0.042377 -0.882848 225 122 15
0.226481 0.0269117 -0.48587 156 131 66
0.818231 -0.0535492 0.746767 232 121 223
0.955011 -0.122611 0.160978 249 112 148
0.899446 0.217652 0.38585 242 155 177
-0.559247 0.000160379 -0.305784 56 128 89
0.257454 -0.0575368 -0.873309 160 120 16
0.889011 0.238109 0.015152 241 158 129
0.442227 -0.271544 0.983908 184 93 253
0.351916 -0.0306507 -0.997821 172 124 0
0.369409 -0.00648763 -0.33729 175 127 84
0.953788 -0.245054 -0.624531 249 96 48
0.732169 0.18225 0.40927 221 151 180
-0.127267 0.0284291 -0.677632 111 131 41
0.0887781 -0.0054875 -0.998173 139 127 0
0.955029 -0.254324 0.546168 249 95 197
0.805156 0.261053 0.418476 230 161 181
-0.152357 0.0668157 -0.99795 108 136 0
0.821673 -0.0648696 -0.763907 232 119 30
-0.741333 -0.271531 -0.448263 33 93 70
0.727469 0.157141 -0.463053 220 148 68
-0.956512 -0.169499 -0.924653 6 106 10
0.955138 -0.0392304 0.499356 249 122 191
0.952764 0.120689 0.338582 249 143 171
0.342696 -0.257812 0.397502 171 95 178
-0.447943 -0.174174 -0.998625 70 105 0
-0.678266 -0.271531 -0.641405 41 93 46
0.825806 -0.0621177 -0.632421 233 120 47
0.0368787 -0.271531 -0.679112 132 93 41
0.159354 -0.271531 -0.711648 148 93 37
0.954512 -0.216395 -0.245841 249 100 96
0.48162 -0.271531 -0.891744 189 93 14
0.337278 -0.191391 0.0181594 171 103 130
0.95493 0.0105207 0.0779439 249 129 137
0.85999 0.070263 -0.884188 237 136 15
-0.831218 0.080707 -0.402954 22 138 76
-0.903063 -0.228578 -1 12 98 0
0.629041 -0.271531 -0.658569 208 93 44
-0.0279066 -0.271531 -0.485448 124 93 66
-0.456081 0.206953 -0.94273 69 154 7
-0.862346 0.0804257 -0.362302 18 138 81
-0.162056 0.239716 -0.805927 107 158 25
-0.32165 0.0277938 -0.404005 86 131 76
0.859593 0.130846 -0.918405 237 144 10
0.451779 0.0192312 -0.629883 185 130 47
0.955076 -0.00489987 0.229717 249 127 157
-0.906399 0.0897089 -0.664888 12 139 43
-0.260627 -0.123112 -0.998577 94 112 0
0.0306627 -0.0984768 -0.337365 131 115 84
0.448692 -0.271531 -0.838563 185 93 21
0.707821 0.201369 -0.943507 218 153 7
0.341645 -0.271531 -0.917565 171 93 11
-0.686857 -0.0305568 -0.85281 40 124 19
0.690343 0.0968486 -0.653303 216 140 44
-0.0803391 0.197086 -0.924632 117 153 10
0.494903 0.0142291 0.294462 191 129 165
0.144087 -0.0135938 -0.892488 146 126 14
0.855412 -0.271531 0.487567 237 93 190
-0.0792723 -0.222049 -0.99839 117 99 0
-0.956512 -0.153594 -0.505035 6 108 63
0.695318 0.0533749 0.652597 216 134 211
0.953898 -0.0971115 -0.731381 249 115 34
0.632669 -0.271531 0.14503 208 93 146
0.457322 -0.271531 -0.809025 186 93 24
-0.673735 0.137858 -0.995443 42 145 1
0.105413 0.250136 -0.909976 141 159 11
0.35649 0.0292032 0.48943 173 131 190
0.870655 0.1096 0.839164 239 141 234
0.092699 0.224682 -0.933078 139 156 9
0.722649 0.1489 -0.189909 220 146 103
-0.705846 -0.244226 -0.334138 38 96 85
-0.381925 0.0662071 -0.724634 79 136 35
-0.264739 0.0236534 -0.672897 94 131 42
-0.0976223 0.235403 -0.916054 115 158 11
0.460403 -0.271531 0.290017 186 93 164
0.899421 0.219103 -0.319836 242 155 87
0.412694 0.00739176 -0.73679 180 128 34
0.44852 -0.167068 -0.997714 185 106 0
-0.806391 0.0694964 -0.869933 25 136 17
-0.177174 -0.271531 -0.930094 105 93 9
-0.938524 0.0756538 -0.472699 8 137 67
0.284939 -0.271531 -0.602228 164 93 51
0.345703 -0.26813 0.943021 172 93 248
0.404501 0.0145485 -0.672336 179 129 42
0.36501 -0.271811 0.890295 174 93 241
-0.518533 0.272404 -0.858671 61 162 18
0.588086 -0.271531 -0.368976 202 93 80
0.806688 -0.17543 1 230 105 255
0.50986 -0.114517 -0.997652 193 113 0
0.953445 -0.265158 0.493762 249 94 190
0.74223 0.179644 -0.698273 222 150 38
0.952331 0.0976554 -0.616527 249 140 49
0.380508 -0.271531 -0.880998 176 93 15
0.667447 0.0315376 0.134334 213 132 145
-0.697431 0.150653 -0.743634 39 147 33
0.848469 -0.271531 -0.249324 236 93 96
0.942247 0.152552 0.360699 248 147 173
-0.168246 0.171705 -0.908452 106 149 12
-0.956512 -0.0710291 -0.791008 6 118 27
0.405806 0.0746561 -0.756268 179 137 31
0.611 0.00559086 -0.721117 205 128 36
-0.869358 -0.140289 -1 17 110 0
-0.864698 -0.271928 -0.848898 17 93 19
0.79628 -0.271531 0.664285 229 93 212
0.3621 -0.0559302 0.998857 174 120 255
0.557263 -0.271531 0.164722 199 93 149
0.196762 0.0353895 -0.647864 153 132 45
-0.827207 0.0892381 -0.87964 22 139 15
0.743742 0.174533 0.296444 222 150 165
-0.0470227 -0.0689076 -0.853253 122 119 19
-0.415578 0.0504744 -0.998438 75 134 0
0.89881 0.208434 -0.409265 242 154 75
0.657751 -0.271531 0.162066 211 93 148
-0.0916562 0.155462 -0.747196 116 147 32
0.955138 -0.170141 0.814563 249 106 231
0.337042 -0.172494 -0.0830042 170 106 117
0.37658 0.0916479 -0.767315 176 139 30
-0.379405 0.163345 -0.937918 79 148 8
0.534968 0.0289075 0.186517 196 131 151
-0.29493 0.0325846 -0.610536 90 132 50
-0.592894 0.0584211 -0.725521 52 135 35
0.597485 -0.271531 -0.682354 204 93 40
0.953777 -0.0898516 -0.564929 249 116 55
0.370399 -0.271531 -0.526245 175 93 60
0.815873 0.282291 0.827258 232 163 233
-0.639014 0.133576 -0.995695 46 145 1
0.951278 0.14331 0.755229 249 146 224
0.435963 0.065824 -0.997235 183 136 0
0.508437 -0.271531 -0.635286 192 93 47
0.249981 -0.132579 -0.997965 159 111 0
0.34237 -0.0150625 0.936009 171 126 247
-0.203295 0.0087948 -0.591862 102 129 52
0.368447 -0.271445 -0.979742 174 93 3
0.368696 0.0274094 -0.0992677 175 131 115
-0.540877 -0.0606172 -0.998625 59 120 0
0.849659 0.00939362 -0.728237 236 129 35
-0.684169 -0.0710737 -0.323322 40 118 86
0.367537 -0.271531 -0.60523 174 93 50
0.821957 0.002424 -0.796901 232 128 26
0.0268293 0.146454 -0.756108 131 146 31
-0.376511 -0.271531 -0.385898 79 93 78
-0.265363 0.0434707 -0.72965 94 133 34
0.0771031 -0.271531 -0.457087 137 93 69
-0.351185 -0.271531 -0.438827 83 93 72
-0.212545 -0.204828 -0.998531 100 101 0
0.871008 0.115807 -0.867572 239 142 17
-0.321848 -0.228681 -0.331263 86 98 85
-0.791069 -0.271531 -0.553854 27 93 57
0.890746 -0.271531 -0.905995 241 93 12
-0.120501 0.0026373 -0.867323 112 128 17
-0.547786 -0.271531 -0.796883 58 93 26
0.518766 -0.271453 -0.979781 194 93 3
0.318438 -0.0784427 -0.131044 168 117 111
0.683628 0.0439006 0.363794 215 133 174
-0.107361 0.260457 -0.883546 114 161 15
0.773313 -0.174993 1 226 105 255
-0.607774 -0.271531 -0.933948 50 93 8
0.338906 -0.110494 0.576195 171 113 201
0.954527 -0.0243477 -0.234434 249 124 98
-0.73249 0.138888 -0.740141 34 145 33
-0.286325 -0.271531 -0.506154 91 93 63
0.892955 0.155823 0.367934 241 147 174
0.579107 0.00964542 0.243014 201 129 158
0.173982 0.109035 -0.99616 150 141 0
0.613134 -0.271531 -0.643902 206 93 45
0.897004 0.158086 0.534074 242 148 196
0.441659 -0.271531 0.673858 184 93 213
0.95645 -0.135507 0.881329 249 110 240
-0.266547 0.220693 -0.812397 94 156 24
-0.556617 -0.00636325 -0.998625 57 127 0
-0.890028 -0.271594 -0.35244 14 93 83
-0.951442 0.0654494 -0.767753 6 136 30
0.919931 -0.271513 0.0871603 245 93 139
0.347324 -0.000416085 0.828524 172 127 233
0.81989 -0.0669842 -0.397051 232 119 77
0.389626 0.0308967 0.393909 177 131 178
0.336947 -0.164849 -0.124546 170 106 112
-0.58297 0.00890842 -0.877196 53 129 16
-0.940433 -0.271398 -0.974598 8 93 3
-0.565573 -0.271531 -0.508275 55 93 63
0.534281 -0.122703 -0.997627 196 112 0
0.403067 0.0131034 -0.69341 179 129 39
-0.69789 0.0199627 -0.356179 39 130 82
0.833471 -0.0263696 -0.298539 234 124 89
-0.825054 -0.178715 -0.335324 22 105 85
0.506674 -0.271531 0.30331 192 93 166
-0.0138981 -0.0537962 -0.998305 126 121 0
0.6512 -0.271531 -0.630714 211 93 47
0.379652 -0.271517 0.200209 176 93 153
-0.435273 0.0295397 -0.6985 72 131 38
-0.487773 0.154853 -0.973837 65 147 3
-0.0247356 0.0314621 -0.385927 124 132 78
0.0239736 -0.271531 -0.894612 131 93 13
0.490817 -0.180697 -0.997671 190 104 0
0.342325 -0.0978248 0.363825 171 115 174
0.258176 0.177718 -0.931947 160 150 9
0.852416 0.032632 -0.373523 236 132 80
0.745904 -0.271234 0.865469 223 93 238
0.63941 -0.0320814 -0.997519 209 123 0
0.644792 -0.271531 -0.365027 210 93 81
0.352985 -0.270674 0.361186 173 93 174
0.692443 -0.271531 -0.506414 216 93 63
0.864855 -0.271531 -0.00517412 238 93 127
0.3364 0.177936 -0.912098 170 150 11
0.659561 -0.180917 1 212 104 255
-0.572076 -0.271494 -0.973761 55 93 3
-0.637729 -0.271531 -0.859594 46 93 18
0.824659 -0.0377237 -0.319658 233 123 87
0.242223 0.0313388 -0.608795 158 131 50
0.602464 0.0368065 0.0869656 204 132 139
0.559202 -0.271531 -0.674596 199 93 41
0.572642 0.0896016 0.937115 201 139 247
0.167625 0.249445 -0.910986 149 159 11
0.102145 0.0802273 -0.731695 141 138 34
0.471471 -0.1 1 188 115 255
0.906797 -0.271842 0.873914 243 93 239
0.896291 0.158148 0.621476 242 148 207
-0.411738 0.048927 -0.722363 75 134 35
-0.956512 -0.0294126 -0.642977 6 124 46
-0.948316 -0.24515 -0.995856 7 96 1
-0.502213 0.0309209 -0.391477 63 131 78
0.378127 0.0130294 -0.607494 176 129 50
-0.665421 -0.0788232 -0.329296 43 117 86
0.314595 -0.0314797 0.792306 168 123 229
0.825862 0.216361 -0.836053 233 155 21
0.954639 0.000778768 -0.147816 249 128 109
-0.528301 -0.231167 -0.998625 60 98 0
0.847702 -0.117985 -0.99731 236 112 0
0.876149 -0.271531 -0.425284 239 93 73
0.381005 -0.27152 -0.120209 176 93 112
-0.956394 -0.16827 -0.374906 6 106 80
0.604874 0.166459 -0.787076 205 149 27
0.665666 0.0340281 -0.118547 212 132 112
0.894614 0.210473 -0.708042 242 154 37
0.901814 0.182604 0.472892 242 151 188
0.342563 0.000856762 -0.412678 171 128 75
-0.782371 0.00421842 -0.606398 28 128 50
0.406054 0.0326973 0.0310822 179 132 131
0.953791 -0.106137 -0.583622 249 114 53
-0.49449 -0.0998825 -0.998625 64 115 0
0.840967 -0.271928 0.900691 235 93 242
0.955138 -0.0708814 0.757632 249 118 224
0.299494 -0.0537246 0.55578 166 121 198
-0.431252 -0.267689 -0.99438 73 93 1
0.849598 0.0077927 -0.802504 236 128 25
0.951582 0.133363 -0.256835 249 145 95
0.462554 -0.271531 -0.675294 186 93 41
-0.733125 0.054172 -0.998379 34 134 0
-0.176007 0.220043 -0.911632 105 156 11
0.953742 -0.10962 -0.518085 249 114 61
0.582639 0.0350875 -0.267282 202 132 93
0.337563 -0.209342 0.412049 171 101 180
0.0472444 0.0303513 -0.890813 134 131 14
0.0437953 0.0393601 -0.521055 133 133 61
0.735256 -0.271928 0.929471 221 93 246
0.699389 -0.271531 0.615966 217 93 206
0.792433 -0.201565 -0.997366 229 102 0
0.952841 0.109221 -0.0604473 249 141 120
-0.0210716 0.0404252 -0.554148 125 133 57
0.598502 0.037322 -0.114256 204 132 113
-0.516487 -0.271531 -0.793806 62 93 26
0.865885 0.0963084 -0.7923 238 140 26
-0.828831 0.0617389 -0.999066 22 135 0
0.603987 -0.271531 -0.457022 205 93 69
-0.903349 -0.277586 -0.381483 12 92 79
0.255207 -0.271531 -0.877889 160 93 16
-0.748489 0.0401497 -0.87184 32 133 16
0.953547 -0.256564 -0.473098 249 95 67
0.811524 -0.271531 -0.409041 231 93 75
0.28403 -0.271531 -0.815112 164 93 24
0.419014 0.096893 -0.758414 181 140 31
0.673586 -0.271924 0.888044 213 93 241
0.138339 0.209633 -0.795431 145 154 26
0.952475 0.0917455 -0.546935 249 139 58
-0.95623 -0.2541 -0.465548 6 95 68
0.949345 0.144447 -0.418067 249 146 74
0.00699825 -0.271531 -0.787872 128 93 27
0.70934 0.137308 0.458772 218 145 186
0.952827 0.119608 0.62491 249 143 207
0.578029 0.0376991 0.0509704 201 132 134
-0.0766637 0.0398396 -0.500397 118 133 64
0.438217 0.031566 -0.18448 183 132 104
0.770851 -0.271531 -0.14727 226 93 109
-0.733224 0.094591 -0.726889 34 140 35
-0.538754 -0.271531 -0.832337 59 93 21
-0.27101 -0.271492 -0.974107 93 93 3
0.379578 0.0234475 0.763738 176 130 225
0.33791 -0.132795 0.487551 171 111 190
0.954993 -0.105457 0.142166 249 114 146
