ply
format ascii 1.0
comment Created by Open3D
element vertex 1211
property double x
property double y
property double z
property uchar red
property uchar green
property uchar blue
end_header
0.268761 0.0500399 0.934329 162 134 247
-0.0634061 0.231638 -0.904487 119 157 12
0.699863 0.335313 0.304067 217 170 166
0.590914 0.301532 0.524811 203 166 194
0.766621 0.220008 -0.492539 225 156 65
0.12881 -0.365252 -0.863249 144 81 17
-0.591095 0.375207 0.397962 52 175 178
-0.868458 0.195635 -0.164203 17 152 107
-0.517555 0.264828 -0.693078 62 161 39
-0.928417 -0.152199 0.28551 9 108 164
0.256502 0.250859 -0.867795 160 159 17
0.442563 0.387527 -0.540932 184 177 59
-0.535135 0.213014 0.718257 59 155 219
0.263605 -0.177453 -0.966408 161 105 4
-0.766554 -0.316055 0.498311 30 87 191
-0.67182 0.38192 -0.130598 42 176 111
-0.721002 0.364679 -0.163066 36 174 107
0.860632 -0.273895 -0.458336 237 93 69
-0.668184 -0.0648782 0.720355 42 119 219
0.200479 0.410612 0.586864 153 180 202
0.137856 0.295187 -0.133725 145 165 110
-0.789244 0.33226 0.0285938 27 170 131
-0.708222 0.365945 0.231765 37 174 157
-0.419631 0.0703015 -0.859446 74 136 18
-0.352663 0.379 -0.274665 83 176 92
-0.0702403 0.365527 -0.401006 119 174 76
0.916707 -0.300726 -0.11512 244 89 113
-0.963488 -0.140721 0.0920585 5 110 139
-0.480447 -0.408326 -0.630849 66 75 47
0.769762 -0.401889 0.316057 226 76 168
-0.848324 0.204348 0.30834 19 154 167
0.63027 0.415346 -0.242523 208 180 97
-0.447661 -0.333009 -0.799002 70 85 26
0.186469 -0.424898 0.391445 151 73 177
0.60885 -0.451015 -0.330754 205 70 85
-0.0606215 -0.218471 0.149957 120 100 147
-0.790212 0.28728 0.267037 27 164 162
-0.328902 0.336121 -0.672259 86 170 42
0.557885 -0.421656 -0.555306 199 74 57
-0.27649 0.0076138 -0.935381 92 128 8
0.0883799 0.362218 0.799408 139 174 229
-0.826455 -0.361197 -0.332928 22 81 85
0.643016 0.261744 0.530188 209 161 195
-0.415072 0.410082 0.212274 75 180 155
0.806717 0.082551 0.51147 230 138 193
-0.292213 0.315681 0.0653895 90 168 136
0.355962 -0.101597 0.925702 173 115 246
0.159259 0.401019 0.335853 148 179 170
-0.745332 0.0784468 -0.592356 32 138 52
-0.19876 -0.1176 -0.962048 102 113 5
0.523886 -0.0999846 -0.887215 194 115 14
0.365909 0.441068 -0.138768 174 184 110
0.0934341 0.181618 -0.0667065 139 151 119
-0.0349871 0.261748 0.200017 123 161 153
0.0902149 -0.418701 0.379838 139 74 176
0.630023 -0.143683 0.75973 208 109 224
0.262365 -0.411805 0.191917 161 75 152
-0.0295544 0.00816129 -0.152517 124 129 108
0.5197 0.362918 0.513408 194 174 193
-0.400515 -0.433525 0.312903 76 72 167
0.566061 0.285275 0.585343 200 164 202
-0.591122 0.184956 -0.674731 52 151 41
-0.31666 -0.307379 -0.879071 87 88 15
-0.771438 0.326881 -0.14442 29 169 109
-0.53157 0.410434 -0.173841 60 180 105
0.528044 -0.0853357 0.839907 195 117 235
0.755008 0.0880889 0.596629 224 139 204
-0.182397 -0.43636 0.44412 104 72 184
0.404912 -0.432923 0.487534 179 72 190
-0.652799 0.342881 0.40416 44 171 179
0.579163 0.386363 0.123294 201 177 143
-0.179023 0.364142 -0.675405 105 174 41
0.851021 0.0282314 0.433139 236 131 183
0.644947 0.360834 0.137417 210 174 145
-0.0902467 0.27596 -0.859455 116 163 18
-0.292468 -0.454226 -0.448553 90 70 70
-0.12938 -0.442413 0.547547 111 71 197
0.692423 0.295645 0.377184 216 165 176
0.627592 0.00323844 0.745076 208 128 222
0.970087 -0.0762921 -0.0780575 251 118 118
-0.883201 0.197515 0.00206893 15 153 128
-0.223121 -0.214264 0.966576 99 100 251
0.134301 -0.383657 0.868507 145 79 238
-0.088145 -0.341488 -0.241631 116 84 97
0.337597 0.409961 -0.502978 171 180 63
-0.613662 0.0818565 -0.724462 49 138 35
0.271041 0.432515 0.36992 162 183 175
-0.468725 0.367523 0.61709 68 174 206
0.748151 -0.422511 -0.000860755 223 74 127
-0.128349 -0.215582 -0.139413 111 100 110
-0.850482 -0.386134 -0.0951442 19 78 115
0.684007 0.0924717 -0.724172 215 139 35
-0.620159 -0.159592 0.759881 48 107 224
0.800875 0.195344 -0.470934 230 152 67
-0.161109 0.354967 0.789018 107 173 228
-0.308423 0.344916 -0.180869 88 171 104
0.734955 0.179375 0.537705 221 150 196
-0.0565996 -0.394232 0.307066 120 77 167
0.833581 0.0988397 0.443074 234 140 184
0.0588369 0.407363 0.38806 135 179 177
-0.470237 -0.418963 -0.601089 68 74 51
0.815058 -0.136058 0.529071 231 110 195
-0.44725 -0.415449 0.66305 70 75 212
0.246028 -0.433045 0.453333 159 72 185
0.260032 0.408937 -0.465512 161 180 68
0.73436 -0.196403 0.630091 221 102 208
-0.470096 0.396629 0.0987227 68 178 140
-0.172094 0.243677 -0.885125 106 159 15
-0.597757 0.397503 0.173343 51 178 150
-0.534582 -0.440411 0.104802 59 71 141
-0.943904 -0.167314 -0.220246 7 106 99
-0.204049 0.408403 0.332694 101 180 170
0.022844 0.354225 0.290126 130 173 164
0.0861456 -0.04647 0.990215 138 122 254
-0.721309 -0.416042 0.187041 36 74 151
-0.454579 -0.381075 0.737329 70 79 222
-0.632124 -0.373464 0.58307 47 80 202
-0.162841 -0.430033 -0.384834 107 73 78
-0.340692 -0.423984 -0.63746 84 73 46
0.367103 -0.43622 0.140665 174 72 145
0.623472 -0.0346368 -0.819971 207 123 23
0.936866 -0.0319901 -0.324742 247 123 86
0.439537 0.190501 0.797097 184 152 229
-0.652069 0.386248 -0.010952 44 177 126
-0.278773 -0.408552 -0.218188 92 75 100
-0.774861 0.264716 -0.303537 29 161 89
0.483983 0.349988 0.596052 189 172 203
-0.365654 0.39709 0.202203 81 178 153
0.198174 -0.430049 -0.628695 153 73 47
0.49363 0.00615027 -0.888485 190 128 14
0.116705 -0.436274 0.664774 142 72 212
0.687548 0.371111 0.00451582 215 175 128
-0.443327 -0.447633 -0.137919 71 70 110
-0.262196 0.232484 -0.0504575 94 157 121
0.310565 -0.434057 -0.120651 167 72 112
-0.0907417 0.341741 -0.750967 116 171 32
-0.774351 -0.39934 0.20416 29 77 154
-0.624793 0.225192 -0.606883 48 156 50
-0.195306 0.302621 -0.256741 103 166 95
-0.340346 -0.42463 -0.0324376 84 73 123
0.008713 0.101652 0.964307 129 140 250
-0.0948647 -0.358717 -0.880444 115 82 15
0.514354 0.379133 0.368785 193 176 175
-0.89844 -0.119909 -0.38556 13 112 78
-0.0468999 0.452532 0.545412 122 185 197
-0.0635689 -0.375128 -0.286084 119 80 91
0.887816 -0.0634858 -0.501394 241 119 64
-0.337139 0.0563658 -0.900308 85 135 13
-0.047534 -0.0267504 -0.1619 121 124 107
0.348841 0.422564 -0.223476 172 181 99
-0.124134 0.176761 0.118763 112 150 143
0.12139 0.400233 -0.421082 143 179 74
0.737491 0.334961 -0.167631 222 170 106
0.282424 0.336227 0.762525 164 170 225
-0.25666 -0.0396791 0.960135 95 122 250
0.852689 0.281127 0.0738803 236 163 137
0.656262 0.359801 -0.424722 211 173 73
0.350862 -0.0139005 0.919329 172 126 245
0.299095 -0.431737 -0.61826 166 72 49
-0.514902 0.366041 0.572649 62 174 201
0.708104 0.0241644 0.647727 218 131 210
-0.169457 -0.366162 -0.857965 106 81 18
0.456182 -0.452333 -0.278588 186 70 92
0.559896 -0.453726 -0.154311 199 70 108
-0.190884 0.418699 0.662355 103 181 212
-0.144758 0.25452 0.869314 109 160 238
-0.529737 -0.425377 0.482951 60 73 189
-0.546948 -0.427078 -0.500904 58 73 64
0.789056 0.238825 0.319751 228 158 168
0.088438 0.186563 0.0557327 139 151 135
-0.55042 0.249782 -0.677844 57 159 41
0.571614 -0.388274 0.64291 200 78 209
0.469576 -0.404242 -0.678898 187 76 41
-0.31843 0.0428658 0.919918 87 133 245
-0.230707 -0.439237 0.490619 98 71 190
0.956473 -0.13856 -0.241887 249 110 97
-0.66842 -0.400511 -0.474585 42 76 67
0.307095 -0.433646 -0.0396719 167 72 122
0.346285 0.353383 0.680348 172 173 214
-0.880732 -0.274081 0.317854 15 93 168
-0.396699 0.39276 0.621287 77 178 207
0.897031 -0.0156756 0.351837 242 126 172
-0.726651 0.109985 -0.592147 35 142 52
0.945852 -0.235954 0.0958983 248 97 140
-0.347459 0.244562 -0.807942 83 159 24
-0.594939 -0.221536 0.767584 52 99 225
-0.0379535 -0.43671 0.483949 123 72 189
-0.834313 -0.219391 0.474136 21 100 188
0.230735 0.376918 -0.651924 157 176 44
-0.495715 -0.207512 0.844025 64 101 235
-0.609003 0.374392 -0.368912 50 175 80
-0.125428 0.00145565 0.0722325 112 128 137
-0.850909 -0.0387119 0.486846 19 123 190
-0.94529 -0.110772 0.246471 7 113 159
-0.382596 -0.10287 -0.903754 79 114 12
-0.225428 -0.444867 -0.533434 99 71 59
-0.436893 0.41865 0.333522 72 181 170
0.394445 0.307778 -0.761844 178 167 30
0.570268 -0.368833 -0.695515 200 80 39
0.818104 0.272532 0.0420204 232 162 133
-0.206543 0.351571 -0.771157 101 172 29
-0.865767 -0.35156 -0.261043 17 83 94
-0.387688 -0.435196 0.278753 78 72 163
-0.704395 -0.429046 -0.220422 38 73 99
0.649715 0.31848 0.378105 210 168 176
0.219277 -0.421466 -0.186628 155 74 104
-0.130017 0.016702 -0.969084 111 130 4
0.225449 0.401993 -0.273375 156 179 93
0.218275 -0.393313 0.821351 155 77 232
-0.39074 0.367438 0.0297705 78 174 131
-0.835494 -0.379282 -0.242786 21 79 97
-0.564853 -0.431338 0.294837 55 73 165
0.392681 0.377517 -0.608012 178 176 50
0.0113119 0.152972 -0.943933 129 147 7
-1.79573e-05 -0.110062 -0.993361 127 113 1
-0.260351 0.430381 0.570129 94 182 200
0.461978 0.0481706 -0.893039 186 134 14
-0.602199 -0.398665 0.553391 51 77 198
0.439518 -0.360661 -0.785168 184 82 27
-0.556041 -0.311955 -0.749417 57 88 32
0.641405 -0.441993 -0.309221 209 71 88
-0.331132 -0.434084 0.307391 85 72 167
-0.459787 0.362857 -0.536516 69 174 59
0.260858 -0.424869 0.724313 161 73 220
-0.664248 0.396232 -0.242759 43 178 97
-0.501072 -0.432577 0.287082 64 72 164
0.870447 0.229109 -0.176857 238 157 105
-0.0100793 -0.439158 0.550005 126 72 198
0.656838 -0.42709 0.391171 211 73 177
-0.855003 -0.278853 0.375038 18 92 175
0.766207 -0.355819 -0.483069 225 82 66
-0.897245 0.133071 -0.214198 13 144 100
-0.223608 0.311403 0.165742 99 167 149
0.114077 0.416522 -0.465721 142 181 68
-0.00302272 -0.25688 0.167759 127 95 149
-0.918335 -0.102792 -0.336758 10 114 85
-0.7864 0.108893 0.515527 27 141 193
0.434163 0.0507101 0.868675 183 134 238
-0.444016 0.425829 0.549557 71 182 198
0.602278 0.385948 0.0744569 204 177 137
-0.380289 0.253606 0.77842 79 160 227
-0.0620215 0.273377 -0.287783 120 162 91
0.386278 0.0199178 0.898503 177 130 242
-0.0479094 0.197024 0.164613 121 153 148
0.950629 -0.0597667 -0.270633 249 120 93
-0.439837 -0.371102 0.765826 71 80 225
0.647082 -0.130608 -0.804292 210 111 25
-0.966237 -0.0396141 0.0953885 4 122 140
-0.364574 0.371873 -0.546064 81 175 58
-0.556873 0.40103 -0.358802 56 179 82
-0.730917 0.19864 -0.497519 34 153 64
0.406399 0.224369 0.812654 179 156 231
0.817475 0.0183165 0.500405 232 130 191
0.86678 0.145899 -0.369655 238 146 80
0.6591 -0.205091 0.717673 212 101 219
0.331776 0.404031 0.223678 170 179 156
0.093691 0.326875 -0.779829 139 169 28
-0.165764 0.436321 0.47046 106 183 187
-0.935827 0.103687 -0.00944395 8 141 126
-0.178047 0.198728 0.900451 105 153 242
-0.708515 0.322403 0.353689 37 169 173
-0.172036 0.392502 -0.639927 106 178 46
-0.289175 0.0693831 0.92459 91 136 245
-0.789229 0.15906 -0.452979 27 148 70
0.877089 -0.346794 0.00357617 239 83 128
-0.801855 0.304498 -0.0957393 25 166 115
0.0374387 0.44024 0.625709 132 184 207
0.282574 0.164715 0.886109 164 149 240
0.231555 0.206499 -0.907279 157 154 12
-0.452655 0.411974 0.23504 70 180 157
0.773426 0.274683 0.270519 226 163 162
-0.305011 -0.376919 0.830181 89 79 233
-0.875574 -0.0166202 -0.428518 16 125 73
-0.793863 -0.080299 0.577988 26 117 201
-0.729286 0.348023 0.188012 35 172 151
0.545898 -0.453521 -0.223276 197 70 99
-0.55243 0.397717 0.33019 57 178 170
-0.862198 0.0268521 0.442451 18 131 184
-0.169502 -0.188662 0.98057 106 103 253
0.679583 0.337118 0.216512 214 170 155
0.503424 0.208804 0.76588 192 154 225
-0.160293 -0.439591 -0.583151 107 71 53
0.644355 0.136013 -0.733306 210 145 34
0.0743824 0.0814177 -0.970859 137 138 4
0.296548 0.396369 0.0439561 165 178 133
-0.888303 -0.273378 -0.355771 14 93 82
-0.0637161 0.185062 -0.93136 119 151 9
0.46086 0.405195 0.197689 186 179 153
0.652706 0.367008 0.196254 211 174 153
0.150714 0.392409 -0.396064 147 178 77
-0.123441 -0.435467 0.73064 112 72 221
0.123367 -0.409698 -0.757074 143 75 31
0.491998 0.291056 0.668245 190 165 213
-0.865669 0.0864678 -0.375954 17 139 80
0.63032 -0.440768 0.326147 208 71 169
-0.416882 -0.390224 -0.719072 74 78 36
0.905584 -0.172654 -0.43255 243 105 72
-0.487544 -0.431322 0.387664 65 73 177
0.389223 0.40741 0.205882 177 179 154
-0.501824 0.387588 0.509952 64 177 193
0.565337 0.0854736 0.772481 200 138 226
0.445263 -0.406969 0.677777 184 76 214
-0.255697 -0.439393 0.665129 95 71 212
-0.500233 0.399085 -0.221328 64 178 99
0.897537 -0.30247 -0.274327 242 89 93
0.0898868 0.309415 -0.239247 139 167 97
-0.456263 -0.435948 0.219561 69 72 155
0.81078 -0.248954 0.504919 231 96 192
-0.666939 -0.05717 -0.718097 42 120 36
0.754409 0.208514 0.467962 224 154 187
-0.775838 -0.273391 -0.564607 29 93 56
0.507697 -0.370165 -0.73544 192 80 34
0.149516 0.301057 -0.0595625 147 166 120
0.167943 -0.388835 -0.00690809 149 78 127
-0.00635692 -0.411594 0.356944 127 75 173
0.534805 -0.458119 0.0992609 196 69 140
-0.594417 0.081795 0.741782 52 138 222
0.791997 0.30332 -0.181847 228 166 104
0.45595 -0.452577 0.0886058 186 70 139
-0.0135412 0.271612 -0.863348 126 162 17
0.0596343 0.131222 0.0963592 135 144 140
-0.910364 0.150474 -0.0433219 11 147 122
-0.153963 0.122594 -0.931085 108 143 9
0.644381 -0.445666 0.266551 210 71 161
0.366383 0.34444 -0.706148 174 171 37
0.0845851 0.420537 0.445138 138 181 184
-0.679426 0.111162 -0.644071 41 142 45
0.734933 0.321375 0.0999201 221 168 140
-0.147829 0.301445 0.836679 109 166 234
-0.445954 -0.360802 -0.758461 71 81 31
0.0631265 0.018143 0.984153 136 130 253
-0.853386 0.118098 -0.371071 19 143 80
0.873302 0.000355485 -0.512203 239 128 62
0.195504 -0.422868 -0.276325 152 74 92
0.0751781 -0.315426 -0.0475363 137 87 121
0.227036 0.260383 -0.860156 156 161 18
-0.464533 0.348672 -0.576075 68 172 54
-0.338189 0.368849 -0.224227 84 175 99
-0.304756 0.309335 -0.0388443 89 167 123
-0.741019 -0.415509 0.132626 33 75 144
-0.710127 -0.416605 0.217058 37 74 155
0.751099 -0.215068 -0.675293 223 100 41
0.845233 0.217616 0.203975 235 155 154
-0.581553 -0.433333 0.209154 53 72 154
0.0370094 0.147918 0.142493 132 146 146
-0.74834 0.309179 0.306772 32 167 167
-0.690374 0.376085 -0.173952 39 175 105
0.861809 -0.337893 -0.289268 237 84 91
0.389074 -0.137969 0.913149 177 110 244
0.826218 -0.0329144 -0.610206 233 123 50
-0.141344 -0.43173 -0.431513 109 72 72
-0.076125 -0.378945 0.269345 118 79 162
-0.285575 -0.444538 0.588907 91 71 203
0.393995 0.41749 -0.0906502 178 181 116
0.925886 0.126143 0.0234744 246 144 130
0.605184 -0.341121 0.689133 205 84 215
0.135778 0.416427 0.410134 145 181 180
-0.444745 0.0288259 -0.859537 71 131 18
0.836515 -0.384555 0.0465839 234 78 133
0.828152 -0.308778 0.430021 233 88 182
-0.611946 0.286491 0.605066 49 164 205
0.794065 -0.0726764 0.561704 229 118 199
0.17134 0.32913 -0.0765454 149 169 118
-0.343443 0.431894 0.420269 84 183 181
-0.783005 -0.409547 0.0834918 28 75 138
-0.191253 0.105146 -0.0257737 103 141 124
0.0650101 0.165866 -0.102892 136 149 114
0.718213 0.304977 0.272218 219 166 162
0.122415 0.310408 0.848803 143 167 236
-0.8253 -0.189276 0.507439 22 103 192
-0.167142 0.054631 0.963071 106 134 250
0.0790549 -0.441332 -0.535292 138 71 59
0.105551 0.230199 -0.0967552 141 157 115
0.905242 0.17868 -0.128983 243 150 111
0.614197 0.327858 0.408651 206 169 180
-0.685419 0.361717 -0.295071 40 174 90
0.341552 0.337527 0.737828 171 171 222
0.518845 -0.315831 0.781402 194 87 227
0.434003 -0.45091 -0.418678 183 70 74
-0.651709 0.0824153 -0.690325 44 138 39
0.632829 -0.422295 0.454846 208 74 185
0.234933 0.100798 0.929067 157 140 246
-0.0683443 -0.278455 -0.197914 119 92 102
-0.331443 0.39024 -0.433065 85 177 72
0.146295 -0.323338 0.937573 146 86 247
-0.877972 -0.0466839 0.439006 16 122 183
0.270592 -0.430233 0.665348 162 73 212
-0.526008 -0.452381 -0.321304 60 70 87
-0.54086 0.299312 0.643236 59 166 210
-0.15506 -0.43896 0.698566 108 72 217
0.462213 0.409769 -0.439934 186 180 71
0.824322 -0.381373 -0.111731 233 79 113
0.690262 0.259063 -0.564385 216 161 56
0.706506 0.227185 0.508647 218 156 192
-0.332361 -0.0917817 -0.923771 85 116 10
-0.789412 0.271633 0.317031 27 162 168
-0.196196 -0.335272 -0.0439276 102 85 122
-0.364556 -0.261416 0.90482 81 94 243
-0.423562 -0.434373 0.542473 73 72 197
0.153057 -0.4285 -0.64993 147 73 45
-0.823274 0.279564 0.167171 23 163 149
0.259361 0.358227 -0.701153 161 173 38
0.604865 -0.152078 0.784379 205 108 228
-0.3603 -0.427754 -0.0720337 82 73 118
0.707987 -0.397628 0.450232 218 77 185
-0.0469478 -0.363485 0.243386 122 81 159
-0.769 0.0890277 -0.550449 29 139 57
-0.478951 0.395724 -0.334684 66 178 85
-0.324623 -0.270205 -0.895586 86 93 13
-0.74785 -0.405093 0.245777 32 76 159
-0.260633 -0.278629 -0.91262 94 92 11
-0.288518 0.145704 0.895067 91 146 242
0.383814 0.328342 0.706222 176 169 218
0.552438 0.337502 -0.625205 198 171 48
0.794166 -0.360705 0.402862 229 82 179
0.176279 -0.387774 0.19873 150 78 153
-0.346259 -0.391267 0.780686 83 78 227
0.838687 -0.380245 -0.014979 234 79 126
0.59122 0.421306 -0.106008 203 181 114
0.6743 0.0328929 0.685711 213 132 215
0.424148 0.292674 0.733859 182 165 221
0.510896 -0.453918 -0.0981066 193 70 115
0.315205 -0.401738 -0.74167 168 76 33
-0.0690687 0.159206 -0.204847 119 148 101
0.937081 -0.159556 0.246606 247 107 159
-0.0980496 -0.243969 -0.959166 115 96 5
0.146914 -0.441238 -0.461327 146 71 69
0.287206 -0.26719 -0.92492 164 93 10
-0.693768 0.379498 0.0328834 39 176 132
0.797149 0.292971 -0.286338 229 165 91
0.484252 0.209996 -0.794432 189 154 26
-0.479087 0.393437 0.0589728 66 178 135
-0.617667 -0.339867 0.66604 49 84 212
-0.847827 0.0155403 0.472453 19 129 188
0.956843 -0.187422 -0.171954 249 104 106
-0.733936 0.334366 -0.267186 34 170 93
0.920233 -0.298156 -0.00528718 245 89 127
0.229227 0.365316 0.726205 157 174 220
-0.118281 -0.38687 -0.831822 112 78 21
0.0732139 0.323424 -0.279767 137 169 92
0.533765 -0.453369 -0.275611 196 70 92
0.287791 -0.414442 -0.699004 164 75 38
0.758956 0.307157 -0.386006 224 167 78
-0.353025 0.410209 0.273835 82 180 162
-0.725523 0.0348186 -0.634359 35 132 47
0.00395758 -0.378408 -0.277795 128 79 92
-0.91775 0.112776 -0.157159 10 142 107
0.440872 0.284811 -0.77198 184 164 29
-0.158959 -0.316883 0.0915815 107 87 139
0.0265121 -0.270363 -0.137212 131 93 110
0.762849 0.31716 -0.0306198 225 168 124
-0.732497 0.28417 -0.352976 34 164 82
-0.632581 -0.398258 -0.524497 47 77 61
0.841573 -0.0527634 -0.585273 235 121 53
-0.267559 -0.41861 0.749423 93 74 223
0.0389412 -0.439942 -0.47944 132 71 66
0.123149 0.114702 -0.957872 143 142 5
0.663744 0.378157 -0.209578 212 176 101
-0.096273 0.270524 0.186976 115 162 151
-0.379514 -0.357431 -0.799391 79 82 26
0.44653 -0.295588 0.842586 184 90 235
-0.580012 -0.450422 -0.1774 54 70 105
0.0511008 0.136741 0.94926 134 145 249
-0.438104 -0.0783586 0.884837 72 118 240
-0.72179 -0.406844 0.297468 35 76 165
0.874155 0.0717373 -0.451355 239 137 70
0.292538 -0.262448 0.929658 165 94 246
0.830512 -0.316781 -0.459601 233 87 69
0.69953 0.356328 0.165953 217 173 149
-0.0023575 -0.0488382 -0.993081 127 121 1
0.168296 0.346378 -0.16502 149 172 106
-0.265124 0.390842 -0.527421 94 177 60
0.605667 -0.43039 0.42623 205 73 182
0.175891 -0.435529 0.584566 150 72 202
0.5023 0.403372 -0.378412 192 179 79
0.294249 0.389287 -0.688705 165 177 40
0.760703 -0.408427 -0.170883 224 75 106
-0.277966 0.373637 -0.592975 92 175 52
0.0926609 -0.377557 -0.206087 139 79 101
0.748326 0.343361 -0.129706 223 171 111
-0.0611596 0.138225 -0.940663 120 145 8
0.675647 -0.437414 0.282191 214 72 163
-0.649665 0.0351604 -0.711607 45 132 37
-0.0938824 -0.422822 0.793657 116 74 229
0.918403 0.0142421 0.239243 245 129 158
-0.884544 -0.324973 -0.287345 15 86 91
0.627863 -0.381043 -0.618641 208 79 49
-0.4553 0.19078 -0.77258 69 152 29
-0.00480187 -0.169089 -0.985888 127 106 2
0.758775 0.182157 0.496797 224 151 191
0.465014 -0.452268 -0.0667717 187 70 119
0.1113 -0.327574 0.0600672 142 86 135
-0.868276 -0.285088 -0.395102 17 91 77
0.306081 -0.433209 0.447738 167 72 185
-0.115123 0.392982 -0.500282 113 178 64
-0.827277 0.111892 -0.434465 22 142 72
0.144174 0.384375 -0.631031 146 177 47
0.189676 0.347193 0.180531 152 172 151
0.0642507 -0.244499 0.0488944 136 96 134
0.116484 -0.392084 -0.226836 142 78 99
-0.218264 0.16576 0.0360583 100 149 132
-0.464367 -0.247154 -0.841728 68 96 20
0.618706 0.383925 -0.293088 206 176 90
-0.701207 0.324583 -0.361879 38 169 81
-0.402671 -0.316157 0.854907 76 87 237
-0.316741 -0.148651 -0.92594 87 109 9
-0.312852 -0.276971 0.918903 88 92 245
0.0432629 -0.15598 0.0140268 133 108 129
0.420622 0.410143 -0.00218909 181 180 127
-0.708906 -0.240924 -0.66078 37 97 43
0.233674 0.366874 -0.0180275 157 174 125
-0.404693 0.38326 -0.144283 76 176 109
-0.659989 0.357412 -0.409191 43 173 75
-0.465817 -0.0310305 -0.860238 68 124 18
0.525592 0.40432 -0.00638746 195 179 127
0.146776 -0.403954 -0.239685 146 76 97
-0.490348 0.409612 0.334814 65 180 170
-0.518116 -0.421304 0.571291 61 74 200
-0.484126 -0.4318 0.347904 66 72 172
-0.758737 -0.420513 -0.106744 31 74 114
-0.0624617 -0.343945 0.214266 120 84 155
-0.398626 0.392201 0.120369 77 178 143
0.604847 0.132128 0.725371 205 144 220
-0.176136 -0.379547 0.875718 105 79 239
-0.692423 -0.367797 -0.535013 39 81 59
-0.247861 0.372262 0.736905 96 175 221
0.937113 -0.270223 -0.0649358 247 93 119
-0.509697 -0.357092 0.739602 63 82 222
-0.827974 0.0197119 0.505368 22 130 192
-0.624954 -0.401416 0.507979 48 76 192
-0.890207 0.181683 0.094092 14 151 139
-0.820799 -0.375083 -0.300903 23 80 89
0.94196 -0.247236 -0.153417 248 96 108
-0.877344 -0.354344 -0.19913 16 82 102
0.934895 0.0562512 0.000951292 247 135 128
-0.510386 -0.457634 -0.263701 62 69 94
-0.46874 0.416581 -0.298835 68 181 89
0.500644 0.370891 -0.571022 191 175 55
-0.428765 0.34001 -0.698793 73 171 38
0.233495 -0.256674 -0.940546 157 95 8
0.528215 0.292721 -0.706931 195 165 37
0.928066 -0.267645 -0.214381 246 93 100
-0.794684 -0.37974 0.272011 26 79 162
-0.685985 0.393382 0.297843 40 178 165
-0.00628761 0.0926588 -0.152637 127 139 108
0.030211 -0.433338 0.492214 131 72 190
-0.210202 -0.436942 -0.361893 101 72 81
-0.524493 0.255638 0.680072 61 160 214
-0.0812483 0.252422 0.166977 117 160 149
-0.204259 -0.0708794 -0.962189 101 118 5
0.315862 -0.444444 -0.495921 168 71 64
-0.138706 0.437817 0.53225 110 183 195
-0.260409 -0.437007 0.457474 94 72 186
0.402773 0.40594 0.0585658 179 179 135
-0.847715 0.149768 -0.339363 19 147 84
0.757154 -0.264443 -0.632131 224 94 47
-0.290041 -0.441821 -0.553154 91 71 57
0.486038 -0.452407 -0.128707 189 70 111
0.416766 -0.344188 0.810232 181 84 231
0.387745 -0.0590678 0.911093 177 120 244
0.150707 0.248159 -0.884202 147 159 15
-0.610687 -0.320674 0.695856 50 87 216
0.208473 -0.394747 0.0736288 154 77 137
-0.403311 0.235601 -0.783369 76 158 28
-0.760518 -0.327408 -0.523839 31 86 61
0.052396 -0.37079 -0.234307 134 80 98
0.38893 0.350005 0.651547 177 172 211
0.59047 0.364191 0.295164 203 174 165
0.70517 -0.43881 -0.0430387 217 72 122
0.718788 -0.294955 0.603668 219 90 204
0.00353688 -0.000596803 0.990636 128 127 254
-0.475295 0.0426655 0.842061 67 133 235
0.389191 0.404322 0.143345 177 179 146
0.192057 0.418886 0.530178 152 181 195
0.688581 0.359822 -0.206653 215 173 101
0.82801 0.219466 0.261937 233 155 161
-0.0348125 -0.115491 -0.989855 123 113 1
-0.932332 0.107327 -0.0463307 9 141 122
-0.877501 0.190705 0.142155 16 152 146
0.399142 -0.445984 0.0412074 178 71 133
0.90268 -0.140669 0.367393 243 110 174
-0.366701 -0.387624 -0.752012 81 78 32
0.0189867 0.146491 -0.149058 130 146 108
-0.0179704 0.345316 -0.749121 125 172 32
-0.233821 0.4308 0.399789 98 182 178
0.089873 -0.411588 -0.30284 139 75 89
0.183138 -0.379656 0.127918 151 79 144
0.576723 -0.32002 -0.754442 201 87 31
0.859114 -0.34955 0.245154 237 83 159
0.758519 -0.393334 -0.317948 224 77 87
-0.0582364 0.0653299 -0.173708 120 136 105
-0.444634 0.416674 0.38448 71 181 177
-0.583223 0.400771 0.14462 53 179 146
0.245198 -0.0424129 -0.97959 159 122 3
0.463816 0.318151 0.646278 187 168 210
-0.029521 -0.387194 0.882864 124 78 240
0.588978 -0.456927 0.124322 203 69 143
0.0562922 -0.430034 0.757607 135 73 224
-0.582182 -0.444766 -0.344862 53 71 84
-0.103818 -0.398262 -0.80152 114 77 25
-0.904712 0.0793042 -0.271183 12 138 93
0.326403 -0.440474 -0.215883 169 71 100
-0.275891 0.399853 -0.398837 92 178 77
0.174683 0.32789 -0.0139765 150 169 126
-0.232621 0.368946 -0.637508 98 175 46
-0.200701 0.257857 0.127644 102 160 144
0.343748 -0.295373 0.892414 171 90 241
-0.0710416 0.0994937 -0.185081 118 140 104
0.866243 -0.255999 0.402616 238 95 179
-0.281748 0.342597 -0.684175 92 171 40
-0.928843 -0.0211575 0.297663 9 125 165
0.0764237 -0.437666 0.625178 137 72 207
0.247411 -0.403959 0.157604 159 76 148
0.292999 0.41069 -0.192614 165 180 103
-0.566113 -0.230278 -0.783865 55 98 28
0.0131051 -0.0681891 -0.0791266 129 119 117
0.451396 0.432524 -0.0776154 185 183 118
0.528035 -0.256999 0.817377 195 95 232
0.382375 0.240745 -0.846204 176 158 20
0.440815 0.184535 -0.834844 184 151 21
0.785154 -0.324501 -0.526193 228 86 60
-0.326989 -0.419672 -0.665267 86 74 43
-0.42851 0.102516 0.846748 73 141 235
0.504009 -0.452345 0.270726 192 70 162
0.378704 0.214905 -0.870495 176 155 17
0.0661887 -0.437144 -0.404416 136 72 76
-0.418425 -0.439513 0.0529197 74 71 134
-0.454589 0.38345 0.593155 70 176 203
-0.761711 -0.345666 0.446896 30 83 184
-0.21238 0.380813 -0.407601 100 176 76
0.713467 -0.363727 -0.547931 218 81 58
-0.0455658 -0.33584 -0.233946 122 85 98
0.312607 0.393435 0.138 167 178 145
0.943398 0.0383775 -0.103884 248 132 114
-0.271262 0.399695 0.684905 93 178 215
-0.200259 0.428717 0.612946 102 182 206
-0.0785227 0.022279 -0.977368 117 130 3
0.542257 0.248422 0.679714 197 159 214
-0.136644 -0.178734 -0.0811069 110 105 117
-0.401092 0.0743653 0.874179 76 137 239
0.633906 0.213984 0.622984 208 155 207
-0.33361 0.293649 0.759647 85 165 224
-0.327793 0.425911 0.538871 86 182 196
-0.252769 0.0329804 0.94766 95 132 248
0.479699 -0.333977 0.789059 189 85 228
-0.328964 0.388658 -0.370418 86 177 80
-0.958812 0.0235247 0.0479777 5 130 134
0.575922 0.400372 -0.416255 201 179 74
-0.128993 -0.177094 0.0302337 111 105 131
-0.677016 0.172307 -0.597781 41 149 51
-0.242915 0.338713 -0.266241 97 171 94
0.176117 0.402004 -0.453782 150 179 70
0.957502 -0.206505 0.000309926 250 101 128
0.0745631 -0.25731 0.97684 137 95 252
-0.308007 -0.410126 0.0139126 88 75 129
0.643756 -0.412061 0.487749 210 75 190
0.790812 -0.386469 0.343188 228 78 171
-0.615561 -0.00761915 -0.756355 49 127 31
0.713092 -0.422237 -0.237335 218 74 97
-0.581939 -0.25001 0.769539 53 96 226
0.899423 -0.319169 0.155348 242 87 147
-0.848982 -0.0757378 0.492517 19 118 190
-0.561223 0.327217 0.598199 56 169 204
-0.306291 0.299773 -0.765533 88 166 30
0.194105 0.366573 0.225377 152 174 156
-0.0335855 -0.439507 0.645666 123 71 210
0.15467 -0.407994 0.816891 147 75 232
0.382185 0.299514 0.757318 176 166 224
0.965979 -0.0866756 0.0370196 251 116 132
-0.968765 -0.101291 -0.0563781 4 115 120
0.908189 -0.0781082 -0.447035 243 118 71
0.116859 -0.437296 -0.569032 142 72 55
0.949862 0.0135922 -0.0267623 249 129 124
0.0753145 0.197615 0.135133 137 153 145
0.117444 0.34799 -0.266382 142 172 94
0.0565219 0.205973 0.159944 135 154 148
-0.551397 0.441693 0.233977 57 184 157
0.611585 0.380618 -0.373826 205 176 80
-0.366819 0.376826 0.127935 81 176 144
-0.198345 -0.362113 0.106747 102 81 141
0.771851 -0.417544 0.182876 226 74 151
0.0016189 0.32959 -0.779093 128 170 28
0.5806 -0.454124 -0.113583 202 70 113
0.714348 -0.260893 -0.686961 219 94 40
0.378984 0.40739 -0.465628 176 179 68
0.127094 0.420681 0.578495 144 181 201
-0.432183 0.394514 -0.338282 72 178 84
0.92333 -0.230495 -0.322338 245 98 86
0.830579 -0.387146 0.193951 233 78 152
0.823921 0.251319 -0.344295 233 160 84
0.769219 0.172948 -0.565319 226 150 55
0.264899 -0.351924 -0.855097 161 83 18
0.647433 -0.089435 -0.806899 210 116 25
-0.841884 0.171602 -0.317877 20 149 87
0.90317 0.0811996 0.212579 243 138 155
0.386276 -0.350609 -0.821494 177 83 23
-0.310673 0.162998 0.878046 88 148 239
0.11591 0.362619 -0.700131 142 174 38
0.785913 -0.268095 0.530036 228 93 195
-0.420925 -0.28666 0.863393 74 91 238
-0.224657 0.0244676 -0.94628 99 131 7
-0.407373 -0.450468 -0.216663 76 70 100
-0.659387 0.358537 0.327064 43 173 169
-0.643892 0.233691 -0.571732 45 157 55
0.497572 0.156999 -0.824797 191 148 22
-0.0699296 0.389267 0.786626 119 177 228
0.790961 -0.14587 0.564089 228 109 199
0.897093 0.103608 -0.320319 242 141 87
-0.0920603 0.0337861 0.979086 116 132 252
0.374243 0.42421 -0.178039 175 182 105
-0.567277 -0.280336 0.767042 55 92 225
0.0504154 -0.439686 -0.564531 134 71 56
0.0820501 -0.299232 0.116032 138 89 142
-0.159341 -0.369137 -0.245855 107 80 96
0.879116 0.0751303 0.327556 240 137 169
0.0488691 -0.206562 -0.00903094 134 101 126
0.837246 0.241185 0.141651 234 158 146
0.836642 0.183135 -0.394595 234 151 77
0.0997186 0.229407 0.108068 140 157 141
0.531732 -0.399391 0.645229 195 77 210
-0.125263 -0.0972031 -0.0122111 112 115 126
-0.136108 -0.394249 0.283835 110 77 164
-0.455144 0.240399 0.747864 69 158 223
0.250437 -0.109736 -0.979924 159 114 3
-0.723633 0.287485 0.430251 35 164 182
-0.174903 -0.432179 0.406826 105 72 179
-0.707819 -0.376216 -0.496667 37 80 64
-0.876119 0.129112 0.312621 16 144 167
0.66231 0.384131 -0.243099 212 176 97
-0.858917 0.0726835 -0.408215 18 137 75
0.146878 0.42332 0.462448 146 181 186
-0.199062 0.126472 0.0175056 102 144 130
0.817473 0.280628 -0.189824 232 163 103
0.903552 -0.282215 -0.309563 243 92 88
-0.137893 -0.191955 -0.0342749 110 103 123
0.0633136 0.315333 0.232075 136 168 157
-0.530964 0.408862 0.185336 60 180 151
0.696513 -0.102685 0.69323 216 114 216
0.36019 0.396945 -0.538496 173 178 59
0.108553 0.38717 0.726239 141 177 220
0.712687 -0.437961 0.0363933 218 72 132
0.24072 -0.416279 -0.0700888 158 74 119
0.887485 -0.337867 -0.0313338 241 84 124
0.0582017 -0.440642 -0.504874 135 71 63
0.32196 0.413605 0.194136 169 180 152
-0.0682847 -0.368252 0.908652 119 81 243
-0.908396 0.155451 0.0367887 12 147 132
-0.311373 -0.412231 0.0488108 88 75 134
0.483035 -0.452781 -0.227309 189 70 99
-0.684148 -0.366294 0.527424 40 81 195
0.837862 -0.261905 0.456644 234 94 186
-0.84641 -0.333029 -0.370359 20 85 80
-0.852981 0.230643 -0.0796418 19 157 117
-0.910907 0.0484364 0.311318 11 134 167
0.886034 0.177642 0.165114 240 150 149
0.501895 0.402967 0.0885932 191 179 139
0.0141834 0.321196 -0.318282 129 168 87
-0.129011 -0.0472788 -0.122021 111 121 112
0.182702 0.395158 -0.331869 151 178 85
0.282246 -0.433423 0.400331 163 72 179
0.156375 -0.368143 0.0687371 147 81 136
-0.606139 -0.294895 -0.726578 50 90 35
0.704683 0.126022 -0.684066 217 144 40
0.0115378 -0.0077248 0.1221 129 127 143
0.591626 0.18397 0.701427 203 151 217
-0.791615 -0.294364 0.483238 27 90 189
-0.42994 -0.454053 -0.401257 73 70 76
-0.589906 -0.439812 0.0630062 52 71 136
0.884412 -0.217759 -0.456333 240 100 69
0.627442 -0.330103 -0.701266 207 85 38
-0.17245 -0.339641 -0.195415 106 84 103
0.919779 0.157586 0.0132867 245 148 129
0.0969084 0.396762 -0.535307 140 178 59
0.00876288 0.430728 0.571153 129 182 200
0.356211 -0.0876663 -0.95441 173 116 6
0.409129 -0.169476 -0.929268 180 106 9
0.873178 -0.186251 0.423052 239 104 181
-0.827557 0.19937 -0.306841 22 153 88
-0.334303 -0.45251 -0.374836 85 70 80
-0.490021 -0.428726 0.516086 65 73 193
0.444426 -0.402956 -0.695389 184 76 39
-0.0732745 0.355039 -0.718683 118 173 36
0.79615 -0.387894 -0.203887 229 78 102
-0.0683156 -0.406386 0.334522 119 76 170
0.547255 0.406514 -0.213205 197 179 100
-0.0725962 0.40496 -0.512323 118 179 62
-0.658633 -0.438449 -0.239828 44 72 97
-0.590833 0.325419 0.566266 52 169 200
-0.0431149 0.373325 -0.669048 122 175 42
-0.697257 -0.23807 0.661885 39 97 212
0.107382 -0.441098 -0.467614 141 71 68
-0.468429 -0.348467 0.780284 68 83 227
-0.332021 -0.424265 0.705862 85 73 217
0.648606 -0.452919 0.0323812 210 70 132
-0.399335 0.172701 0.829073 77 150 233
-0.365141 -0.447909 -0.285779 81 70 91
0.210256 -0.432377 0.678965 154 72 214
-0.358221 -0.43413 0.378036 82 72 176
-0.0723381 -0.433051 -0.650879 118 72 45
0.565115 0.0633399 -0.830459 200 136 22
-0.109566 -0.238221 -0.172547 114 97 106
-0.0884223 -0.441825 0.64909 116 71 210
-0.776213 0.024273 -0.576008 29 131 54
-0.236791 -0.18439 0.968114 97 104 251
-0.807883 0.31317 0.000581398 24 167 128
0.631223 0.166828 -0.722405 208 149 35
-0.62371 0.185845 0.659999 48 151 212
0.638207 -0.18385 0.745948 209 104 223
0.588636 0.243091 0.636267 203 158 209
0.1831 -0.136119 -0.989915 151 110 1
-0.072788 -0.120112 -0.168921 118 112 106
0.170264 -0.24494 -0.957093 149 96 5
-0.569591 -0.422026 0.468813 55 74 187
-0.956088 0.014013 0.130028 6 129 144
0.156372 0.365195 0.756261 147 174 224
0.542179 -0.153166 0.828912 197 108 233
-0.705941 -0.395706 -0.439883 37 77 71
-0.116291 -0.0688446 0.0618028 113 119 135
-0.967623 -0.0362463 0.0568785 4 123 135
-0.859353 -0.204405 0.436063 18 101 183
-0.305276 -0.436217 0.662388 89 72 212
-0.353208 -0.210673 -0.901812 82 101 13
-0.799631 0.238764 -0.295764 26 158 90
0.428018 -0.102279 -0.932005 182 114 9
-0.204946 -0.346011 -0.122411 101 83 112
-0.793111 0.26693 -0.2375 26 162 97
0.601795 -0.396789 -0.599082 204 77 51
0.603785 -0.4462 0.304321 204 71 166
0.432345 0.419107 0.257123 183 181 160
-0.793132 0.302314 0.204637 26 166 154
-0.291701 0.0392147 -0.923067 90 132 10
-0.647633 -0.435195 0.0377792 45 72 132
-0.0547192 -0.0421286 0.1389 121 122 145
0.609617 -0.254349 0.753905 205 95 224
-0.17412 -0.407154 0.820349 105 76 232
-0.467019 -0.456235 -0.226263 68 69 99
0.141199 0.289277 0.0186008 146 164 130
-0.704975 0.130623 -0.602352 38 144 51
-0.0879238 0.00796579 0.121973 116 129 143
-0.14308 0.15741 0.930876 109 148 246
0.188074 0.389956 -0.670796 151 177 42
-0.247687 0.250899 0.0897266 96 159 139
0.403619 0.329631 -0.72256 179 170 35
0.684139 -0.352676 0.57927 215 83 201
-0.187453 -0.443379 -0.549765 104 71 57
0.603651 -0.00514213 -0.825279 204 127 22
0.0574811 -0.407723 0.343639 135 76 171
-0.119924 -0.186656 -0.14849 112 104 109
0.461923 -0.0747076 -0.915523 186 118 11
-0.192284 0.385413 -0.441148 103 177 71
-0.48352 -0.446086 -0.45281 66 71 70
0.0761701 0.42693 0.560465 137 182 199
-0.384606 -0.433114 0.107742 78 72 141
0.22182 -0.415454 -0.136073 156 75 110
-0.0634376 -0.4037 0.850418 119 76 236
-0.502075 -0.395934 -0.651261 63 77 44
-0.559586 0.350033 -0.560423 56 172 56
-0.0672678 -0.190483 -0.177679 119 103 105
0.477953 -0.119785 -0.90892 188 112 12
-0.487568 0.391052 -0.392959 65 177 77
-0.180706 -0.0204352 -0.963353 104 125 5
0.484609 -0.355042 0.760173 189 82 224
-0.945067 0.0512805 0.154071 7 134 147
0.0178418 0.295911 -0.834515 130 165 21
-0.231 -0.399669 -0.244166 98 77 96
-0.592871 -0.377804 0.62167 52 79 207
-0.24423 -0.0908218 0.968859 96 116 251
0.0607512 -0.398441 0.31522 135 77 168
0.0780919 0.0494619 0.974687 137 134 252
-0.857738 -0.311992 0.31389 18 88 168
-0.2218 -0.435613 0.434117 99 72 183
0.287106 -0.430931 0.356724 164 73 173
-0.0253836 -0.196682 0.993002 124 102 254
-0.557605 0.0688637 -0.773912 56 136 29
-0.83733 0.259419 0.188459 21 161 152
-0.33711 0.171193 0.861637 85 149 237
0.136978 -0.377643 -0.071487 145 79 118
-0.0849687 0.430692 0.619183 117 182 206
0.320393 0.394139 0.103217 168 178 141
-0.396024 -0.446057 -0.171586 77 71 106
0.945051 -0.193956 -0.256057 248 103 95
-0.630919 0.136452 -0.675694 47 145 41
0.262084 0.366088 0.706812 161 174 218
-0.0123611 -0.36079 -0.256518 126 81 95
-0.742749 -0.421823 0.00186539 33 74 128
0.0763231 0.237647 -0.901682 137 158 13
-0.123598 -0.334204 0.174859 112 85 150
0.78833 0.305815 0.228979 228 166 157
-0.0267569 0.430733 0.589786 124 182 203
-0.479759 0.121133 -0.800574 66 143 25
-0.152731 0.134408 -0.167903 108 145 106
0.280163 0.405623 0.0792399 163 179 138
-0.700063 0.276163 0.497215 38 163 191
0.0275955 0.341133 -0.767818 131 171 30
0.845558 -0.261269 -0.500435 235 94 64
-0.367924 0.355057 -0.59961 81 173 51
-0.223318 0.3608 -0.667332 99 174 42
0.370188 -0.43651 0.189986 175 72 152
0.372768 -0.0129982 -0.941924 175 126 7
0.939592 -0.128758 0.235806 247 111 158
0.782974 -0.295649 0.51417 227 90 193
-0.649026 -0.437764 -0.0306358 45 72 124
0.787249 0.311621 -0.087646 228 167 116
0.892278 0.116374 0.202319 241 142 153
-0.0373891 0.423663 0.64505 123 182 210
0.0596703 -0.252416 0.117367 135 95 142
-0.832781 0.268508 -0.00904948 21 162 126
-0.689558 0.367545 -0.257644 40 174 95
-0.645145 0.289398 -0.516281 45 164 62
-0.87552 -0.332805 0.20936 16 85 154
0.714203 -0.349622 -0.577202 219 83 54
-0.751068 0.0391467 -0.603622 32 132 51
-0.0287034 -0.236324 -0.18003 124 97 105
-0.582604 -0.316878 -0.725718 53 87 35
-0.231067 -0.399741 -0.768417 98 77 30
0.671847 0.364602 -0.338876 213 174 84
-0.952541 -0.0480376 -0.194121 6 121 103
-0.491439 -0.427326 0.555257 65 73 198
0.58348 0.0210045 0.784919 202 130 228
-0.2689 0.306383 -0.774961 93 167 29
-0.637046 0.340214 0.446427 46 171 184
-0.678308 -0.434307 -0.0230057 41 72 125
0.447772 -0.453001 -0.342708 185 70 84
0.115733 -0.42579 -0.34548 142 73 83
0.730891 -0.410787 0.363311 221 75 174
0.69245 0.216335 -0.612704 216 155 49
-0.523617 0.391794 0.443909 61 177 184
0.788136 0.19008 0.429853 228 152 182
-0.171565 0.339804 0.193005 106 171 152
0.154037 0.27156 -0.855916 147 162 18
0.741137 -0.032499 0.626991 222 123 207
0.339076 -0.445973 -0.275553 171 71 92
0.95563 -0.0998844 0.132588 249 115 144
-0.304237 -0.432378 -0.608996 89 72 50
0.728303 0.269882 -0.515647 220 162 62
-0.0379773 0.144242 0.147719 123 146 146
0.887175 0.165488 0.204671 241 149 154
-0.318436 -0.418688 -0.0944191 87 74 115
-0.428817 0.418688 0.439996 73 181 184
-0.563376 0.00917856 -0.791829 56 129 27
-0.206798 0.370657 0.756763 101 175 224
0.493322 0.278968 -0.74565 190 163 32
0.870836 0.22365 0.0454159 239 156 133
-0.375687 -0.0686578 0.916975 80 119 244
-0.663713 0.100163 0.670682 43 140 213
-0.0663642 -0.444197 -0.53879 119 71 59
0.673675 0.356908 -0.400987 213 173 76
-0.596813 0.397141 -0.181595 51 178 104
0.896673 0.0142553 0.333589 242 129 170
0.526228 0.406441 0.116922 195 179 142
0.176699 -0.435511 0.629963 150 72 208
-0.587431 0.405897 -0.0195695 53 179 125
-0.932841 -0.191199 0.240084 9 103 158
0.414751 -0.448459 -0.151576 180 70 108
0.773399 0.291481 0.152245 226 165 147
0.208055 0.39952 -0.300266 154 178 89
0.06147 0.0209203 0.0346953 135 130 132
-0.391773 0.138894 0.851669 78 145 236
-0.555761 0.27764 -0.647173 57 163 45
0.305879 -0.124935 -0.969617 166 112 4
0.501725 0.377749 0.398257 191 176 178
0.625178 -0.368767 0.622631 207 80 207
-0.938801 0.0905386 0.0590594 8 139 135
-0.766216 0.345793 0.00363249 30 172 128
0.381072 -0.431676 0.551556 176 72 198
-0.157245 0.212896 -0.212586 107 155 100
-0.720089 -0.197389 -0.657886 36 102 44
0.584825 -0.267537 -0.792845 202 93 26
0.542334 -0.440119 0.398065 197 71 178
-0.149559 -0.37469 0.887624 108 80 241
0.140107 -0.421682 0.394223 145 74 178
-0.384327 -0.433628 0.139101 78 72 145
-0.928629 -0.247924 0.181432 9 96 151
-0.693835 -0.0103467 0.684566 39 126 215
-0.790905 0.290555 -0.144832 27 165 109
-0.761968 0.346856 -0.0285446 30 172 124
-0.0360244 0.391868 -0.565768 123 177 55
0.355026 -0.151103 -0.950028 173 108 6
-0.898683 -0.0668046 -0.383704 13 119 79
-0.952364 0.0561402 0.000408498 6 135 128
0.0252686 0.425628 0.428818 131 182 182
-0.474047 -0.444751 0.0554607 67 71 135
-0.141717 -0.22937 -0.0889143 109 98 116
0.81295 -0.372963 -0.267107 231 80 93
-0.817005 -0.333241 0.363917 23 85 174
0.764794 0.154143 -0.593501 225 147 52
0.232519 0.386608 -0.167228 157 177 106
0.0345599 -0.370996 0.904292 132 80 243
-0.458444 -0.233409 0.863394 69 98 238
-0.0564567 0.113021 0.133148 120 142 144
-0.749581 -0.0635145 0.635034 32 119 208
0.0159751 -0.441318 -0.557725 130 71 56
-0.673627 0.313596 0.465683 42 167 187
0.12376 -0.198377 -0.978541 143 102 3
0.669916 -0.38646 0.53946 213 78 196
-0.532376 0.0320108 0.806542 60 132 230
0.21746 0.359732 0.175349 155 173 150
-0.847046 0.0492742 -0.449442 20 134 70
0.704055 -0.434298 0.231156 217 72 157
-0.213476 0.0873955 -0.933034 100 139 9
-0.479264 -0.0820302 -0.85766 66 117 18
0.240427 -0.437489 -0.316789 158 72 87
-0.518203 -0.45055 -0.357796 61 70 82
0.117762 -0.35641 0.162426 143 82 148
0.264816 -0.444516 -0.456123 161 71 69
0.943279 0.0223473 0.0555913 248 130 135
-0.593549 0.291932 -0.587497 52 165 53
0.896062 -0.0812943 0.380403 242 117 176
0.30036 -0.427048 0.293167 166 73 165
-0.917379 0.0848378 -0.215355 11 138 100
0.709561 0.121644 0.631342 218 143 208
0.0365525 0.203333 -0.177839 132 153 105
0.314948 0.428001 -0.508029 168 182 63
0.433885 -0.226316 0.879949 183 99 240
0.0514161 0.266637 0.197834 134 161 153
-0.548927 -0.421545 0.527009 58 74 195
0.762052 -0.419895 0.052388 225 74 134
-0.485399 -0.120054 0.860727 66 112 237
0.0771633 0.389133 -0.442645 137 177 71
-0.309994 -0.445205 -0.324065 88 71 86
0.680966 -0.322374 -0.659282 214 86 43
-0.649804 -0.389363 0.517983 45 78 194
-0.840122 0.209337 0.339448 20 154 171
0.663369 -0.452136 0.138961 212 70 145
-0.425114 0.40113 -0.296409 73 179 90
-0.966873 -0.134282 0.0398505 4 110 133
0.597687 -0.341677 -0.712173 204 84 37
0.407372 -0.451316 -0.403254 179 70 76
0.581038 -0.0623712 -0.850478 202 120 19
-0.797921 -0.147356 0.566584 26 109 200
-0.709337 -0.34979 -0.550862 37 83 57
0.736403 -0.429194 0.0741146 221 73 137
0.0423636 -0.372563 0.251812 133 80 160
0.403083 -0.448991 -0.452223 179 70 70
-0.656542 -0.386419 -0.536612 44 78 59
0.825838 0.264909 -0.305646 233 161 89
0.394226 0.420004 0.091165 178 181 139
-0.143977 -0.0202631 -0.072069 109 125 118
0.498504 0.100604 0.809896 191 140 231
0.0820568 -0.0175994 0.987107 138 125 253
0.313801 0.410963 -0.448512 168 180 70
-0.148161 -0.417139 -0.726014 109 74 35
0.716676 -0.427279 0.284554 219 73 164
0.453223 0.284042 0.721672 185 164 220
-0.355734 0.411978 0.591939 82 180 203
0.509074 0.344728 0.533782 192 171 196
0.175459 -0.396988 -0.0902766 150 77 116
-0.0316969 0.0367741 0.13174 123 132 144
0.770517 -0.373694 0.418795 226 80 181
-0.805148 0.203296 -0.354326 25 153 82
0.0334666 -0.0206068 -0.993736 132 125 1
-0.196141 0.27721 0.831058 102 163 233
-0.929755 0.0953973 0.145671 9 140 146
-0.400788 0.33184 -0.645409 76 170 45
0.949018 -0.104376 0.183901 248 114 151
0.0856015 0.241231 -0.151849 138 158 108
0.914694 0.155721 -0.186903 244 147 104
-0.259117 0.423769 0.282584 94 182 164
-0.117209 0.421886 0.698858 113 181 217
-0.543035 0.396832 0.357907 58 178 173
-0.268818 0.29625 -0.146556 93 165 109
0.214623 -0.40086 0.223591 155 76 156
0.435562 -0.446466 0.22375 183 71 156
0.493146 -0.454226 0.170755 190 70 149
0.770498 -0.0683724 -0.686326 226 119 40
0.178559 0.382772 0.709367 150 176 218
-0.0640125 -0.439491 -0.587198 119 71 53
0.510522 0.409815 -0.0856502 193 180 117
0.435842 0.36789 0.602505 183 174 204
0.434235 0.390358 0.439501 183 177 184
0.903544 0.184371 -0.0306988 243 151 124
-0.422246 -0.238658 -0.865989 74 97 17
0.326383 0.273563 0.826761 169 162 233
-0.115135 0.266877 -0.871834 113 162 16
0.0269007 -0.331341 0.944932 131 85 248
-0.462612 0.389076 -0.0496177 69 177 121
-0.523123 0.415862 -0.312131 61 181 88
0.677163 -0.441031 -0.18799 214 71 104
0.916414 0.102351 0.0548233 244 141 134
0.484778 -0.112401 0.868521 189 113 238
-0.00476338 -0.0124246 -0.128356 127 126 111
-0.570143 0.399649 -0.214566 55 178 100
-0.0405773 0.165244 -0.202484 122 149 102
0.481464 -0.171736 0.866404 189 106 238
0.212509 0.410544 0.33756 155 180 171
0.558691 0.344624 0.521812 199 171 194
0.949912 -0.0390004 0.119942 249 123 143
0.927494 -0.0828104 0.282762 246 117 164
0.660214 -0.438302 -0.280171 212 72 92
-0.172485 -0.432461 -0.643862 106 72 45
0.258215 0.147488 -0.929595 160 146 9
0.647945 0.339028 0.303536 210 171 166
-0.615196 -0.445359 -0.230566 49 71 98
-0.808109 0.146618 0.442816 24 146 184
0.232139 0.102708 -0.946266 157 141 7
0.259641 0.0358533 -0.963638 161 132 5
-0.186523 -0.230419 -0.94921 104 98 6
0.633594 0.33523 -0.551957 208 170 57
-0.532412 -0.389844 0.656898 60 78 211
0.156539 0.360424 -0.703614 147 173 38
0.720325 0.344254 -0.282247 219 171 92
-0.197782 0.444937 0.487057 102 184 190
0.0459629 -0.0207828 -0.00554642 133 125 127
0.843961 0.0318495 -0.547904 235 132 58
-0.197292 -0.407874 -0.755239 102 75 31
0.174757 0.235652 -0.894959 150 158 13
0.423538 0.379067 0.513379 182 176 193
-0.276048 -0.432351 -0.61763 92 72 49
-0.122483 -0.117724 0.0242233 112 112 131
0.706071 -0.231094 -0.714591 218 98 36
0.848226 0.0894328 0.391182 236 139 177
0.143807 -0.435105 -0.584839 146 72 53
0.123826 -0.399756 0.842708 143 77 235
0.628803 0.263558 -0.635235 208 161 47
0.497684 0.414768 -0.242069 191 180 97
-0.445802 0.393169 0.0166978 71 178 130
-0.762836 -0.388113 0.305619 30 78 166
-0.507944 -0.437457 0.167483 63 72 149
-0.0457853 -0.335795 -0.91366 122 85 11
-0.507543 0.419088 0.234546 63 181 157
-0.390119 -0.113345 0.91217 78 113 244
-0.921824 -0.241209 0.225602 10 97 156
-0.153041 0.191921 -0.901911 108 152 13
0.290089 -0.419459 0.116143 164 74 142
-0.0200654 0.352222 -0.369277 125 172 80
-0.937771 -0.0623351 -0.262855 8 120 94
0.966517 -0.0717602 -0.0093256 251 118 126
-0.122909 0.209992 -0.916473 112 154 11
-0.541285 -0.455931 -0.209507 58 69 101
-0.0815956 -0.298148 -0.938274 117 89 8
0.127028 0.30693 0.190437 144 167 152
0.154676 -0.373621 0.0375541 147 80 132
-0.351591 -0.457069 -0.411792 83 69 75
0.169708 -0.266438 0.961907 149 94 250
0.473342 0.395802 -0.470681 188 178 67
0.450218 0.427053 0.107425 185 182 141
-0.041276 0.366933 0.261121 122 174 161
0.39443 0.408626 0.234452 178 180 157
-0.301491 -0.435361 0.425052 89 72 182
-0.448351 -0.457745 -0.341195 70 69 84
-0.222909 0.268306 -0.198163 99 162 102
-0.437202 0.392127 -0.398171 72 177 77
-0.0156692 -0.428429 -0.410351 126 73 75
-0.767112 0.347224 -0.11472 30 172 113
0.122404 -0.376715 -0.138422 143 79 110
-0.802462 -0.352895 0.340413 25 83 171
-0.472374 0.018134 -0.847845 67 130 19
0.931257 -0.239535 -0.26666 246 97 94
-0.512273 0.361349 -0.528213 62 174 60
-0.363522 0.277049 -0.767615 81 163 30
-0.765008 0.310827 0.253785 30 167 160
0.530324 0.387366 -0.459766 195 177 69
-0.227065 -0.0352514 0.966517 99 123 251
0.397246 0.0458924 -0.922018 178 133 10
0.203257 0.346273 0.149104 153 172 147
-0.497281 0.372143 -0.488709 64 175 65
-0.541483 -0.435061 -0.458971 58 72 69
0.409941 0.0860835 0.867981 180 138 238
-0.393615 -0.16366 -0.893591 77 107 14
-0.552709 -0.445315 -0.38052 57 71 79
-0.901628 -0.0462677 0.381645 13 122 176
-0.0777461 -0.433364 0.440058 118 72 184
-0.395183 0.0121102 -0.890361 77 129 14
0.0279224 -0.431275 0.751745 131 73 223
0.64764 -0.246844 0.716937 210 96 219
0.911916 -0.0693087 0.340421 244 119 171
-0.659284 0.368253 -0.313491 43 174 88
0.452943 -0.450702 -0.120187 185 70 112
-0.611912 -0.439587 0.0204425 49 71 130
-0.905091 -0.301601 -0.259485 12 89 94
-0.510391 0.175179 0.757068 62 150 224
0.529475 -0.404793 -0.643542 195 76 45
-0.397018 -0.223959 0.898181 77 99 242
-0.21791 0.190582 -0.878017 100 152 16
-0.0522281 -0.440097 0.539812 121 71 196
-0.879205 -0.086802 -0.433353 15 116 72
-0.103419 0.129318 0.113325 114 144 142
0.1296 -0.371691 -0.0441347 144 80 122
-0.16321 0.152447 0.100011 107 147 140
0.666348 0.350359 -0.453887 212 172 70
0.733175 -0.0902218 -0.730616 221 116 34
-0.591593 -0.159557 0.784246 52 107 227
-0.61663 0.168965 -0.665237 49 149 43
-0.467704 -0.433289 0.287556 68 72 164
-0.624562 -0.068784 0.756978 48 119 224
-0.711291 -0.077006 -0.677409 37 118 41
0.909395 -0.200547 0.339607 243 102 171
0.829388 0.268538 -0.0176611 233 162 125
0.708774 -0.414251 -0.326966 218 75 86
-0.190563 0.332216 0.806878 103 170 230
0.183222 0.0168172 0.965294 151 130 251
0.598925 0.285982 -0.657516 204 164 44
0.0524181 0.365634 -0.726835 134 174 35
-0.328305 -0.440022 0.533956 86 71 196
-0.0951992 -0.391175 -0.309025 115 78 88
0.327331 -0.433566 0.317594 169 72 168
-0.591087 -0.315332 0.719461 52 87 219
-0.0532193 -0.432094 0.761028 121 72 225
-0.633542 -0.423958 0.31191 47 73 167
0.169087 -0.339539 0.918251 149 84 245
0.519393 0.0110123 -0.875629 194 129 16
-0.260841 0.0662262 0.936284 94 136 247
0.162571 -0.399342 -0.178439 148 77 105
-0.246046 -0.432692 0.388659 96 72 177
-0.689706 -0.251871 -0.679649 40 95 41
0.945248 0.021283 -0.169146 248 130 106
-0.642632 -0.0153783 0.734275 46 126 221
-0.446857 0.416266 0.295795 71 181 165
0.0722642 -0.422499 0.410419 137 74 180
0.862384 0.212524 0.147162 237 155 146
0.898325 -0.328013 -0.0716127 242 86 118
