ply
format ascii 1.0
comment Created by Open3D
element vertex 1212
property double x
property double y
property double z
property uchar red
property uchar green
property uchar blue
end_header
0.228443 -0.410338 -0.0245677 157 75 124
0.511623 0.197045 -0.78604 193 153 27
-0.235339 -0.284761 0.943311 97 91 248
0.500644 0.370891 -0.571022 191 175 55
0.910195 -0.269048 -0.306515 244 93 88
-0.0375984 0.0532798 0.131911 123 134 144
0.515079 -0.430179 -0.54915 193 73 57
0.0380297 -0.426958 -0.680287 132 73 41
-0.414889 -0.431834 0.624919 75 72 207
-0.088768 -0.416212 -0.739166 116 74 33
-0.444531 0.390865 -0.414261 71 177 75
-0.0474952 -0.319034 0.952749 121 87 249
-0.921762 -0.313392 -0.115859 10 88 113
0.41298 -0.253478 0.882922 180 95 240
-0.392573 -0.433428 -0.0199869 77 72 125
0.721713 -0.334607 -0.594452 220 85 52
0.747395 0.319442 0.0546493 223 168 134
-0.68375 -0.410905 -0.415517 40 75 75
0.589282 0.389989 -0.334635 203 177 85
-0.829324 -0.247734 -0.499159 22 96 64
-0.849395 -0.317824 -0.393669 19 87 77
-0.0743094 0.115786 -0.19015 118 142 103
-0.912713 -0.301152 -0.227374 11 89 99
-0.325029 0.342875 -0.100841 86 171 115
0.880573 0.216216 -0.148169 240 155 109
-0.901553 -0.291843 0.220169 13 90 156
0.264358 -0.44225 -0.511609 161 71 62
-0.0371096 -0.135202 -0.164758 123 110 106
-0.95479 -0.134747 0.176018 6 110 150
-0.0171623 -0.121771 -0.991068 125 112 1
-0.267855 -0.438126 -0.316069 93 72 87
0.389481 -0.305321 0.864324 177 89 238
0.49982 -0.453179 -0.122329 191 70 112
0.561697 -0.357394 0.705023 199 82 217
0.287237 -0.427185 0.325954 164 73 169
0.370602 0.289772 0.778557 175 164 227
-0.668411 -0.31636 -0.649678 42 87 45
-0.340692 -0.423984 -0.63746 84 73 46
0.123687 0.387289 0.283963 143 177 164
-0.351193 0.382537 -0.563361 83 176 56
0.58629 0.0889358 0.748543 202 139 223
0.487227 -0.447747 0.325827 190 70 169
-0.958877 -0.176525 0.0849916 5 105 138
0.0497408 0.348334 -0.341943 134 172 84
-0.798014 0.0612577 -0.528368 26 135 60
0.484307 -0.452496 -0.208991 189 70 101
0.755914 -0.313944 0.535542 224 87 196
0.42198 0.0439062 0.876588 181 133 239
0.0473781 0.379662 -0.647986 134 176 45
-0.79929 0.284638 0.244138 26 164 159
0.223737 0.339984 0.783918 156 171 227
0.120579 -0.250595 0.975034 143 96 252
0.644365 -0.448998 0.235222 210 70 157
-0.0104443 0.21162 0.91211 126 154 244
0.76837 0.167299 0.499499 225 149 191
0.540924 -0.418308 0.566513 196 74 200
-0.181413 0.159593 0.100524 104 148 140
0.350862 -0.0139005 0.919329 172 126 245
-0.247416 0.349929 -0.292574 96 172 90
-0.828478 0.0849963 -0.456567 22 138 69
-0.292756 -0.421167 -0.66782 90 74 42
-0.0772105 -0.385033 0.282276 118 78 163
0.43859 -0.440315 0.392059 183 71 177
-0.176579 -0.306943 -0.038673 105 88 123
0.654908 -0.411597 0.476533 211 75 188
0.0297903 0.365907 0.305516 131 174 166
0.325981 0.254481 0.837804 169 160 234
-0.549402 0.260981 -0.668948 57 161 42
-0.181257 0.337065 -0.312295 104 170 88
0.100646 -0.325201 -0.91545 140 86 11
-0.852281 0.221651 0.261908 19 156 161
0.220243 0.387935 -0.205588 156 177 101
-0.336481 -0.440493 -0.258693 85 71 95
0.151435 0.302576 0.138891 147 166 145
-0.521881 -0.431649 0.313952 61 72 168
-0.197203 0.340636 0.795644 102 171 229
0.337781 0.426918 -0.316536 171 182 87
0.692381 0.341109 0.313516 216 171 167
-0.894519 -0.341672 0.0619485 13 84 135
0.360482 0.436957 -0.350644 173 183 83
-0.221338 -0.358057 -0.145829 99 82 109
0.294012 -0.444602 -0.332625 165 71 85
-0.962978 -0.053019 0.138306 5 121 145
-0.102146 -0.440383 0.514514 114 71 193
-0.294679 0.335467 -0.172762 90 170 105
-0.872124 0.0931251 -0.352076 16 139 83
0.491714 0.338329 0.598521 190 171 204
-0.179331 -0.00818564 0.974275 105 126 252
-0.53443 -0.430518 0.360128 59 73 173
-0.334858 -0.115833 -0.921681 85 113 10
-0.908457 0.132255 0.180019 12 144 150
-0.0588319 -0.326342 -0.226215 120 86 99
0.572607 0.272922 -0.69398 201 162 39
0.735027 -0.429176 0.0999209 221 73 140
-0.339835 0.389683 -0.463648 84 177 68
0.952019 0.0120493 -0.0636947 249 129 119
0.100714 0.304332 0.859691 140 166 237
-0.564943 -0.207157 -0.790081 55 101 27
0.411429 -0.243885 -0.900518 180 96 13
0.753092 0.0874836 -0.654152 224 139 44
0.620024 0.122774 -0.761716 207 143 30
-0.511993 0.322594 -0.615406 62 169 49
0.294954 -0.438364 -0.242068 165 72 97
-0.0446791 -0.419108 -0.727071 122 74 35
0.437669 -0.374823 -0.765931 183 80 30
-0.268926 0.185269 -0.865015 93 151 17
0.086449 -0.433794 0.51775 139 72 194
0.36757 0.412483 -0.423398 174 180 74
0.14594 0.403422 0.315778 146 179 168
-0.159242 -0.43107 -0.653871 107 73 44
-0.44091 -0.452705 -0.181983 71 70 104
-0.224249 -0.42486 0.351873 99 73 172
-0.199185 -0.42403 -0.679209 102 73 41
-0.532454 -0.0175663 0.820242 60 125 232
-0.704981 0.0335915 -0.657775 38 132 44
-0.334463 0.42818 0.513872 85 182 193
0.0757893 -0.112627 -0.996373 137 113 0
0.415746 -0.447999 0.0636878 181 70 136
0.234257 -0.433588 -0.598113 157 72 51
0.331776 0.404563 0.492581 170 179 190
0.436176 -0.450797 -0.261849 183 70 94
0.507937 0.357887 0.504941 192 173 192
0.548144 0.396149 0.22911 197 178 157
-0.710843 -0.123532 -0.676151 37 112 41
0.931884 0.0751832 -0.0699551 246 137 119
-0.957052 0.0316961 0.0597423 5 132 135
0.0532712 -0.265543 -0.958255 134 94 5
0.780596 -0.374194 -0.376415 227 80 80
0.35701 0.0101025 -0.942543 173 129 7
0.314585 -0.394467 -0.762542 168 77 30
-0.482326 -0.282378 0.827967 66 91 233
0.187919 -0.183923 -0.977333 151 104 3
0.703544 0.321447 -0.481356 217 168 66
0.958232 -0.0303188 0.00937734 250 124 129
-0.833448 -0.315894 -0.425228 21 87 73
0.470856 0.433629 -0.0674445 188 183 119
-0.339034 -0.152005 0.934444 84 108 247
-0.064602 -0.439874 0.527266 119 71 195
0.266132 0.391023 -0.0903513 161 177 116
0.224976 -0.166843 -0.975497 156 106 3
-0.0500168 0.14785 0.94474 121 146 248
0.564206 -0.192279 0.808765 199 103 231
-0.72273 0.277653 0.452036 35 163 185
-0.583532 -0.363437 0.664939 53 81 212
-0.597383 -0.432758 0.208978 51 72 154
-0.622809 -0.23092 0.740575 48 98 222
-0.0591281 0.382887 0.312305 120 176 167
-0.182698 0.102244 -0.0956072 104 141 115
-0.578389 -0.444545 -0.0132619 54 71 126
0.936498 -0.240087 -0.238104 247 97 97
0.722618 -0.415048 -0.272106 220 75 93
0.943923 -0.252773 -0.0297655 248 95 124
0.790748 0.156478 0.474506 228 147 188
0.718053 -0.272168 -0.673629 219 93 42
0.814564 -0.342934 0.399775 231 84 178
0.663653 0.369125 -0.309055 212 175 88
-0.168949 -0.436951 0.453858 106 72 185
-0.0983371 -0.445172 -0.53122 115 71 60
0.364327 -0.43783 0.325846 174 72 169
0.126886 -0.436358 0.566032 144 72 200
0.206798 0.23506 -0.890552 154 157 14
-0.425482 0.418499 0.315849 73 181 168
0.152511 0.0644393 -0.971823 147 136 4
0.866758 0.187233 0.216622 238 151 155
0.768821 -0.414584 0.234406 226 75 157
-0.434414 -0.41184 -0.65126 72 75 44
0.0292025 -0.375482 -0.25987 131 80 94
0.376026 -0.28006 0.890769 175 92 241
-0.079338 -0.137857 -0.17037 117 110 106
-0.315196 -0.333008 -0.860082 87 85 18
0.182344 -0.245551 -0.954864 151 96 6
0.616435 -0.197096 0.765617 206 102 225
-0.624574 -0.105583 -0.75763 48 114 31
0.857837 -0.103592 0.466829 237 114 187
0.199013 -0.109467 0.973819 153 114 252
0.283362 0.401188 -0.112825 164 179 113
0.226467 -0.442771 -0.436804 156 71 72
0.392555 -0.440798 0.166513 178 71 149
-0.850703 -0.276098 0.389266 19 92 177
0.0156944 0.428005 0.639402 130 182 209
-0.091075 0.149263 -0.931076 116 147 9
0.258215 0.147488 -0.929595 160 146 9
-0.243163 -0.387416 0.837418 96 78 234
0.318725 -0.285166 -0.903666 168 91 12
0.69097 -0.256131 -0.71278 216 95 37
0.293791 0.439284 0.374184 165 184 175
-0.760242 -0.244517 -0.601994 31 96 51
0.284621 0.412499 -0.414951 164 180 75
0.656969 -0.276568 -0.727867 211 92 35
0.807744 -0.388106 -0.13332 230 78 111
-0.189527 0.394824 -0.600662 103 178 51
0.142 -0.395876 -0.209826 146 77 101
-0.436141 0.400634 -0.320908 72 179 87
0.411927 0.146405 0.840008 180 146 235
-0.192306 0.0753048 0.951369 103 137 249
0.704144 -0.441023 0.0850698 217 71 138
-0.938554 0.0860732 0.111263 8 138 142
0.566257 -0.325332 0.738205 200 86 222
0.538354 0.111633 0.77569 196 142 226
-0.183469 0.0889195 -0.0234448 104 139 125
-0.619533 0.307444 0.561218 49 167 199
-0.143557 0.345383 0.241873 109 172 158
-0.696134 -0.250778 0.655594 39 96 211
-0.290741 0.39024 -0.456602 90 177 69
-0.0975307 -0.290321 0.157951 115 90 148
0.0511641 0.351 0.81347 134 172 231
-0.284283 -0.413887 0.161856 91 75 148
-0.344117 -0.310921 -0.86542 84 88 17
-0.156139 0.1811 0.918092 108 151 245
0.00315098 0.181968 -0.18984 128 151 103
0.0894687 0.206095 0.0744378 139 154 137
-0.969432 -0.101689 0.0470365 4 115 133
0.0864045 -0.434342 -0.388114 139 72 78
-0.788396 -0.0177815 -0.574234 27 125 54
0.0978559 -0.0616646 0.99115 140 120 254
0.215925 -0.0197156 0.963137 155 125 250
0.0599481 0.387441 0.337586 135 177 171
-0.675917 0.372658 0.188093 41 175 151
-0.0239452 0.428631 0.608556 124 182 205
-0.750015 0.354227 -0.0178902 32 173 125
-0.502261 0.42171 0.211464 63 181 154
-0.487104 0.0820804 0.821299 65 138 232
0.111217 -0.18572 0.98708 142 104 253
0.649767 -0.404862 -0.514873 210 76 62
-0.42552 0.242076 0.763782 73 158 225
-0.290287 -0.400479 -0.000222094 90 76 127
0.391463 -0.438384 0.354553 177 72 173
0.76707 -0.280147 0.550538 225 92 198
-0.356902 0.203984 0.831467 82 154 234
-0.911479 0.0785678 0.266194 11 138 161
-0.22657 -0.423088 0.751642 99 74 223
-0.660218 -0.4177 0.340601 43 74 171
-0.391773 0.138894 0.851669 78 145 236
0.0512391 -0.164445 0.0886042 134 107 139
0.465166 0.115925 -0.863799 187 142 17
-0.290653 -0.432564 0.357764 90 72 173
0.4447 -0.342192 -0.807755 184 84 25
-0.547449 -0.0645035 0.815819 58 119 232
-0.599122 0.395218 -0.023227 51 178 125
-0.113126 -0.316685 -0.921853 113 87 10
0.138253 -0.409747 0.81916 145 75 232
0.463111 -0.447713 -0.488065 187 70 65
0.413829 -0.443691 0.242784 180 71 158
-0.902115 -0.337182 0.0389519 12 85 132
0.443792 0.0425132 -0.903284 184 133 12
0.716806 -0.178905 -0.730411 219 105 34
0.00108357 -0.429319 0.773271 128 73 226
-0.219526 0.373252 -0.359638 100 175 82
-0.295988 -0.128391 -0.934586 90 111 8
-0.0937453 -0.442035 0.633533 116 71 208
-0.127333 -0.214634 0.0595474 111 100 135
-0.519552 0.399921 -0.226691 61 178 99
0.0858527 -0.293567 0.0917916 138 90 139
-0.677575 0.36865 0.221179 41 175 156
0.555584 -0.453616 -0.16749 198 70 106
-0.849307 -0.280769 -0.437301 19 92 72
-0.586031 -0.0518548 0.787639 53 121 228
0.670923 0.378886 -0.364013 213 176 81
-0.935113 0.0973133 -0.0572961 8 140 120
0.420303 0.23414 -0.836302 181 157 21
0.566027 0.173212 -0.768963 200 150 29
0.0394806 0.0165141 0.985987 133 130 253
0.810159 0.201848 -0.425679 231 153 73
-0.298014 0.377694 0.211612 90 176 154
0.0720627 -0.332155 -0.127954 137 85 111
0.322008 0.392691 -0.577175 169 178 54
-0.544887 -0.332771 0.742949 58 85 222
0.184884 0.338407 -0.00509924 151 171 127
-0.173594 0.314197 0.821829 105 168 232
-0.455769 0.0587766 0.848389 69 135 236
-0.0824498 -0.239961 -0.962552 117 97 5
-0.535619 0.191659 0.730206 59 152 221
0.874942 0.163938 0.253477 239 148 160
0.354618 -0.440605 -0.095891 173 71 115
-0.388018 0.361277 -0.571504 78 174 55
0.483977 0.340701 0.626938 189 171 207
-0.285783 -0.450213 -0.405321 91 70 76
-0.386413 -0.437245 0.20207 78 72 153
0.888475 -0.308527 0.262666 241 88 161
-0.365122 0.359931 -0.0525563 81 173 121
-0.844888 0.17124 0.347475 20 149 172
0.0909182 -0.339817 -0.0874953 139 84 116
0.406588 -0.426524 -0.620425 179 73 48
-0.747174 -0.370591 -0.454808 32 80 70
0.483574 -0.453757 -0.280284 189 70 92
0.423325 -0.448541 -0.464628 181 70 68
-0.24925 0.2143 -0.0629979 96 155 119
-0.723888 0.107286 0.601644 35 141 204
-0.740623 -0.247678 -0.623426 33 96 48
-0.949311 0.0076938 -0.160007 6 128 107
0.0522615 -0.26966 -0.0645944 134 93 119
0.546799 -0.0871011 0.827188 197 116 233
0.657276 -0.347875 -0.644578 211 83 45
0.0303718 -0.439247 0.584109 131 71 202
-0.0661125 0.301952 0.863153 119 166 238
0.33566 0.139523 0.88077 170 145 240
-0.0961357 -0.0482612 0.113301 115 121 142
-0.0524858 -0.193968 0.149823 121 103 147
0.669835 0.193228 -0.664414 213 152 43
-0.704466 -0.366373 0.494865 38 81 191
-0.842318 -0.173543 0.485878 20 105 189
-0.70661 0.0923219 -0.626612 37 139 48
-0.294289 -0.407756 -0.129238 90 76 111
0.69436 -0.433978 -0.188601 216 72 103
-0.253 0.186407 0.887068 95 151 241
-0.00174728 -0.43718 -0.604851 127 72 50
0.0769525 -0.437443 0.563423 137 72 199
-0.747629 0.31674 0.276271 32 168 163
-0.126437 -0.439952 0.507429 111 71 192
0.0505533 -0.386163 -0.839259 134 78 20
-0.0806671 -0.421742 0.80152 117 74 230
-0.482017 0.411391 0.323808 66 180 169
-0.318223 0.399764 -0.536941 87 178 59
-0.0740753 0.435596 0.502217 118 183 192
-0.709664 -0.426935 0.02692 37 73 131
-0.200282 -0.386853 0.858018 102 78 237
0.463875 -0.440911 0.394279 187 71 178
0.605136 0.344088 0.370595 205 171 175
-0.542267 0.402451 0.0206257 58 179 130
-0.614204 -0.153144 -0.763445 49 108 30
-0.337645 0.0108759 0.920782 84 129 245
-0.386445 0.0542854 -0.880259 78 134 15
0.870707 0.124857 0.313562 239 143 167
0.79007 0.186705 -0.507 228 151 63
-0.653395 0.201464 -0.596246 44 153 51
-0.951238 -0.126257 0.205317 6 111 154
0.486026 0.407415 0.0270692 189 179 131
0.133203 -0.343106 -0.894848 144 84 13
0.0626264 0.244897 -0.894166 135 159 13
-0.453733 -0.338975 0.801754 70 84 230
-0.117089 -0.205745 -0.966527 113 101 4
0.093359 -0.345693 0.92639 139 83 246
-0.299032 0.328367 -0.128215 89 169 111
-0.158614 0.249714 0.871145 107 159 239
-0.160059 0.089425 0.081822 107 139 138
0.683438 0.258581 0.48029 215 160 189
0.0628563 -0.420726 -0.35059 136 74 83
0.916433 -0.223614 -0.360773 244 99 82
-0.716757 -0.378131 0.441875 36 79 184
-0.882775 -0.339765 -0.24956 15 84 96
-0.758091 -0.0986426 -0.623496 31 115 48
-0.449269 -0.455653 -0.256081 70 69 95
-0.500715 0.398849 0.0888856 64 178 139
0.28979 -0.431435 0.64065 164 72 209
0.188957 0.260968 -0.86435 152 161 17
0.806743 -0.391034 -0.0991725 230 78 115
0.435601 0.358764 0.56863 183 173 200
-0.301912 0.345425 0.748617 89 172 223
-0.250473 0.427947 0.594181 96 182 203
-0.286044 0.260783 0.817753 91 161 232
-0.253704 0.0859793 -0.921286 95 138 10
-0.881289 0.188796 0.125241 15 152 143
-0.364842 -0.351855 -0.813768 81 83 24
0.965322 -0.161319 -0.128579 251 107 111
0.0315271 -0.0765238 -0.00921345 132 118 126
0.946512 -0.245315 -0.00227117 248 96 127
0.186914 0.411592 0.66927 151 180 213
-0.12773 -0.107896 -0.0404366 111 114 122
0.68107 -0.446754 -0.0799739 214 71 117
-0.354999 0.388705 -0.348616 82 177 83
0.285899 0.397703 0.0552909 164 178 135
0.212422 -0.408586 0.273077 155 75 162
0.667327 0.286172 0.446874 213 164 184
-0.00351217 -0.424747 -0.698514 127 73 38
0.728986 0.337428 -0.34209 220 171 84
-0.336947 -0.415171 -0.684451 85 75 40
-0.429233 -0.45036 -0.439384 73 70 71
-0.749356 -0.118531 0.637643 32 112 209
0.49464 0.416468 -0.0463044 191 181 122
0.921375 0.0699565 0.108748 245 136 141
0.388556 -0.443019 -0.531492 177 71 60
-0.0136501 -0.343593 -0.232206 126 84 98
-0.839966 0.135746 0.390318 20 145 177
0.369686 0.405892 -0.48054 175 179 66
-0.95696 -0.125594 -0.16451 5 111 107
-0.0194403 0.433264 0.560837 125 183 199
0.633702 -0.453906 0.144809 208 70 146
-0.144066 0.374476 -0.649618 109 175 45
0.217631 0.402606 -0.321687 155 179 86
-0.0629227 0.352595 -0.725668 119 172 35
-0.130605 0.426959 0.659969 111 182 212
0.870704 0.195393 0.170036 239 152 149
-0.236489 0.0579486 -0.9344 97 135 8
0.121956 0.183469 0.923207 143 151 245
0.891178 0.0565865 0.299767 241 135 166
0.216816 0.372372 -0.117595 155 175 113
-0.593676 -0.342463 -0.684086 52 84 40
-0.190558 0.391344 -0.49361 103 177 65
0.711254 0.20504 -0.603943 218 154 50
-0.820557 -0.255235 0.471882 23 95 188
-0.710105 0.200387 -0.525676 37 153 60
0.865931 -0.358879 0.0112856 238 82 129
0.0505702 -0.0192575 0.0201393 134 125 130
0.342074 -0.427367 0.643375 171 73 210
-0.297791 0.298811 0.017765 90 166 130
0.611871 0.361094 -0.50443 206 174 63
0.7622 0.319502 -0.0849925 225 168 117
-0.634884 -0.381423 0.56049 47 79 199
-0.561472 -0.124687 0.80979 56 112 231
-0.380734 -0.437218 0.495128 79 72 191
-0.560242 0.175509 -0.711157 56 150 37
-0.447587 -0.45464 -0.222304 70 70 99
-0.933267 0.102981 0.0943217 9 141 140
0.102757 -0.43407 -0.605669 141 72 50
0.36586 0.41742 -0.114813 174 181 113
0.931635 0.01677 0.160649 246 130 148
0.00807648 -0.00318605 -0.98932 129 127 1
-0.681645 -0.325565 0.610122 41 86 205
0.636781 0.246887 0.566915 209 159 200
-0.298244 0.0228913 0.933445 89 130 247
-0.462867 -0.417867 -0.61116 68 74 50
0.443829 -0.389868 -0.731314 184 78 34
0.717712 0.346817 -0.136523 219 172 110
0.430153 0.0666052 0.86516 182 136 238
0.200629 0.165226 0.914842 153 149 244
6.67168e-06 -0.368762 -0.263899 128 80 94
-0.591095 0.375207 0.397962 52 175 178
0.274145 -0.432973 0.478076 162 72 188
0.183589 -0.395465 -0.789751 151 77 27
0.0585413 -0.432508 -0.63515 135 72 47
-0.386681 -0.421354 0.684173 78 74 215
-0.904712 0.0793042 -0.271183 12 138 93
0.928008 -0.121412 -0.384105 246 112 79
-0.217554 -0.0905787 -0.957793 100 116 5
0.753405 0.324167 -0.316599 224 169 87
0.375648 0.3475 0.668931 175 172 213
0.209456 -0.423432 0.368514 154 74 174
0.0799223 -0.440926 -0.441271 138 71 71
0.077503 0.41052 -0.627153 137 180 48
-0.345063 0.0272671 -0.90582 84 131 12
-0.835892 0.274538 0.00719891 21 163 128
0.687187 -0.438579 0.235701 215 72 158
-0.822084 -0.388626 -0.237176 23 78 97
0.460534 0.0255567 0.862109 186 131 237
-0.131195 -0.152897 -0.00698484 111 108 127
-0.466217 0.405067 0.00252287 68 179 128
-0.509833 0.243451 0.704536 62 159 217
-0.578634 -0.246253 -0.77192 54 96 29
-0.276022 0.272338 -0.823785 92 162 22
0.968337 -0.108161 -0.0294513 251 114 124
0.262785 -0.0672907 -0.979222 161 119 3
-0.254509 0.348969 -0.683764 95 172 40
0.368122 0.381228 0.567842 174 176 200
-0.950034 0.0567985 -0.0376511 6 135 123
-0.739503 -0.394941 0.321654 33 77 169
-0.922949 -0.0508997 -0.316225 10 121 87
-0.931525 -0.0577449 -0.285632 9 120 91
-0.529858 0.383292 -0.41433 60 176 75
-0.428128 0.105655 -0.83865 73 141 21
0.535961 0.403573 0.0788528 196 179 138
-0.0054193 0.392477 -0.547292 127 178 58
-0.109962 -0.116435 -0.979327 113 113 3
0.401331 0.0792623 -0.907841 179 138 12
-0.529023 0.325043 0.637457 60 169 209
0.0115141 0.392732 -0.519349 129 178 61
-0.152044 0.412036 -0.581462 108 180 53
0.209876 0.250714 0.877899 154 159 239
-0.324674 0.333608 -0.0407368 86 170 122
-0.568666 -0.289119 -0.757873 55 91 31
-0.0719401 -0.368505 0.24722 118 81 159
-0.153963 0.122594 -0.931085 108 143 9
-0.847249 0.242337 -0.0234628 19 158 125
0.487601 0.399879 0.254406 190 178 160
-0.482011 -0.456489 -0.217916 66 69 100
0.0629579 -0.441523 -0.52918 136 71 60
-0.651046 0.362123 -0.373397 44 174 80
0.754132 0.28239 -0.452455 224 164 70
-0.623851 0.325836 0.517865 48 169 194
0.764127 -0.140093 0.601949 225 110 204
-0.722553 0.349955 0.199538 35 172 153
-0.0824188 0.419632 0.411591 117 181 180
-0.694592 -0.281551 0.638399 39 92 209
0.226089 -0.322917 -0.896743 156 86 13
-0.37703 -0.203218 -0.893874 79 102 14
0.452345 0.393946 0.393596 185 178 178
-0.769 0.0890277 -0.550449 29 139 57
-0.355694 0.430226 0.420188 82 182 181
0.411487 -0.440995 0.328259 180 71 169
0.110175 -0.355802 -0.879785 142 82 15
0.428142 -0.278076 -0.872427 182 92 16
-0.617651 0.391701 -0.0675074 49 177 119
0.789582 -0.277456 0.51883 228 92 194
0.128618 -0.441503 -0.405354 144 71 76
0.587191 -0.385233 -0.647181 202 78 45
-0.527887 0.0186061 -0.814029 60 130 24
-0.009105 0.0937791 0.140931 126 139 145
0.287206 -0.26719 -0.92492 164 93 10
0.20051 -0.442105 -0.474287 153 71 67
-0.684956 0.204712 -0.555498 40 154 57
-0.425546 -0.300724 -0.837163 73 89 21
0.197213 -0.385603 0.146289 153 78 146
0.30874 -0.432885 0.00684199 167 72 128
0.280638 0.0138023 -0.964699 163 129 5
-0.0380442 0.390422 0.746783 123 177 223
-0.794274 -0.408548 0.0399665 26 75 133
-0.471189 -0.429441 0.54928 67 73 198
-0.0214329 -0.322436 0.19931 125 86 153
0.141926 -0.428979 0.45913 146 73 186
0.236019 0.420706 0.421481 158 181 181
-0.837908 -0.312863 0.359818 21 88 173
-0.0210322 -0.390451 0.298752 125 78 166
-0.263693 -0.102549 0.962966 94 114 250
0.42318 0.433262 -0.408758 181 183 75
0.885324 0.135305 -0.301659 240 145 89
-0.137513 -0.204872 -0.00693228 110 101 127
0.33095 0.226282 -0.874387 170 156 16
-0.39067 0.423939 0.529632 78 182 195
0.299567 0.415372 -0.243443 166 180 96
-0.935443 -0.1013 -0.279434 8 115 92
0.289597 -0.232127 0.938893 164 98 247
-0.358326 0.353756 0.0254488 82 173 131
0.597099 -0.401936 0.57411 204 76 201
0.312767 -0.434613 -0.0752148 167 72 118
0.760778 -0.39898 -0.265736 224 77 94
0.249259 -0.443038 -0.366631 159 71 81
0.816612 -0.204741 0.514199 232 101 193
-0.724262 0.340325 -0.272761 35 171 93
-0.349135 -0.36167 0.831437 83 81 234
-0.220761 -0.446489 -0.458041 99 71 69
-0.462158 -0.432516 0.478101 69 72 188
-0.624603 -0.438534 0.0157941 48 72 130
0.242697 0.39081 0.642777 158 177 209
0.0545819 -0.191436 0.0977784 134 103 140
-0.150439 -0.435965 0.438923 108 72 183
0.368141 0.408698 0.429187 174 180 182
0.365909 0.441068 -0.138768 174 184 110
-0.686619 0.30456 -0.413769 40 166 75
-0.843809 0.192062 -0.273215 20 152 93
-0.42536 0.420364 0.373691 73 181 175
-0.1966 0.147231 -0.91001 102 146 11
-0.101132 0.0958638 -0.181193 115 140 104
0.52253 -0.322974 0.770301 194 86 226
0.182364 0.348494 -0.742023 151 172 33
-0.474691 0.281162 -0.701611 67 163 38
-0.440535 -0.433426 0.309865 71 72 167
0.423932 0.301161 0.722402 182 166 220
-0.642013 0.26876 -0.530388 46 162 60
-0.278991 0.433171 0.408682 92 183 180
0.368234 0.407535 0.00302956 174 179 128
-0.894295 0.0684058 -0.320715 13 136 87
-0.847207 -0.385291 -0.159711 19 78 107
-0.648507 0.376907 -0.294579 45 176 90
0.402671 -0.39602 0.72698 179 77 220
0.718714 -0.289406 -0.657007 219 91 44
0.30065 0.295716 0.810193 166 165 231
-0.883684 -0.319443 0.219918 15 87 156
0.0519353 -0.295885 0.146858 134 90 146
-0.367862 0.0551543 0.896371 81 135 242
0.609487 -0.455504 0.113105 205 69 142
0.956306 -0.0153126 -0.146698 249 126 109
0.211553 -0.436359 -0.566026 154 72 55
-0.950662 -0.146194 -0.197438 6 109 102
-0.750881 -0.256014 0.582379 32 95 202
-0.125972 -0.0877544 -0.00126438 111 116 127
-0.39059 -0.435993 -0.56071 78 72 56
0.281324 0.395573 -0.0712546 163 178 118
0.332475 0.31143 0.773015 170 167 226
0.180579 -0.390482 0.84082 151 78 235
-0.0649602 0.448219 0.537562 119 185 196
0.15163 0.142788 0.933249 147 146 246
0.0911066 0.188097 0.927021 139 151 246
0.446312 -0.423359 0.600045 184 74 204
0.752305 -0.380533 -0.421096 223 79 74
-0.265231 -0.139921 0.961968 94 110 250
0.43493 0.420922 -0.173505 183 181 105
-0.253855 -0.391244 -0.785444 95 78 27
0.390502 -0.448003 -0.249487 177 70 96
-0.554634 0.0301811 -0.790492 57 131 27
-0.187279 -0.393955 -0.264753 104 77 94
0.397582 0.394927 0.464847 178 178 187
-0.070956 -0.395573 -0.325021 118 77 86
-0.0613122 0.0366662 0.980753 120 132 253
0.694814 -0.432586 0.284198 216 72 164
0.621658 -0.452678 -0.210311 207 70 101
-0.540719 0.384204 0.460098 59 176 186
0.270426 -0.439988 -0.306476 162 71 88
0.193135 0.421741 0.440298 152 181 184
0.373309 -0.216707 -0.925021 175 100 10
-0.096273 0.270524 0.186976 115 162 151
0.347399 -0.246709 0.913291 172 96 244
0.558176 0.390383 0.317826 199 177 168
0.403503 -0.436424 -0.579889 179 72 54
-0.76126 0.353387 0.0339694 30 173 132
-0.783052 -0.407805 0.105352 28 76 141
-0.85485 -0.366588 0.128448 19 81 144
-0.102842 0.412948 0.376241 114 180 175
0.961221 -0.0718864 -0.209638 250 118 101
-0.239361 -0.377619 0.0667241 97 79 136
0.574263 -0.416294 -0.568102 201 74 55
0.00735711 -0.388137 -0.835443 128 78 21
-0.633796 -0.189952 -0.74133 47 103 33
0.73652 -0.426391 -0.0184305 221 73 125
0.0126601 -0.427441 0.433957 129 73 183
0.922487 -0.287479 0.111709 245 91 142
0.590685 0.259712 -0.676882 203 161 41
0.785615 -0.0735349 -0.668176 228 118 42
-0.560921 0.334737 -0.555003 56 170 57
-0.0537053 0.409358 0.384756 121 180 177
-0.555197 0.411945 -0.328977 57 180 86
0.717586 -0.262711 0.625543 219 94 207
0.912894 -0.187487 -0.399311 244 104 77
0.0209663 -0.0741231 -0.0543452 130 118 121
0.826984 -0.388979 0.0394399 233 78 133
0.0248053 -0.293206 0.970481 131 90 251
-0.0610131 0.422561 0.429175 120 181 182
0.837298 0.228993 0.198766 234 157 153
0.481946 -0.435856 0.451497 189 72 185
0.854043 0.160857 -0.386151 236 148 78
-0.0923911 -0.386252 -0.837543 116 78 21
-0.614157 -0.18492 -0.759391 49 104 31
0.0724893 0.394968 -0.502878 137 178 63
0.171759 0.0334505 -0.97899 149 132 3
0.506822 -0.451644 -0.406676 192 70 76
-0.800565 0.244673 0.360471 25 159 173
-0.354604 -0.338736 -0.837736 82 84 21
-0.392716 0.367271 0.00789228 77 174 129
0.197674 0.051673 -0.968662 153 134 4
-0.0831942 -0.417499 0.366967 117 74 174
0.592334 -0.417244 0.526537 203 74 195
-0.237173 0.318547 0.791003 97 168 228
-0.468603 -0.430748 0.51617 68 73 193
-0.623548 -0.115846 0.76138 48 113 225
-0.245012 0.272623 0.821166 96 162 232
-0.954033 -0.0967122 0.203605 6 115 153
0.87998 -0.240786 -0.44962 240 97 70
-0.0188473 0.379484 0.307475 125 176 167
0.57835 -0.44276 0.35711 201 71 173
0.301985 -0.433799 0.367592 166 72 174
0.543189 -0.427122 -0.541939 197 73 58
-0.472418 -0.266456 0.8423 67 94 235
-0.154585 0.383158 -0.442418 108 176 71
-0.906711 0.106684 -0.224959 12 141 99
-0.716281 -0.413931 0.239385 36 75 158
-0.561724 0.398606 0.0633143 56 178 136
0.163736 -0.397885 -0.163449 148 77 107
0.235864 -0.423479 0.348984 158 74 172
0.269102 0.409492 -0.475686 162 180 67
-0.916162 0.129887 -0.11895 11 144 112
-0.790005 -0.254779 0.526725 27 95 195
0.554589 -0.407288 -0.613292 198 76 49
0.490905 -0.245035 -0.863966 190 96 17
0.829148 0.271218 -0.133772 233 162 110
0.245003 -0.245207 0.950134 159 96 249
0.649921 -0.450858 0.189587 210 70 152
-0.425333 -0.409461 0.695166 73 75 216
0.709804 -0.432153 -0.129583 218 72 111
-0.890728 -0.142511 -0.401902 14 109 76
0.29237 0.427975 0.487885 165 182 190
0.692239 -0.137949 0.694979 216 110 216
-0.0138046 -0.352671 -0.893359 126 83 14
-0.119564 0.113 -0.180848 112 142 104
0.314917 0.400809 0.167673 168 179 149
-0.686761 0.376572 0.111421 40 176 142
-0.124719 0.0990691 -0.948115 112 140 7
-0.674657 -0.401568 0.424182 41 76 182
-0.476801 0.392837 -0.38112 67 178 79
0.537219 -0.433025 0.465523 196 72 187
0.0784536 0.330956 -0.773759 138 170 29
-0.206888 -0.359472 0.894523 101 82 242
0.368266 0.412624 0.282829 174 180 164
0.761796 -0.238078 0.581831 225 97 202
-0.30158 -0.438124 0.476608 89 72 188
-0.811201 0.223078 0.389794 24 156 177
-0.602549 -0.443651 -0.0512696 51 71 121
-0.0528408 0.455387 0.563253 121 186 199
-0.387184 0.424061 0.242665 78 182 158
-0.25296 0.408701 0.666861 95 180 213
0.0772947 0.420628 0.60914 137 181 205
-0.715279 0.135662 -0.587409 36 145 53
0.417063 -0.448785 -0.22322 181 70 99
-0.900276 0.030364 0.35254 13 131 172
-0.579814 0.322954 0.584852 54 169 202
-0.761823 0.245212 0.445387 30 159 184
-0.0682649 -0.357277 0.921066 119 82 245
0.926877 -0.214675 0.259305 246 100 161
-0.0410649 0.0906074 -0.175564 122 139 105
-0.873211 0.204466 -0.0835609 16 154 117
-0.83185 0.244801 -0.15209 21 159 108
0.809434 0.284895 -0.000855246 231 164 127
-0.463888 -0.43708 0.196066 68 72 152
0.101791 0.0422442 -0.980448 140 133 2
-0.143986 -0.412595 0.816026 109 75 232
-0.037221 0.339805 -0.759069 123 171 31
-0.0397422 -0.38593 -0.299526 122 78 89
-0.289942 -0.374551 0.839914 91 80 235
-0.788056 0.0870576 -0.524423 27 139 61
-0.188599 0.25678 -0.870651 103 160 16
0.780866 -0.0573829 0.578506 227 120 201
0.389302 -0.440266 0.194219 177 71 152
0.730523 -0.334223 0.548729 221 85 197
-0.812102 0.0524611 -0.51209 24 134 62
-0.934913 -0.196298 0.224653 8 102 156
0.297441 -0.445263 -0.374448 165 71 80
0.17137 0.143201 -0.948408 149 146 7
0.941406 -0.255552 -0.106982 248 95 114
-0.87589 -0.361561 -0.154138 16 81 108
0.0418759 -0.112928 0.0855787 133 113 138
-0.0272069 0.25288 -0.884693 124 160 15
0.0905884 0.263999 -0.87068 139 161 16
0.429876 -0.442328 -0.547179 182 71 58
0.352952 -0.150383 0.926335 173 108 246
0.902628 -0.280436 0.271402 243 92 162
0.355527 0.180301 -0.88948 173 150 14
-0.556041 -0.311955 -0.749417 57 88 32
0.120834 -0.362549 -0.035382 143 81 123
-0.601755 -0.393505 0.572362 51 77 200
0.52932 -0.291267 -0.813856 195 90 24
0.0653764 -0.390346 -0.266786 136 78 93
-0.027789 0.231364 0.185951 124 157 151
-0.446087 0.140199 0.820128 71 145 232
-0.959601 -0.154688 0.128751 5 108 144
-0.185378 0.436088 0.56948 104 183 200
-0.898138 -0.318948 0.158237 13 87 148
-0.28802 -0.419043 0.208068 91 74 154
0.182725 0.382309 -0.25819 151 176 95
0.177049 0.371615 0.248376 150 175 159
-0.88864 -0.0841059 0.415477 14 117 180
-0.304885 0.223253 -0.841578 89 156 20
-0.153041 0.191921 -0.901911 108 152 13
-0.405676 -0.00770241 0.893931 76 127 241
0.602278 0.385948 0.0744569 204 177 137
0.40843 -0.446098 0.0872024 180 71 139
-0.78794 -0.0878916 0.586378 27 116 202
0.165351 -0.42732 -0.328624 149 73 86
-0.871687 0.193124 0.168198 16 152 149
-0.224351 0.410236 0.328055 99 180 169
-0.809271 -0.0718118 -0.552575 24 118 57
-0.285539 -0.351951 -0.845568 91 83 20
0.24072 -0.416279 -0.0700888 158 74 119
-0.114892 -0.107191 -0.142072 113 114 109
-0.231039 0.283854 -0.828189 98 164 22
0.579369 0.202558 -0.734872 201 153 34
0.383808 -0.445032 -0.0444412 176 71 122
0.10862 0.279577 -0.181176 141 163 104
-0.564367 0.427667 0.201956 56 182 153
-0.152262 -0.19327 0.983199 108 103 253
0.948854 -0.206477 -0.220578 248 101 99
0.653528 -0.390261 -0.559312 211 78 56
0.190402 -0.427184 -0.650365 152 73 45
0.27021 0.414692 -0.35454 162 180 82
-0.535326 -0.409699 0.597872 59 75 204
0.72871 0.17539 -0.617783 220 150 49
0.588419 0.375788 0.208153 203 175 154
0.467328 0.160377 0.796466 187 148 229
0.486185 -0.432639 0.501747 189 72 191
0.686095 0.213628 0.562115 215 155 199
0.657072 0.37262 -0.19369 211 175 103
-0.0251435 -0.236741 0.98692 124 97 253
-0.580564 -0.42624 0.378297 53 73 176
-0.628199 0.368759 0.342556 47 175 171
-0.848982 -0.0757378 0.492517 19 118 190
-0.610002 0.0536738 -0.739545 50 134 33
0.39397 0.406836 0.174653 178 179 150
0.399432 0.311035 0.72888 178 167 220
-0.153269 0.0392024 0.0242394 108 132 131
0.510013 0.107172 -0.845601 193 141 20
-0.922449 0.128171 0.10362 10 144 141
-0.0623328 -0.135414 0.138389 120 110 145
-0.687 -0.283105 -0.662077 40 91 43
0.551307 -0.380574 0.67649 198 79 214
0.0173686 -0.400528 0.324108 130 76 169
-0.0559558 0.0519353 -0.972128 120 134 4
-0.595644 -0.148435 -0.777319 52 109 28
-0.627145 0.389989 -0.0262657 48 177 124
0.916094 -0.0904137 0.331821 244 116 170
0.256658 -0.337421 -0.877104 160 84 16
0.794173 0.291992 0.25738 229 165 160
-0.865374 -0.375575 -0.0808814 17 80 117
0.132062 -0.430021 -0.640027 144 73 46
-0.406193 -0.43439 0.293687 76 72 165
0.915293 -0.144631 0.339749 244 109 171
0.095472 0.321475 -0.246183 140 168 96
-0.657095 0.178092 0.631175 44 150 208
0.0461627 -0.4373 0.677511 133 72 214
-0.591593 -0.159557 0.784246 52 107 227
-0.44914 0.238055 -0.757156 70 158 31
0.676774 0.240343 -0.601172 214 158 51
-0.327591 0.36055 -0.205382 86 173 101
0.1656 0.332515 -0.124042 149 170 112
-0.889059 0.00267258 0.393928 14 128 178
0.883964 0.123622 0.257459 240 143 160
0.640831 -0.420396 -0.458995 209 74 69
-0.241609 -0.396858 0.178503 97 77 150
-0.935392 -0.24122 -0.205805 8 97 101
-0.174579 0.192081 -0.184757 105 152 104
0.632588 0.364481 0.197179 208 174 153
0.859055 -0.0698768 -0.556122 237 119 57
-0.0948788 0.155441 0.936818 115 147 247
-0.0769071 0.0200561 -0.165627 118 130 106
0.468015 0.396094 -0.542527 187 178 58
-0.301923 -0.259728 0.929791 89 94 246
-0.709423 0.126251 0.606451 37 144 205
0.943527 -0.0315159 0.157565 248 123 148
-0.459923 -0.338163 -0.78639 69 84 27
0.496909 -0.438255 -0.527777 191 72 60
-0.842132 -0.032032 0.501147 20 123 191
0.82211 -0.184244 -0.601192 232 104 51
0.150996 0.353012 -0.72239 147 173 35
-0.158264 0.0414536 -0.083038 107 133 117
-0.287344 -0.287115 0.923851 91 91 245
0.131342 -0.0540751 0.986433 144 121 253
0.383016 -0.242841 0.900712 176 97 242
0.412188 0.280217 0.760718 180 163 224
0.106525 0.248566 0.137608 141 159 145
-0.790953 -0.34971 -0.434986 27 83 72
0.718696 -0.435397 0.132316 219 72 144
0.0847554 -0.438171 -0.569235 138 72 55
0.797762 0.0332745 0.5214 229 132 194
0.782604 0.277523 0.185954 227 163 151
0.203944 0.356174 -0.0460227 154 173 122
0.824743 -0.365585 -0.265095 233 81 94
-0.45069 0.0630364 -0.844329 70 136 20
0.713281 -0.175262 0.663692 218 105 212
0.439696 -0.00717296 -0.916249 184 127 11
0.767567 -0.413314 -0.0361789 225 75 123
0.798758 0.226755 -0.425811 229 156 73
0.282936 -0.422898 0.722322 164 74 220
-0.913162 -0.279263 -0.265914 11 92 94
-0.662404 -0.370867 0.548378 43 80 197
-0.138702 -0.322724 -0.198841 110 86 102
0.374063 -0.449779 -0.37537 175 70 80
0.343445 -0.392696 0.762366 171 77 225
-0.0944602 0.432209 0.608354 115 183 205
0.0104759 -0.170977 0.997302 129 106 255
0.807698 -0.0571913 0.538068 230 120 196
-0.410651 -0.450675 -0.192801 75 70 103
-0.523108 -0.300586 -0.781963 61 89 28
0.341733 -0.354466 0.832403 171 82 234
0.783275 -0.413068 0.171363 227 75 149
-0.305506 0.420641 0.329405 89 181 169
0.962675 -0.0607608 -0.158803 250 120 107
-0.738272 0.234542 -0.435286 33 157 72
-0.942567 -0.259911 0.0509658 7 94 134
0.146914 -0.441238 -0.461327 146 71 69
0.942324 -0.00747627 -0.27587 248 127 92
-0.901433 -0.00763041 0.369478 13 127 175
-0.837656 -0.140422 -0.507017 21 110 63
-0.490964 -0.444456 0.0499811 65 71 134
0.0433939 0.42969 0.558539 133 182 199
-0.781499 0.234642 -0.349498 28 157 83
-0.581062 0.386506 0.337697 53 177 171
0.610747 0.389815 -0.191722 205 177 103
-0.229261 -0.443805 0.571613 98 71 200
-0.436755 -0.135566 0.886889 72 110 241
0.149259 -0.135411 0.985227 147 110 253
-0.670104 -0.134376 0.719855 42 110 219
-0.198643 0.120416 -0.0171635 102 143 125
-0.155946 -0.306778 0.950119 108 88 249
0.10883 0.251613 0.894203 141 160 242
0.721893 -0.430024 0.218833 220 73 155
-0.27093 0.312098 -0.762521 93 167 30
-0.287003 0.348471 0.157632 91 172 148
-0.823731 0.0247205 -0.505785 22 131 63
0.018937 0.266179 -0.870236 130 161 17
-0.14852 0.352283 -0.715312 109 172 36
-0.00852444 0.0562216 -0.975764 126 135 3
-0.221382 0.391232 -0.531947 99 177 60
0.171325 0.33332 0.178839 149 170 150
0.679469 0.289858 0.41748 214 164 181
0.0265121 -0.270363 -0.137212 131 93 110
-0.919909 -0.0281609 -0.321333 10 124 87
-0.456892 0.294242 0.681036 69 165 214
0.722274 -0.222516 0.639323 220 99 209
0.956598 -0.204849 0.0564941 249 101 135
-0.344316 0.353383 -0.0938237 84 173 116
-0.349505 -0.449567 -0.326772 83 70 86
-0.115619 -0.411666 -0.75759 113 75 31
0.737177 -0.147596 0.636545 221 109 209
0.086538 -0.431961 0.726588 139 72 220
-0.914469 -0.1572 -0.335004 11 107 85
0.145543 -0.441022 -0.500218 146 71 64
-0.021353 0.430185 0.475182 125 182 188
0.80008 -0.373939 0.355351 230 80 173
0.299262 -0.150054 -0.96678 166 108 4
0.912255 0.0982031 0.100693 244 140 140
-0.467219 -0.18354 -0.854042 68 104 19
0.540066 -0.456944 0.00171579 196 69 128
0.024922 -0.0840544 0.998054 131 117 255
0.755598 0.303068 0.148826 224 166 146
-0.811077 -0.235855 0.504573 24 97 192
-0.0392397 -0.358045 -0.260515 122 82 94
-0.637155 0.306411 -0.505102 46 167 63
0.523979 0.356627 -0.604506 194 173 50
-0.28898 -0.376846 -0.80677 91 79 25
-0.634469 -0.39477 0.522181 47 77 194
0.32662 -0.436395 -0.0261074 169 72 124
0.168283 0.179676 0.915982 149 150 244
0.771035 -0.359758 -0.459916 226 82 69
-0.0845462 0.412708 0.695003 117 180 216
-0.370021 -0.454159 -0.352115 80 70 83
0.163781 0.383001 -0.306055 148 176 88
0.924244 0.0886758 -0.154607 245 139 108
-0.890371 0.165161 0.163505 14 149 148
0.607825 -0.452728 -0.254527 205 70 95
0.258519 0.338358 0.770552 160 171 226
0.778637 0.0457845 0.558836 227 133 199
0.235922 -0.432815 0.465924 158 72 187
0.58996 0.108498 0.73699 203 141 221
-0.924951 -0.237111 -0.255718 10 97 95
-0.613931 0.395166 0.0998013 49 178 140
-0.784508 -0.0703611 -0.588481 27 119 52
-0.663364 0.386491 0.0656712 43 177 136
-0.95592 -0.0241959 0.176967 6 124 150
-0.94314 -0.170253 0.214531 7 106 155
0.820924 0.160701 -0.486471 232 148 65
-0.154735 -0.39827 -0.298895 108 77 89
-0.403603 -0.151049 0.90416 76 108 243
0.136974 0.284932 0.0826059 145 164 138
-0.790212 0.28728 0.267037 27 164 162
0.699581 0.363927 0.181645 217 174 151
-0.199062 0.126472 0.0175056 102 144 130
0.815987 -0.263729 0.488087 232 94 190
0.31207 -0.138269 0.941709 167 110 248
0.82547 0.0670081 -0.561901 233 136 56
-0.765887 -0.416939 -0.181277 30 74 104
0.326651 -0.33865 0.859691 169 84 237
-0.625052 -0.443004 -0.278639 48 71 92
0.410993 -0.431665 0.528198 180 72 195
0.0532078 0.252604 0.893617 134 160 241
0.584886 -0.158399 -0.841793 202 107 20
-0.704038 0.385277 -0.00559711 38 177 127
0.0135525 0.00449953 0.120864 129 128 143
0.0456944 0.037819 -0.0547961 133 132 121
0.459794 0.0656336 0.851675 186 136 236
-0.154001 0.344238 -0.759806 108 171 31
0.0832723 0.393098 -0.574597 138 178 54
0.810109 0.259805 -0.364766 231 161 81
0.915376 -0.0844767 -0.428538 244 117 73
-0.443205 -0.456903 -0.356522 71 69 82
-0.215661 0.126518 0.9264 100 144 246
0.339436 0.184692 0.854531 171 151 236
0.0144107 0.382442 0.332575 129 176 170
-0.151629 -0.337565 -0.900491 108 84 13
0.0705793 0.367323 0.261987 136 174 161
0.205506 -0.38294 -0.821042 154 79 23
0.0572865 -0.414597 -0.744293 135 75 33
0.209623 0.38759 -0.228984 154 177 98
0.0275955 0.341133 -0.767818 131 171 30
-0.358928 0.398193 0.638389 82 178 209
-0.863683 -0.363527 -0.20849 17 81 101
-0.293127 0.365472 -0.612007 90 174 49
-0.543035 0.396832 0.357907 58 178 173
-0.188364 0.031122 -0.954144 103 131 6
0.822427 0.0953854 -0.545264 232 140 58
-0.724009 -0.427171 -0.172223 35 73 106
0.11323 0.290402 0.18247 142 165 151
-0.218941 -0.0670542 -0.958079 100 119 5
-0.358974 -0.434312 0.237731 82 72 158
0.515109 0.399053 0.149721 193 178 147
0.834738 -0.346409 -0.347297 234 83 83
-0.68606 -0.34966 0.564883 40 83 200
0.0974984 -0.225471 -0.969677 140 99 4
-0.832135 0.168819 0.390207 21 149 177
-0.0787744 -0.0444296 0.992265 117 122 254
0.620182 0.394025 -0.214259 207 178 100
-0.134305 -0.435219 -0.630213 110 72 47
-0.357667 0.366955 -0.145425 82 174 109
-0.804059 -0.0856262 0.564852 25 117 200
0.617262 0.266688 0.555784 206 162 198
0.56786 0.129879 0.749304 200 144 223
0.104038 -0.075037 -0.997477 141 118 0
0.334911 -0.431431 0.258612 170 72 160
-0.534445 -0.347308 -0.72239 59 83 35
0.106431 0.416275 0.416824 141 181 181
-0.487984 -0.413724 0.631079 65 75 208
-0.371035 0.0149606 0.906069 80 129 243
-0.618301 -0.303193 0.706026 49 89 218
0.530282 0.384005 -0.481534 195 176 66
-0.285575 -0.444538 0.588907 91 71 203
0.876829 -0.161587 0.422454 239 107 181
0.644208 -0.110017 0.747624 210 113 223
0.835692 -0.114526 0.499613 234 113 191
0.475167 0.331148 -0.685379 188 170 40
0.00153894 0.293643 -0.837547 128 165 21
-0.0332282 -0.0159601 -0.98671 123 125 2
-0.0911601 -0.364516 -0.269549 116 81 93
0.758232 0.220757 -0.506903 224 156 63
-0.259893 -0.415405 -0.261533 94 75 94
-0.925951 -0.308631 -0.0436013 9 88 122
-0.875419 0.0133885 -0.412481 16 129 75
-0.5152 0.217431 -0.726632 62 155 35
0.789579 0.0894374 0.543135 228 139 197
-0.335507 0.389684 -0.389958 85 177 78
0.113318 -0.344696 0.0101908 142 84 129
-0.173131 -0.0943907 -0.968125 105 115 4
0.358689 -0.372864 -0.799772 173 80 26
-0.290705 0.391449 -0.400382 90 177 76
0.746473 -0.344889 0.508564 223 84 192
0.297341 -0.445348 -0.480605 165 71 66
-0.570105 0.28436 -0.624163 55 164 48
0.00818317 0.387521 -0.470734 129 177 67
0.573569 0.391667 -0.357769 201 177 82
0.299017 0.351842 0.756635 166 172 224
-0.119546 0.357835 0.798223 112 173 229
0.628092 0.381938 -0.0568198 208 176 120
0.0340585 -0.221363 -0.974202 132 99 3
0.0860572 -0.287939 -0.94243 138 91 7
0.773013 -0.248627 0.5607 226 96 199
-0.818378 -0.165621 0.532185 23 106 195
-0.128079 0.251868 0.162051 111 160 148
-0.777973 0.131834 -0.50452 28 144 63
-0.0282193 0.225697 0.902078 124 156 243
0.821722 0.131144 0.451779 232 144 185
-0.50814 0.389395 0.494121 63 177 191
0.607575 -0.341352 -0.703082 205 84 38
0.257755 0.123066 0.913585 160 143 244
-0.00690322 -0.33561 -0.913955 127 85 11
0.367082 0.395275 0.500173 174 178 191
0.531623 -0.177905 -0.872434 195 105 16
0.254018 -0.427763 -0.641632 160 73 46
-0.00888548 0.234816 -0.902417 126 157 12
0.176117 0.402004 -0.453782 150 179 70
-0.299392 0.186415 -0.853012 89 151 19
0.297123 0.121474 -0.924494 165 143 10
-0.764588 0.0907023 0.558479 30 139 199
-0.748911 -0.282469 -0.593099 32 91 52
0.484702 -0.314517 -0.818656 189 87 23
0.12296 -0.209184 0.983605 143 101 253
0.582872 -0.448546 0.287187 202 70 164
0.698527 0.34226 -0.414022 217 171 75
0.433992 0.0833408 -0.891219 183 138 14
0.665168 0.00601202 -0.775055 212 128 29
0.797664 -0.249955 0.523633 229 96 194
0.0997603 0.384275 0.314436 140 176 168
-0.696107 0.0653339 0.655062 39 136 211
-0.788714 0.00193448 0.569982 27 128 200
-0.767311 -0.390336 -0.360906 30 78 81
-0.105808 -0.371919 0.246839 114 80 159
-0.516814 0.398276 -0.271455 62 178 93
0.525684 -0.454019 -0.187551 195 70 104
0.254953 0.395894 0.229094 160 178 157
-0.661589 0.312179 0.487652 43 167 190
-0.0515201 -0.424533 -0.411634 121 73 75
-0.00921159 0.181175 0.165291 126 151 149
-0.645327 0.388804 0.050276 45 177 134
-0.669697 0.128927 -0.642638 42 144 46
0.850899 -0.272551 -0.480031 236 93 66
0.590125 0.366602 0.278937 203 174 163
0.17708 -0.163625 -0.984204 150 107 2
0.916975 -0.0289681 -0.404114 244 124 76
0.444134 0.292259 -0.762195 184 165 30
-0.0800994 -0.434799 -0.480503 117 72 66
-0.171579 -0.436382 -0.437526 106 72 72
-0.162099 0.219514 -0.903971 107 155 12
0.806746 0.28134 -0.319702 230 163 87
0.889901 0.205473 -0.0477974 241 154 121
0.887106 0.159798 -0.289949 241 148 91
0.196296 0.42119 0.477605 153 181 188
0.0208897 0.383461 0.754051 130 176 224
-0.875888 -0.117347 0.44353 16 113 184
0.11092 0.290052 -0.83877 142 164 21
0.0386266 -0.0355947 -0.0240095 132 123 124
0.0875371 -0.143617 -0.99304 139 109 1
0.0638291 -0.0729245 -0.999133 136 118 0
0.263181 -0.30042 -0.907585 161 89 12
-0.303931 -0.432779 0.330955 89 72 170
0.837917 0.164664 -0.430334 234 148 73
0.876296 0.10302 0.291511 239 141 165
-0.243498 0.226433 -0.111223 96 156 113
-0.0817741 -0.436793 0.718603 117 72 219
0.696974 0.217812 0.5399 216 155 196
-0.664477 0.371582 0.242921 43 175 158
0.190451 -0.283506 -0.932719 152 91 9
-0.478951 0.395724 -0.334684 66 178 85
0.0854285 -0.307483 0.0304866 138 88 131
-0.966467 -0.0237074 -0.0282808 4 124 124
0.659165 0.39862 -0.234809 212 178 98
-0.695786 -0.418429 -0.355131 39 74 82
0.291417 -0.129786 0.94895 165 111 248
0.476477 -0.14377 -0.905632 188 109 12
0.295275 -0.43297 0.542412 165 72 197
0.218167 -0.0658943 0.968812 155 119 251
-0.40274 0.289756 -0.728475 76 164 35
0.693945 0.353073 -0.0167027 216 173 125
0.512501 -0.438003 0.429772 193 72 182
0.745242 0.171981 0.530758 223 149 195
0.929333 0.0630545 0.0639247 246 136 136
0.584657 0.307826 -0.645579 202 167 45
0.481121 0.416989 -0.151501 189 181 108
-0.0800123 -0.181959 -0.976789 117 104 3
-0.361744 0.330194 -0.68127 81 170 41
-0.755619 0.359456 -0.098266 31 173 115
0.00811971 -0.394305 -0.301392 129 77 89
0.0700845 -0.00346419 0.986283 136 127 253
0.489075 -0.0999184 -0.903367 190 115 12
-0.541958 0.410688 0.195078 58 180 152
-0.829098 0.292265 0.0299227 22 165 131
-0.621016 -0.365286 -0.619084 48 81 49
0.416234 0.322043 0.687819 181 169 215
-0.651475 -0.133428 -0.732324 44 110 34
0.577729 -0.234101 0.787632 201 98 228
-0.480447 -0.408326 -0.630849 66 75 47
-0.0931217 -0.404819 0.323827 116 76 169
0.930233 -0.0418117 0.241853 246 122 158
0.627502 -0.412966 -0.519053 208 75 61
-0.0469943 0.164777 0.151741 122 149 147
-0.646014 -0.307954 -0.679623 45 88 41
0.753014 0.300605 -0.421657 224 166 74
0.139974 0.33922 -0.754861 145 171 31
0.510775 0.311249 0.60401 193 167 205
0.130223 0.165515 -0.950343 144 149 6
0.258898 0.283886 -0.826554 161 164 22
0.370048 0.223785 0.826929 175 156 233
0.941534 -0.114504 0.226285 248 113 156
-0.916903 -0.132161 0.335648 11 111 170
0.402702 -0.414033 0.684381 179 75 215
-0.42552 -0.393484 0.731116 73 77 221
0.0618973 0.0650939 0.971238 135 136 251
0.391534 -0.444904 0.0250314 177 71 131
0.332995 -0.437324 -0.118488 170 72 112
-0.115354 0.322917 -0.785617 113 169 27
0.425322 0.414065 0.29195 182 180 165
0.687661 -0.23062 0.681049 215 98 214
0.446261 -0.0886324 -0.923157 184 116 10
-0.367531 0.418167 0.546918 81 181 197
0.527068 0.402618 0.0262474 195 179 131
-0.204946 -0.346011 -0.122411 101 83 112
-0.400764 0.392794 -0.349477 76 178 83
0.191321 -0.401802 -0.0887076 152 76 116
-0.193372 -0.117603 0.979777 103 113 252
-0.100609 -0.402763 -0.78888 115 76 27
-0.248354 -0.0187639 -0.945984 96 125 7
-0.842263 -0.346456 0.261213 20 83 161
0.934773 -0.253316 -0.213923 247 95 100
0.0276579 0.383375 -0.446714 131 176 71
-0.32712 -0.423747 0.141139 86 73 145
0.195639 -0.418345 0.768592 152 74 225
0.828865 -0.137938 -0.605329 233 110 50
0.567836 0.398437 0.282242 200 178 163
0.117362 -0.389487 -0.214659 142 78 100
-0.0611179 -0.0637938 -0.165971 120 119 106
0.447376 -0.39824 -0.707023 185 77 37
0.569117 -0.00421197 0.800705 200 127 230
0.680339 0.325199 0.371975 214 169 175
-0.00368184 0.379291 0.766224 127 176 225
0.675924 -0.0203308 0.705561 214 125 217
0.29764 0.399971 -0.545798 165 178 58
-0.427773 0.411616 0.237233 73 180 158
0.0691638 -0.215103 -0.975644 136 100 3
-0.947342 -0.250985 0.00377393 7 95 128
-0.194856 0.200053 -0.886073 103 153 15
0.0577706 0.00154716 -0.991269 135 128 1
0.174427 -0.421252 -0.288693 150 74 91
-0.328261 0.147898 -0.86383 86 146 17
0.179088 0.401032 -0.415942 150 179 74
0.321039 -0.447116 -0.413847 168 70 75
0.891137 -0.320359 -0.234966 241 87 98
-0.0900618 0.371269 -0.413972 116 175 75
0.46999 -0.434828 -0.56276 187 72 56
-0.32667 -0.321061 0.888948 86 87 241
0.833842 0.208292 -0.378534 234 154 79
0.114209 0.234318 -0.902697 142 157 12
-0.292521 -0.443503 -0.324107 90 71 86
0.797382 -0.175701 -0.638469 229 105 46
0.800948 -0.354236 -0.41207 230 82 75
0.264096 -0.41059 0.106481 161 75 141
-0.200727 0.453341 0.475916 102 185 188
0.179778 0.375559 -0.229094 150 175 98
-0.329062 0.238245 -0.822859 86 158 23
0.941464 -0.195423 0.205833 248 103 154
0.162631 -0.392762 -0.0940773 148 77 116
0.548631 -0.459315 0.130855 197 69 144
-0.669081 -0.164935 0.716891 42 106 219
-0.28951 0.357922 0.178144 91 173 150
-0.666956 0.23916 0.579419 42 158 201
-0.182674 0.395697 0.312207 104 178 167
0.27848 -0.358902 -0.84158 163 82 20
-0.764349 -0.299062 -0.556876 30 89 56
0.504609 -0.443983 -0.501076 192 71 64
-0.86961 0.00472709 0.438653 17 128 183
-0.964796 -0.127948 0.0952371 4 111 140
0.712388 0.34775 -0.294337 218 172 90
0.366476 -0.443006 -0.523312 174 71 61
-0.582469 0.398471 -0.140745 53 178 110
0.590457 0.157192 -0.764794 203 148 30
-0.51764 -0.0354433 0.832878 62 123 234
-0.145828 0.00775031 -0.101468 109 128 115
-0.772103 -0.417671 -0.0668793 29 74 119
0.58694 0.385909 -0.381801 202 177 79
-0.182326 0.424931 0.654768 104 182 211
0.457731 0.418104 -0.294623 186 181 90
0.234468 -0.387926 0.824859 157 78 233
-0.546948 -0.427078 -0.500904 58 73 64
0.67084 0.0696133 -0.748382 213 136 32
0.152676 -0.441496 -0.416493 147 71 74
0.942352 -0.181391 -0.286253 248 104 91
0.676805 -0.428595 0.352537 214 73 172
0.110089 0.358011 -0.711922 142 173 37
-0.248358 0.373093 0.238124 96 175 158
0.471545 -0.44063 -0.534629 188 71 59
-0.319896 -0.421052 -0.163016 87 74 107
0.293975 0.0214147 0.93329 165 130 246
-0.407025 -0.436407 0.535458 76 72 196
-0.0683912 -0.437776 -0.604204 119 72 50
-0.331216 0.37544 0.172663 85 175 150
-0.503288 0.383411 0.524167 63 176 194
0.113044 -0.420114 -0.323683 142 74 86
-0.868276 -0.285088 -0.395102 17 91 77
-0.924635 -0.27601 -0.22112 10 92 99
0.328605 -0.415277 0.720803 169 75 219
-0.85725 0.226803 0.0502169 18 156 134
-0.688903 0.11697 0.634212 40 142 208
-0.704037 -0.405107 0.348472 38 76 172
-0.187277 -0.324587 -0.0494914 104 86 121
0.0116084 -0.0447842 0.131855 129 122 144
-0.655609 -0.231604 -0.713641 44 98 37
0.673388 -0.255658 -0.729643 213 95 34
0.143029 0.204411 -0.922258 146 154 10
0.224584 -0.178567 0.965409 156 105 251
-0.932501 -0.276792 -0.170818 9 92 106
0.395481 -0.0682826 0.907957 178 119 243
-0.402171 0.380191 -0.024134 76 176 124
