ply
format ascii 1.0
comment Created by Open3D
element vertex 1185
property double x
property double y
property double z
property uchar red
property uchar green
property uchar blue
end_header
0.258302 0.095841 -0.240688 160 140 97
-0.394576 -0.0400364 0.184307 77 122 151
-0.112707 0.101862 -0.765732 113 140 30
-0.359753 0.0948427 0.0218482 82 140 130
-0.00118749 -0.104089 -0.789832 127 114 27
-0.281048 -0.1116 0.550671 92 113 198
-0.0427191 0.0986746 -0.233831 122 140 98
0.328957 0.104561 -0.531414 169 141 60
-0.418023 0.0360102 -0.861506 74 132 18
0.439941 0.057538 -0.310793 184 135 88
0.400578 -0.0337999 -0.739606 179 123 33
-0.261368 0.101389 -0.669759 94 140 42
-0.385036 -0.0483386 0.284765 78 121 164
-0.0791584 -0.110434 -0.262988 117 113 94
-0.225623 -0.110945 0.0549852 99 113 135
0.232518 0.111388 -0.00741059 157 142 127
0.0689479 0.0338212 0.972934 136 132 252
0.176427 -0.104501 -0.785113 150 114 27
-0.0547424 -0.111435 -0.482688 121 113 66
0.396073 0.0540198 0.78784 178 134 228
-0.297212 0.112194 0.727784 90 142 220
0.458031 0.0179557 -0.146187 186 130 109
0.105761 -0.11057 -0.36341 141 113 81
-0.334095 0.0955481 -0.767092 85 140 30
-0.270098 0.109478 0.0633876 93 141 136
0.440547 0.0459777 -0.705272 184 133 38
-0.405012 -0.0361991 -0.719049 76 123 36
-0.1104 0.120427 0.409914 113 143 180
-0.0393733 -0.11076 -0.189975 122 113 103
-0.13251 0.101717 0.357266 111 140 173
0.00301483 -0.110348 -0.321443 128 113 87
-0.416166 0.0668557 0.340232 74 136 171
-0.344349 0.0927813 -0.786125 84 139 27
-0.200138 -0.110931 0.0194165 102 113 130
-0.183338 0.0594061 -0.260709 104 135 94
-0.166815 -0.111092 0.56488 106 113 200
0.108025 0.100221 -0.00882932 141 140 126
0.456752 0.0303693 -0.0722663 186 131 118
0.339735 -0.108787 0.676613 171 114 214
0.409493 -0.0378268 -0.121861 180 123 112
0.331967 -0.0589442 -0.578084 170 120 54
-0.116951 0.0237582 -0.995559 113 131 1
0.447001 0.0275811 0.353046 184 131 173
0.411575 0.070938 -0.809306 180 137 24
-0.427928 -0.0235301 -0.00864137 73 124 126
-0.0386986 0.101304 -0.0562462 123 140 120
-0.432322 0.0303483 0.511956 72 131 193
0.172333 -0.110194 -0.710157 149 113 37
0.322059 0.105163 0.284656 169 141 164
-0.292832 0.111496 0.342825 90 142 171
-0.315973 0.0790339 -0.875785 87 138 16
0.0068872 0.0288668 0.995896 128 131 254
-0.174426 0.11819 0.649457 105 143 210
0.365404 -0.0968797 -0.549102 174 115 57
-0.362711 0.0871309 0.660469 81 139 212
-0.0559719 0.105253 0.64358 120 141 210
-0.432556 0.061337 -0.560787 72 135 56
-0.370025 -0.0519699 0.615526 80 121 206
-0.265995 0.099771 -0.846613 94 140 20
0.212536 -0.114275 -0.565733 155 113 55
0.0620391 0.0602713 -0.390984 135 135 78
0.402192 0.0828252 -0.0494088 179 138 121
0.229687 0.0602025 -0.385566 157 135 78
0.227129 0.109383 -0.557602 156 141 56
0.393414 -0.0684002 -0.23302 178 119 98
-0.366024 0.0403796 0.840241 81 133 235
0.436042 0.0594305 0.0820692 183 135 138
-0.0636468 -0.0033681 -0.976872 119 127 3
0.0189306 0.110441 -0.510076 130 142 62
-0.0578148 -0.110053 -0.276005 120 113 92
-0.12085 0.100911 0.0599974 112 140 135
-0.366393 -0.0606575 -0.437937 81 120 72
0.249894 -0.109657 -0.266781 159 114 93
0.00626399 0.0349475 -0.972094 128 132 4
0.290993 0.101231 -0.138089 165 140 110
-0.33141 0.098267 -0.399557 85 140 77
0.430918 -0.0232494 -0.2365 182 125 97
-0.208008 0.0787389 -0.48802 101 138 65
-0.35637 0.0942359 -0.557407 82 140 56
0.45079 0.0247948 0.236709 185 131 158
0.316345 0.0805926 -0.364775 168 138 81
-0.089465 -0.110275 -0.301984 116 113 89
-0.283143 -0.118308 0.648508 91 112 210
-0.266 0.060196 -0.365415 94 135 81
0.171666 0.104353 -0.723502 149 141 35
0.311694 -0.107777 -0.720919 167 114 36
-0.391848 -0.0607205 0.341944 78 120 171
0.125001 0.0864281 -0.243776 143 139 96
0.223547 0.103572 0.279248 156 141 163
-0.139478 0.0599459 -0.313717 110 135 88
-0.098537 -0.111524 -0.485789 115 113 66
0.0283284 -0.109827 0.44911 131 113 185
-0.164282 0.101577 -0.155424 107 140 108
0.354662 -0.105084 0.609854 173 114 205
0.302156 0.100903 0.573559 166 140 201
0.00991839 -0.108524 -0.73925 129 114 33
0.051681 0.101706 -0.720295 134 140 36
0.404061 -0.0323774 0.641225 179 123 209
0.422661 -0.0283511 0.136222 181 124 145
0.0439207 -0.110021 -0.0812906 133 113 117
-0.0895549 0.112298 -0.0834972 116 142 117
-0.304924 -0.111916 -0.635234 89 113 47
-0.00860338 -0.110142 -0.0338852 126 113 123
0.113919 -0.111313 -0.530756 142 113 60
-0.287744 -0.0870579 0.861858 91 116 237
-0.452991 0.010786 -0.00521026 70 129 127
0.105438 -0.111955 -0.644612 141 113 45
-0.220369 0.101762 -0.678154 99 140 41
0.0302989 -0.0896953 0.909974 131 116 244
0.165199 -0.111415 -0.67808 149 113 41
0.446575 0.0502971 -0.244546 184 134 96
-0.0999872 -0.110197 0.357896 115 113 173
-0.17163 0.100397 -0.847708 106 140 19
-0.0338879 -0.101525 -0.8129 123 115 24
-0.443985 0.00514629 0.199697 71 128 153
0.323382 -0.107761 -0.127703 169 114 111
0.176292 0.0994775 0.469294 150 140 187
0.0457128 -0.10956 0.385783 133 114 177
0.269059 -0.107867 0.801067 162 114 230
-0.258216 0.060233 -0.415939 95 135 74
-0.00098204 -0.110319 -0.0973845 127 113 115
-0.341398 0.0970232 0.450723 84 140 185
-0.272013 -0.110949 0.473875 93 113 188
0.0824649 0.114537 0.641527 138 142 209
0.00768952 0.119071 -0.0206157 128 143 125
0.181959 -0.0920175 0.8977 151 116 242
0.0692619 0.0994588 0.559628 136 140 199
0.400537 0.0819916 -0.407721 179 138 76
-0.366831 -0.0905285 0.724568 81 116 220
0.218236 0.100409 0.175534 155 140 150
-0.385123 -0.0385344 0.598337 78 123 204
0.368148 -0.0528806 0.558613 174 121 199
0.362479 -0.102874 0.509576 174 114 192
-0.182822 -0.110741 0.397663 104 113 178
0.10227 0.100095 0.269394 141 140 162
0.19395 -0.111694 0.704614 152 113 217
0.379319 -0.0561497 -0.0473975 176 120 121
0.00306455 -0.111946 -0.65362 128 113 44
0.332517 0.0949602 -0.837293 170 140 21
-0.209066 0.11513 0.0971014 101 142 140
0.134488 -0.109681 -0.045163 145 114 122
0.229897 -0.114152 -0.601435 157 113 51
0.128445 0.110999 0.172021 144 142 149
-0.30439 -0.110571 0.232225 89 113 157
0.300911 -0.108426 0.343249 166 114 171
-0.0396904 0.113605 0.803112 122 142 230
-0.27939 0.116494 0.552426 92 142 198
0.233497 -0.109378 -0.0658438 157 114 119
-0.194284 0.0999729 0.477551 103 140 188
0.0477184 -0.111204 -0.466114 134 113 68
-0.206725 -0.111113 -0.0170321 101 113 125
0.0985083 -0.104101 -0.788673 140 114 27
-0.311894 -0.110602 0.291472 88 113 165
-0.231291 0.101993 -0.658902 98 141 43
-0.180105 0.10541 0.569961 105 141 200
0.0638784 0.0603373 -0.346787 136 135 83
0.429359 0.0542977 0.498166 182 134 191
0.155536 -0.108971 -0.28134 147 114 92
-0.246315 -0.111504 -0.187161 96 113 104
0.140959 -0.11137 -0.554527 145 113 57
-0.183405 -0.0528441 0.949549 104 121 249
0.0389362 -0.11159 0.707929 132 113 218
-0.417008 0.0696266 -0.779324 74 136 28
-0.161963 -0.10864 -0.740943 107 114 33
-0.164186 0.0602318 -0.452316 107 135 70
0.367225 0.0934499 -0.372939 174 139 80
0.361858 0.0861871 0.734374 174 138 221
-0.216781 -0.11053 0.781608 100 113 227
0.16665 0.116725 0.0718591 149 142 137
0.1932 0.0992973 0.141949 152 140 146
0.0454298 -0.109874 -0.0012582 133 113 127
0.18006 -0.104069 0.836906 150 114 234
-0.404471 -0.0339364 0.28552 76 123 164
-0.360361 -0.0569404 0.781758 82 120 227
0.333602 -0.108348 -0.265522 170 114 94
-0.129582 -0.110758 0.00298124 111 113 128
-0.387167 -0.0463967 -0.356401 78 122 82
0.15246 0.0603521 -0.367632 147 135 81
-0.341117 0.094055 -0.842574 84 139 20
-0.137143 0.0805707 0.906879 110 138 243
0.230692 -0.0302629 -0.913507 157 124 11
-0.437919 0.0589547 -0.316346 72 135 87
-0.273611 -0.111312 -0.11578 93 113 113
-0.208641 0.100432 -0.796276 101 140 26
-0.0329522 -0.110174 0.00670829 123 113 128
0.279362 0.0599674 -0.299741 163 135 89
-0.330707 0.0969225 -0.708212 85 140 37
-0.0698289 0.0594638 -0.260866 119 135 94
0.0564119 -0.00295451 -0.964847 135 127 4
-0.383199 -0.0521506 0.0439075 79 121 133
-0.0570081 0.0935441 -0.608919 120 139 50
-0.12215 0.1179 -0.0962459 112 143 115
0.18116 -0.110647 -0.389607 151 113 78
-0.063623 -0.112064 -0.627827 119 113 47
0.079394 -0.106201 0.820655 138 114 232
0.0896517 -0.0237933 -0.920928 139 124 10
0.183403 -0.109901 -0.224223 151 113 99
-0.342187 0.096989 -0.290259 84 140 90
0.00373034 0.100613 -0.868673 128 140 17
0.238339 0.0602637 -0.363161 158 135 81
0.251338 0.115796 0.337771 160 142 171
-0.112913 0.093031 -0.708556 113 139 37
0.0952963 0.100416 0.247586 140 140 159
-0.134965 0.0601187 -0.273861 110 135 93
-0.0764022 0.0366786 -0.899024 118 132 13
0.00665138 0.120235 0.418317 128 143 181
-0.0852024 -0.0726753 -0.915175 117 118 11
-0.131372 0.119491 0.092178 111 143 139
0.0408606 -0.10956 0.242777 133 114 158
-0.116708 -0.111609 -0.50066 113 113 64
-0.425928 0.0683214 -0.0836101 73 136 117
-0.0876548 -0.111311 -0.397486 116 113 77
0.171836 -0.109404 0.424529 149 114 182
0.442145 0.0498578 0.178461 184 134 150
0.0845839 -0.110132 -0.11154 138 113 113
-0.417461 -0.0304429 -0.63989 74 124 46
0.43772 -0.0170139 0.00700807 183 125 128
0.0545534 0.11216 0.695794 134 142 216
-0.25027 0.102133 -0.627885 96 141 47
-0.108889 -0.111878 0.673875 114 113 213
0.391965 -0.0887134 -0.167708 177 116 106
-0.127622 -0.110343 0.30964 111 113 167
0.300684 -0.109578 -0.38096 166 114 79
0.336219 0.102694 -0.568379 170 141 55
0.0545803 -0.109528 0.338805 134 114 171
0.172661 0.118004 0.544039 150 143 197
0.0515049 0.0154383 0.998478 134 129 255
0.358458 -0.0691442 -0.729469 173 119 34
0.334983 -0.108007 -0.317818 170 114 87
-0.201453 0.103714 -0.50518 102 141 63
0.178682 0.101661 0.387961 150 140 177
-0.367739 -0.103073 0.127095 81 114 144
0.401438 0.076397 -0.830697 179 137 22
-0.363513 0.0931524 -0.451878 81 139 70
0.194574 0.0607553 -0.489222 152 135 65
-0.349226 -0.108533 0.0332526 83 114 132
-0.0243072 0.101304 0.168002 124 140 149
-0.387828 -0.000782326 0.807007 78 127 230
0.269068 -0.108857 -0.00125532 162 114 127
-0.0976195 -0.111021 -0.203502 115 113 102
0.369595 0.0908537 0.464481 175 139 187
-0.130421 -0.110727 0.512323 111 113 193
0.242044 0.099765 -0.18418 158 140 104
-0.372445 0.0794207 0.728934 80 138 220
0.0311403 0.0852488 0.907869 131 138 243
0.416528 0.0728717 0.234444 181 137 157
-0.0698822 -0.111672 -0.558466 119 113 56
-0.178275 -0.0770749 0.925431 105 118 245
0.446099 -0.00734372 -0.312944 184 127 88
0.434705 0.0269774 0.669538 183 131 213
0.422804 -0.0285527 0.113599 181 124 142
-0.1201 0.113254 0.581783 112 142 202
-0.436732 0.054655 -0.705498 72 134 38
0.0144 0.0787801 -0.668388 129 138 42
0.217627 -0.109373 0.455042 155 114 186
0.404613 -0.0761838 0.239317 179 118 158
0.0270447 -0.11114 -0.464199 131 113 68
0.373571 0.0569324 -0.870038 175 135 17
-0.357904 0.0249739 0.857756 82 131 237
0.085864 0.100319 0.281439 138 140 163
0.382731 -0.0971817 0.104773 176 115 141
0.0558538 0.104847 -0.602086 135 141 51
0.283262 0.102659 0.690843 164 141 216
-0.38303 -0.0469469 -0.499661 79 122 64
-0.263332 -0.111544 -0.387247 94 113 78
-0.106763 0.0744503 0.928546 114 137 246
0.100842 -0.0943371 -0.8692 140 115 17
0.113641 -0.11101 -0.437408 142 113 72
0.111232 0.119938 0.517008 142 143 193
-0.219187 -0.113905 0.648907 100 113 210
-0.202631 -0.111304 -0.0881084 102 113 116
0.169301 -0.109139 0.169215 149 114 149
0.13613 -0.0973631 -0.846776 145 115 20
-0.272089 0.104511 0.375407 93 141 175
-0.149261 -0.111003 -0.243766 108 113 96
0.0435612 -0.109512 0.209428 133 114 154
-0.0578463 0.095237 -0.889688 120 140 14
0.201993 0.107948 -0.630374 153 141 47
0.159899 -0.0142378 -0.919182 148 126 10
-0.163427 -0.106973 -0.761533 107 114 30
0.223677 0.0991787 0.477511 156 140 188
0.335185 0.101806 -0.604135 170 140 50
-0.42909 -0.0249183 -0.325047 73 124 86
-0.311714 0.0982151 -0.854329 88 140 19
-0.333667 -0.0991306 -0.773211 85 115 29
-0.339256 -0.0335698 0.838767 84 123 234
0.137472 -0.102864 -0.800621 145 114 25
-0.0781025 0.100827 0.0575327 118 140 135
-0.248826 -0.119322 0.661897 96 112 212
0.078624 0.101712 -0.178555 138 140 105
-0.23957 0.100965 -0.218873 97 140 100
0.0731253 0.110829 -0.557927 137 142 56
-0.449513 0.0455246 -0.240858 70 133 97
0.368256 -0.0451139 -0.823705 174 122 22
-0.304633 0.100571 -0.503083 89 140 63
-0.457967 0.0198753 -0.27256 69 130 93
-0.386348 -0.0496644 0.142757 78 121 146
-0.169715 0.080973 -0.657034 106 138 44
-0.392475 -0.0445623 -0.291582 77 122 90
-0.00868179 -0.109836 0.314272 126 113 168
0.272808 -0.118948 0.682962 162 112 215
0.153808 0.116449 0.229754 147 142 157
-0.226984 0.119249 0.0798807 99 143 138
0.0848347 -0.0943371 0.891738 138 115 241
-0.406643 -0.0193145 0.686766 76 125 215
-0.344298 0.0977292 0.275923 84 140 163
-0.256576 -0.112601 -0.632557 95 113 47
-0.345597 0.0976636 -0.487189 83 140 65
-0.188164 0.0601726 -0.412751 104 135 75
-0.21747 0.0600951 -0.409948 100 135 75
0.0316984 0.0302803 -0.94894 132 131 7
-0.266624 -0.110775 0.213653 94 113 155
0.0672733 0.102946 -0.757192 136 141 31
0.192273 -0.109183 -0.726916 152 114 35
0.451773 -0.000781529 -0.193373 185 127 103
0.348125 -0.058281 -0.772464 172 120 29
-0.195099 -0.11121 -0.329575 103 113 85
-0.34875 -0.0453354 0.806592 83 122 230
-0.0400604 -0.111532 -0.517095 122 113 62
-0.388686 -0.03754 0.557928 78 123 199
-0.195109 -0.106711 -0.764592 103 114 30
-0.0323318 -0.111336 -0.4716 123 113 67
0.116561 0.0603101 -0.313474 142 135 88
0.213228 -0.113489 -0.544775 155 113 58
0.43282 0.0645301 -0.139129 183 136 110
0.43441 -0.0208327 -0.196511 183 125 102
-0.378343 -0.0984604 0.20707 79 115 154
-0.0948465 0.117365 0.558843 115 142 199
-0.07231 0.113934 0.755624 118 142 224
0.101631 0.114376 0.463897 140 142 187
-0.414845 -0.0279618 0.267736 75 124 162
0.222422 0.100052 -0.868462 156 140 17
0.0727919 0.101016 -0.0672596 137 140 119
0.127775 0.0142833 -0.99687 144 129 0
0.359693 0.0966748 -0.405909 173 140 76
-0.0979605 -0.110437 -0.273414 115 113 93
0.056903 0.0345776 -0.969978 135 132 4
0.424981 -0.0267228 -0.326271 182 124 86
-0.151967 0.111738 0.244365 108 142 159
-0.430139 0.00945308 0.548716 73 129 197
0.325673 -0.109053 0.603508 169 114 204
0.222676 -0.0931133 0.886347 156 116 241
0.369906 0.0937891 -0.0886438 175 139 116
0.209186 0.0990137 0.638185 154 140 209
0.0259706 -0.0975052 -0.845878 131 115 20
-0.184785 0.0669772 -0.487499 104 136 65
-0.208228 -0.110595 0.365953 101 113 174
0.26745 -0.109237 -0.0877396 162 114 116
-0.0862273 -0.107807 0.808844 117 114 231
0.349063 -0.106527 -0.0572607 172 114 120
0.237633 0.112628 0.727749 158 142 220
0.223877 0.0607526 -0.466167 156 135 68
-0.0631285 0.10071 0.161633 119 140 148
-0.447632 0.00383941 0.0867012 70 128 139
-0.370883 -0.0252728 0.799643 80 124 229
-0.282308 -0.111973 -0.663397 92 113 43
-0.0791548 0.101983 0.28978 117 141 164
-0.434597 0.0613114 -0.414645 72 135 75
-0.197783 -0.0108636 0.971351 102 126 251
-0.151829 0.0596984 -0.484388 108 135 66
-0.39367 -0.0847274 0.280836 77 117 163
-0.191309 0.0990428 0.659444 103 140 212
-0.321672 -0.109953 0.0980349 86 113 140
0.256925 -0.109268 0.473422 160 114 188
-0.393787 -0.0868824 0.0653113 77 116 136
0.39456 -0.0428639 0.109109 178 122 141
0.115526 -0.111029 0.647895 142 113 210
-0.217475 0.0703494 -0.887947 100 136 14
0.0668166 0.0973113 0.83449 136 140 234
-0.186884 0.0600165 -0.891344 104 135 14
0.253779 0.106 -0.652298 160 141 44
-0.200452 -0.112725 0.706568 102 113 218
0.0157725 -0.109661 0.255999 130 114 160
0.265387 0.108571 -0.545545 161 141 58
0.029789 -0.111188 -0.427012 131 113 73
-0.258525 0.10433 0.722472 95 141 220
-0.0566218 -0.1099 0.20375 120 113 153
-0.426117 0.0676279 -0.0278493 73 136 124
-0.131685 0.0782593 -0.668833 111 137 42
0.0999847 0.0304026 -0.944001 140 131 7
-0.329447 0.0318613 -0.894498 85 132 13
0.288979 -0.116999 0.712238 164 113 218
-0.173728 0.104079 -0.0757734 105 141 118
-0.224912 0.112692 0.235832 99 142 158
0.00290557 -0.110642 -0.701772 128 113 38
0.142927 0.118203 0.75194 146 143 223
-0.0378416 -0.1102 0.482126 123 113 189
-0.381979 0.0880691 0.0993041 79 139 140
-0.232918 -0.11073 0.202765 98 113 153
0.124417 -0.0478273 0.965123 143 121 251
0.373046 -0.0495384 -0.415135 175 121 75
-0.118647 0.11997 0.526127 112 143 195
0.103241 0.0853836 0.905342 141 138 243
-0.154196 0.118158 -0.00141573 108 143 127
0.257962 0.115745 0.0670622 160 142 136
0.0828303 0.111273 0.773962 138 142 226
0.271644 0.111364 0.605756 162 142 205
-0.098674 -0.112089 -0.65754 115 113 44
0.232572 0.103398 -0.728878 157 141 35
-0.228281 0.118544 -0.0295027 98 143 124
-0.28532 -0.112124 -0.599179 91 113 51
0.263709 0.0361153 -0.892442 161 132 14
0.40979 -0.0313883 0.502058 180 123 192
-0.34408 0.0975506 0.0913583 84 140 139
0.362005 -0.10393 0.0715791 174 114 137
-0.363372 0.0940194 0.226633 81 139 156
-0.324971 0.099596 0.181561 86 140 151
-0.302951 -0.00262997 0.899675 89 127 242
0.164436 0.103462 0.169932 148 141 149
-0.108648 -0.110298 0.228289 114 113 157
0.0891767 0.117673 0.297142 139 143 165
-0.364161 -0.104332 -0.0600084 81 114 120
0.160713 -0.100819 -0.818763 148 115 23
0.258105 0.100005 -0.859963 160 140 18
-0.246231 0.0787915 0.883594 96 138 240
-0.146366 0.073674 -0.24455 109 137 96
-0.354246 -0.0696064 -0.76706 82 119 30
0.0355011 0.0981301 0.727884 132 140 220
-0.330769 0.0939596 0.725996 85 139 220
0.445258 -0.00918206 -0.261202 184 126 94
0.310808 0.0988169 0.460984 167 140 186
0.196934 -0.111462 -0.579083 153 113 54
-0.156212 0.060001 -0.349359 108 135 83
-0.0686966 0.101284 -0.0551093 119 140 120
0.1524 -0.11102 0.644417 147 113 210
0.203853 0.110818 -0.517895 153 142 61
-0.0601969 0.101952 -0.740112 120 140 33
-0.379059 -0.0838398 0.638194 79 117 209
-0.138429 -0.11039 0.349376 110 113 172
0.169613 0.035628 -0.944934 149 132 7
0.105286 -0.109681 -0.0130336 141 114 126
-0.19523 -0.111065 0.530762 103 113 195
-0.203356 0.100149 0.182087 102 140 151
-0.333027 0.0982207 -0.196031 85 140 103
-0.366617 -0.0756138 -0.597715 81 118 51
-0.150561 -0.11056 0.215908 108 113 155
0.141821 0.100818 -0.174753 146 140 105
0.443984 -0.0025707 0.240479 184 127 158
0.339661 0.0998394 -0.639688 171 140 46
-0.125371 -0.0265469 0.978255 112 124 252
-0.285003 0.117422 0.743791 91 142 222
-0.434156 0.0495612 0.282523 72 134 164
0.22017 -0.108776 0.252605 156 114 160
-0.134491 -0.110453 0.397192 110 113 178
-0.136404 0.115533 0.386806 110 142 177
0.0932285 0.0121051 0.995358 139 129 254
0.146229 0.0603133 -0.401475 146 135 76
0.401277 -0.035683 0.57259 179 123 201
0.371188 -0.0887429 -0.566343 175 116 55
-0.223368 0.102095 0.27504 99 141 163
0.310921 -0.108513 -0.0573551 167 114 120
-0.0588865 -0.109906 0.372948 120 113 175
-0.246273 0.0598935 -0.431874 96 135 72
0.133476 0.0980644 -0.136106 145 140 110
-0.378464 -0.069381 0.675302 79 119 214
0.0700404 -0.0852766 0.923094 136 117 245
-0.318722 0.0661352 -0.29464 87 136 90
0.14612 -0.110846 -0.416486 146 113 74
0.274365 0.108813 0.270032 162 141 162
0.351992 -0.0692967 -0.824058 172 119 22
0.252653 0.0601817 -0.276716 160 135 92
0.241153 0.10227 -0.75235 158 141 32
0.190067 -0.0507172 0.950998 152 121 249
-0.454297 0.012381 -0.55705 70 129 56
0.42151 0.0716494 -0.3478 181 137 83
0.35773 -0.09912 0.740873 173 115 222
-0.377437 0.0815052 0.600697 79 138 204
0.216007 0.100272 0.510432 155 140 193
0.0266855 -0.111798 -0.593342 131 113 52
-0.415774 0.0721168 -0.626658 74 137 48
0.0806613 0.0864685 -0.243475 138 139 96
-0.0773089 0.100517 -0.866158 118 140 17
0.113615 -0.0989451 -0.834115 142 115 21
0.439914 -0.0156769 -0.129871 184 126 111
-0.186101 -0.111174 -0.0504621 104 113 121
-0.396297 -0.040574 -0.665592 77 122 43
-0.162531 -0.110617 0.177701 107 113 150
0.100171 -0.110208 0.562503 140 113 199
-0.0936697 0.118549 0.10457 116 143 141
-0.0308345 0.101984 -0.739614 124 141 33
-0.331162 -0.110675 0.071521 85 113 137
0.388216 0.0869899 0.209454 177 139 154
0.175412 -0.109928 -0.330464 150 113 85
0.231778 -0.109046 0.416335 157 114 181
0.126145 -0.109524 -0.308084 144 114 88
0.419737 0.057043 0.6594 181 135 212
-0.0660739 -0.110748 -0.337955 119 113 84
0.19248 0.113944 -0.108767 152 142 114
0.451762 0.0201413 -0.567374 185 130 55
0.376153 0.0895057 -0.567396 175 139 55
-0.10471 0.119738 -0.121991 114 143 112
-0.249468 -0.11053 0.298545 96 113 166
-0.377482 -0.0694693 -0.418382 79 119 74
0.192825 0.0993843 0.0759247 152 140 137
0.208524 0.0983213 0.750492 154 140 223
0.274012 -0.117198 0.642718 162 113 209
-0.389156 0.0751184 0.659732 78 137 212
-0.0151356 -0.110055 0.041416 126 113 133
0.451286 0.00485013 -0.444627 185 128 71
0.0777575 -0.108882 0.789386 137 114 228
0.142257 0.0594493 -0.250613 146 135 96
0.289284 -0.109172 -0.198294 164 114 102
0.0202742 -0.1027 0.848754 130 114 236
-0.34267 -0.0128232 0.858249 84 126 237
0.289167 -0.108787 0.411014 164 114 180
0.124618 -0.109457 0.0652008 143 114 136
-0.150325 0.037212 -0.8979 108 132 13
0.182302 -0.110374 0.580632 151 113 202
0.262273 -0.0455319 0.931365 161 122 246
-0.427451 -0.0252737 -0.102329 73 124 114
-0.328253 -0.110211 0.313819 86 113 168
-0.0607673 -0.109969 0.309509 120 113 167
0.288254 -0.108567 0.361727 164 114 174
0.314957 0.0630136 -0.414872 168 136 75
0.00611077 -0.00320799 -0.977261 128 127 3
0.329057 -0.057581 -0.677004 169 120 41
-0.0479401 -0.110412 -0.0528011 121 113 121
0.150091 0.10086 -0.213582 147 140 100
-0.240439 -0.112159 0.753294 97 113 224
0.197915 -0.0875371 -0.901958 153 116 13
-0.220803 0.114417 0.740931 99 142 222
0.0893859 0.0957754 -0.711025 139 140 37
0.366091 -0.0688183 -0.630569 174 119 47
0.45394 0.00862127 0.0311808 185 129 131
0.140104 -0.110705 -0.389584 145 113 78
0.12026 0.118488 0.0752824 143 143 137
-0.449854 0.0410073 -0.526871 70 133 60
-0.186766 0.104294 0.0129962 104 141 129
0.1316 0.119091 0.427908 144 143 182
0.0140191 0.108897 -0.588539 129 141 52
0.00483552 0.10285 0.822296 128 141 232
0.358367 0.0944706 0.416544 173 140 181
0.0411995 -0.110101 -0.314854 133 113 87
0.378081 -0.050492 -0.0953233 176 121 115
-0.323127 0.0981066 -0.249624 86 140 96
-0.101812 -0.110599 0.50575 115 113 192
0.0243876 -0.110231 0.546397 131 113 197
0.350122 -0.103736 -0.497049 172 114 64
-0.127223 0.0748256 0.925426 111 137 245
0.33454 0.00836393 -0.906654 170 129 12
0.000164277 0.118912 0.436959 128 143 183
-0.343763 0.0929823 0.676278 84 139 214
0.0753756 0.0602388 -0.319116 137 135 87
-0.121235 -0.0921453 -0.885063 112 116 15
0.0346774 -0.111572 -0.55185 132 113 57
0.452137 4.64845e-05 -0.129762 185 128 111
0.366867 -0.0376706 -0.86618 174 123 17
0.16428 0.106216 0.350185 148 141 172
-0.206176 -0.0993237 0.864829 101 115 238
0.08579 0.0761849 0.92796 138 137 246
-0.0653824 -0.110767 -0.23256 119 113 98
-0.346087 -0.10862 0.230419 83 114 157
-0.293694 0.101131 -0.620537 90 140 48
-0.336473 -0.108522 0.591746 85 114 203
0.131423 0.101199 -0.204879 144 140 101
-0.00738948 -0.110686 0.605592 127 113 205
-0.138848 -0.110711 0.0268722 110 113 131
-0.213913 0.118289 0.404015 100 143 179
-0.3146 0.0605201 -0.453805 87 135 70
0.162103 -0.109572 -0.0255953 148 114 124
-0.0780154 -0.110996 -0.17206 118 113 106
0.188716 0.101467 -0.803769 152 140 25
-0.054694 -0.110203 0.0263417 121 113 131
0.144952 0.0915323 0.882699 146 139 240
-0.425715 0.0686281 -0.265406 73 136 94
0.266471 0.119723 0.510295 161 143 193
0.274796 0.0608735 -0.25388 163 135 95
-0.455688 0.0265142 -0.0826782 69 131 117
-0.130339 0.118579 0.547089 111 143 197
-0.132495 -0.110586 0.472635 111 113 188
0.431562 0.0392277 -0.858746 183 133 18
0.229019 -0.110042 0.545502 157 113 197
0.0368881 -0.109686 0.409397 132 114 180
0.0122689 0.119498 0.213697 129 143 155
-0.451173 0.00921786 -0.666467 70 129 43
0.207459 -0.111672 -0.630087 154 113 47
-0.0419781 -0.111344 0.660197 122 113 212
0.263094 -0.111147 -0.681453 161 113 41
-0.434417 0.0442371 0.357778 72 133 173
0.0931883 -0.00289977 -0.960501 139 127 5
-0.140238 0.033087 0.976923 110 132 252
0.335609 0.0109982 0.88666 170 129 241
0.26215 0.101255 0.24554 161 140 159
0.220302 0.109877 0.073295 156 142 137
-0.189505 0.101464 -0.168152 103 140 106
-0.0800161 0.0554532 0.953467 117 135 249
-0.385684 0.0866218 -0.49431 78 139 64
-0.207297 0.115301 0.539925 101 142 196
0.185936 -0.110243 -0.349464 151 113 83
-0.291355 0.100208 -0.696259 90 140 39
0.194374 0.108173 -0.0636955 152 141 119
0.33569 0.102656 -0.437157 170 141 72
0.0093106 -0.109611 -0.301765 129 114 89
0.0045833 -0.0962678 0.884053 128 115 240
-0.0422268 -0.0537684 0.966652 122 121 251
0.159225 -0.109179 0.272068 148 114 162
0.410997 -0.0227141 0.713348 180 125 218
-0.0754172 -0.110178 0.416672 118 113 181
0.226861 -0.0698826 -0.909607 156 119 12
-0.258908 0.118915 -0.0155359 94 143 126
0.242174 0.109381 -0.540734 158 141 59
0.0680388 0.100661 -0.0216411 136 140 125
-0.213698 -0.110611 -0.287445 100 113 91
0.100214 0.102498 0.138927 140 141 145
0.00314358 -0.0335296 0.981583 128 123 253
-0.171506 0.115903 0.336891 106 142 170
0.44783 0.0459238 0.0535558 185 133 134
-0.30243 -0.102275 -0.798081 89 114 26
0.231835 0.118641 0.201847 157 143 153
-0.363637 0.0941403 0.167627 81 140 149
0.379965 0.0897203 0.275578 176 139 163
0.357555 0.0987449 -0.473042 173 140 67
-0.427414 -0.0254791 -0.491004 73 124 65
-0.288961 0.0995035 0.589872 91 140 203
-0.294754 -0.111169 -0.0290041 90 113 124
-0.167005 -0.110887 0.01814 106 113 130
0.347567 -0.0581892 -0.444564 172 120 71
0.298372 0.113596 0.785699 166 142 228
-0.446762 0.0249639 0.216363 71 131 155
-0.378444 -0.0540845 0.519965 79 121 194
-0.16673 0.0307219 -0.915627 106 131 11
-0.359624 -0.0990138 -0.565111 82 115 55
0.312997 0.0700553 -0.880573 167 136 15
0.336997 -0.108441 0.479136 170 114 189
-0.328623 0.0975236 0.58539 86 140 202
0.435419 0.0594707 -0.478258 183 135 67
0.0990895 -0.0824056 -0.910887 140 117 11
-0.136295 -0.11213 0.705122 110 113 217
0.28219 -0.114148 0.62022 163 113 207
-0.418594 0.0712011 0.103286 74 137 141
0.290653 0.116054 0.224989 165 142 156
0.431683 -0.0213966 -0.347763 183 125 83
0.235359 0.0753562 0.898906 158 137 242
-0.369382 0.0890853 0.472702 80 139 188
-0.0120889 0.102589 -0.20321 126 141 102
-0.123203 0.10111 -0.791964 112 140 27
0.284386 0.114103 -0.0382707 164 142 123
0.00358293 -0.109791 0.115054 128 114 142
-0.0410649 0.102157 -0.158666 122 141 107
-0.262344 0.120596 -0.131836 94 143 111
0.426833 0.0556894 0.529019 182 135 195
0.343685 0.0981764 -0.00782976 171 140 127
-0.160884 0.119506 0.529751 107 143 195
-0.258495 0.102091 0.580579 95 141 202
-0.263973 0.100393 -0.736355 94 140 34
-0.277362 0.0582368 0.899628 92 135 242
0.0454025 -0.0991214 -0.833402 133 115 21
-0.225912 0.0232135 0.957729 99 130 250
0.293298 0.0600664 -0.438331 165 135 72
0.211498 0.0993132 0.125231 154 140 143
0.431902 -0.00929922 0.503686 183 126 192
0.267113 0.104334 -0.687212 162 141 40
-0.215361 0.0999657 0.137862 100 140 145
0.0797568 -0.0994583 -0.829911 138 115 22
0.077141 -0.0536619 -0.91838 137 121 10
-0.0107382 0.0185957 -0.999803 126 130 0
0.271901 -0.108981 -0.0421215 162 114 122
-0.0389397 0.0350375 -0.973692 123 132 3
-0.35017 0.0548138 -0.870981 83 134 16
-0.18027 0.090274 -0.886564 105 139 14
0.416717 0.0690069 0.438004 181 136 183
-0.0536993 -0.110697 -0.132393 121 113 111
-0.294542 -0.111854 0.721748 90 113 220
0.0851595 -0.105417 -0.774466 138 114 29
0.400474 -0.0394621 -0.390649 179 122 78
0.0228702 0.116467 0.127985 130 142 144
-0.186612 0.100919 0.293229 104 140 165
-0.0795565 -0.111831 0.721647 117 113 220
-0.359823 -0.0101688 -0.870751 82 126 16
0.262366 -0.0625268 -0.907556 161 120 12
-0.182306 -0.111259 -0.133492 104 113 110
-0.17612 0.100302 0.386527 105 140 177
-0.389169 -0.092539 -0.0188706 78 116 125
0.23463 -0.117481 -0.536875 157 113 59
0.443592 -0.00205844 0.269203 184 127 162
0.312172 -0.108192 0.165762 167 114 149
-0.198725 0.100449 0.327616 102 140 169
-0.000750539 -0.110497 -0.237387 127 113 97
0.00787509 0.118895 0.629766 129 143 208
-0.145802 -0.110633 0.091198 109 113 139
0.260863 -0.11066 0.763173 161 113 225
-0.0379411 0.108135 -0.57797 123 141 54
-0.00862505 0.0431653 -0.9008 126 133 13
0.232988 0.0996205 0.607882 157 140 205
0.250556 -0.117147 0.642947 159 113 209
0.366842 -0.0622725 0.188351 174 120 152
0.170771 -0.111391 -0.563707 149 113 56
-0.266215 0.0602869 -0.467561 94 135 68
0.283983 0.0470407 -0.886298 164 133 14
-0.056285 -0.110127 0.10252 120 113 141
0.0905254 -0.109387 0.268486 139 114 162
0.4188 0.0735916 -0.307367 181 137 88
-0.0583044 0.0139065 -0.999018 120 129 0
-0.0344787 0.101533 0.142178 123 140 146
0.385694 -0.0950205 -0.118654 177 115 112
0.445329 0.0405175 -0.64863 184 133 45
-0.126858 -0.111536 -0.454472 111 113 70
0.292425 0.098358 -0.176301 165 140 105
-0.384184 -0.0939823 -0.189761 79 116 103
0.189241 0.109484 -0.0124093 152 141 126
0.237261 -0.110641 -0.411588 158 113 75
0.243704 -0.108964 0.0274371 159 114 131
-0.361631 0.0935216 -0.497596 81 139 64
-0.418425 -0.0284065 -0.751383 74 124 32
-0.261743 0.115311 0.172369 94 142 149
0.0317108 0.10988 -0.567442 132 142 55
0.379763 0.0858554 0.529944 176 138 195
-0.179801 0.100823 -0.778881 105 140 28
0.076802 0.0602159 -0.269719 137 135 93
0.268998 0.0602958 -0.39514 162 135 77
-0.0825371 0.117071 -0.111363 117 142 113
-0.038561 -0.110705 -0.342471 123 113 84
-0.156633 0.119685 -0.115277 108 143 113
0.0734045 -0.110961 0.647321 137 113 210
0.126912 -0.111979 -0.631675 144 113 47
0.195978 -0.110895 -0.466593 152 113 68
-0.300574 0.110374 0.799448 89 142 229
-0.0502281 0.112685 0.774088 121 142 226
0.0595679 -0.0216031 -0.921863 135 125 10
0.231152 0.108225 -0.597322 157 141 51
0.240897 -0.110544 -0.450197 158 113 70
0.137025 0.0367748 0.959966 145 132 250
0.00958425 -0.102048 -0.808267 129 114 24
-0.0677957 0.0794121 -0.671387 119 138 42
-0.285559 -0.110367 -0.697404 91 113 39
-0.0947428 -0.0992424 0.871052 115 115 239
0.0169189 -0.109137 0.786959 130 114 228
-0.227313 0.0596999 -0.469048 99 135 68
0.243881 0.111899 0.797598 159 142 229
0.141194 -0.109946 -0.131273 146 113 111
0.170082 -0.0793954 0.924423 149 117 245
-0.326744 -0.110155 0.136179 86 113 145
0.399089 -0.0597237 0.0233444 178 120 130
-0.207066 0.111702 0.217553 101 142 155
0.275058 0.0794941 0.868484 163 138 238
-0.359992 -0.0670595 -0.62848 82 119 47
0.400798 -0.0580274 0.245078 179 120 159
-0.0518114 0.0957278 -0.491854 121 140 65
-0.368657 -0.0927089 -0.5338 80 116 59
-0.294588 -0.110881 0.124308 90 113 143
0.376505 -0.0496379 -0.287956 176 121 91
-0.173433 -0.110519 0.283709 105 113 164
0.103017 -0.10981 -0.0526345 141 113 121
0.399397 0.0229294 0.812173 178 130 231
0.06499 -0.110266 -0.24048 136 113 97
-0.349464 -0.0852634 0.797269 83 117 229
-0.403177 0.0425247 0.765423 76 133 225
0.284562 -0.108437 0.259585 164 114 161
0.0334842 0.102387 -0.74157 132 141 33
-0.185732 0.112639 -0.12206 104 142 112
-0.27815 -0.11067 0.374021 92 113 175
-0.0808163 0.0349855 -0.972776 117 132 3
0.17114 0.0649119 -0.491832 149 136 65
-0.373369 -0.0452626 0.634189 80 122 208
-0.0823742 0.09867 0.729301 117 140 220
0.152686 0.0998126 0.147658 147 140 146
-0.145109 -0.0500634 0.95979 109 121 250
-0.385555 0.0863977 0.161953 78 139 148
-0.0163229 0.0600392 -0.435462 125 135 72
-0.214938 0.100194 -0.834181 100 140 21
0.316689 -0.109922 -0.638296 168 113 46
-0.304078 0.0164721 0.904778 89 130 243
-0.267576 0.118422 0.216592 93 143 155
0.370163 -0.0828863 0.781396 175 117 227
-0.284125 0.0968078 -0.496073 91 140 64
-0.173488 0.0604048 -0.316834 105 135 87
-0.133044 -0.111122 0.568065 111 113 200
0.28985 -0.0936216 -0.872994 164 116 16
0.0536177 0.0790406 -0.630017 134 138 47
-0.352702 -0.105938 0.381362 83 114 176
-0.279757 0.0996143 -0.779215 92 140 28
0.262852 0.10818 -0.507829 161 141 63
0.43017 -0.0207086 -0.460371 182 125 69
0.314083 0.117178 -0.056731 168 142 120
-0.0615996 0.0976018 0.807872 120 140 231
-0.102974 -0.111525 0.743124 114 113 222
-0.0308491 -0.110713 -0.211704 124 113 101
0.059927 -0.0864839 -0.907973 135 116 12
0.454709 0.0374807 -0.111948 185 132 113
0.324715 -0.0907959 -0.858704 169 116 18
-0.168064 -0.110752 0.457722 106 113 186
0.30407 -0.11038 -0.578457 166 113 54
-0.129778 0.102204 -0.197461 111 141 102
-0.0671377 -0.0028822 -0.952087 119 127 6
0.208374 0.0601322 -0.428965 154 135 73
-0.214019 -0.0948307 0.884225 100 115 240
-0.207149 -0.111818 0.614315 101 113 206
0.304637 0.106712 -0.550777 166 141 57
0.213683 -0.103456 -0.795239 155 114 26
0.146033 0.0351936 -0.973081 146 132 3
0.285994 0.12026 0.385725 164 143 177
0.454643 0.0377526 -0.135366 185 132 110
0.0512661 -0.109695 0.0290913 134 114 131
0.0204135 0.111556 0.502246 130 142 192
-0.0699601 0.0938606 -0.709357 119 139 37
0.412114 0.0752828 -0.511924 180 137 62
-0.0780615 0.0715281 0.935742 118 137 247
0.448178 0.0147996 0.313269 185 129 167
0.171775 -0.0967633 -0.851659 149 115 19
-0.448708 0.0291087 0.148602 70 131 146
-0.00200223 -0.109964 0.00528572 127 113 128
0.401393 0.0800665 -0.557018 179 138 56
0.391671 -0.0839835 0.607569 177 117 205
-0.130039 -0.0951965 -0.863814 111 115 17
-0.293674 -0.110866 0.439635 90 113 184
-0.0137831 -0.0536007 -0.919011 126 121 10
0.183799 0.117188 0.404782 151 142 179
-0.332863 -0.10986 0.443397 85 113 184
-0.240522 0.120311 0.392183 97 143 178
0.00200601 0.100357 0.376383 128 140 175
0.148205 0.100376 0.266368 146 140 161
0.233274 -0.111634 0.734835 157 113 221
0.302939 -0.113685 0.652667 166 113 211
-0.177631 0.0600855 -0.295694 105 135 90
0.146656 -0.111685 -0.597407 146 113 51
0.291131 0.100629 -0.220753 165 140 99
0.0492192 0.120463 0.405857 134 143 179
-0.173443 0.118601 0.0932823 105 143 139
0.203875 0.0294339 -0.936174 153 131 8
0.0335382 0.113171 0.0705747 132 142 136
0.187239 -0.109078 0.0951107 151 114 140
-0.0630102 -0.110535 0.544787 119 113 197
0.0965977 -0.110683 0.615882 140 113 206
0.191629 -0.109035 0.313039 152 114 167
-0.372077 -0.0977616 -0.36014 80 115 82
0.392573 -0.0881287 0.495611 178 116 191
-0.243616 0.100255 -0.770889 96 140 29
0.23053 -0.111495 -0.666176 157 113 43
-0.0858326 -0.110108 0.340399 117 113 171
-0.131807 0.118892 0.320813 111 143 168
-0.0134234 0.111158 0.27977 126 142 163
-0.156587 0.087304 -0.60905 108 139 50
0.283038 0.0899529 -0.879548 164 139 15
-0.218299 0.10304 -0.60803 100 141 50
0.408165 0.0775835 0.29421 180 137 165
0.170949 0.0912166 -0.646417 149 139 45
0.0180025 -0.111307 -0.481282 130 113 66
-0.0528516 0.108071 0.689497 121 141 215
0.233996 0.119108 0.509894 157 143 193
0.216756 0.11245 0.649728 155 142 210
0.37917 0.0886745 0.37997 176 139 176
0.171829 0.107127 0.241773 149 141 158
0.164748 -0.10979 0.510148 149 114 193
0.421918 -0.0299725 0.040061 181 124 133
0.0283921 0.119216 0.630757 131 143 208
-0.247006 -0.1112 -0.280751 96 113 92
-0.363281 -0.076105 0.775116 81 118 226
0.327879 -0.0683847 -0.467133 169 119 68
-0.452304 0.0114833 0.0322389 70 129 132
0.359345 -0.066161 -0.682085 173 119 41
0.101664 0.114833 0.739993 140 142 222
-0.0666601 0.0302987 -0.943851 119 131 7
-0.237086 -0.111065 0.774856 97 113 226
-0.0759523 0.105487 0.124254 118 141 143
-0.31097 0.105973 0.509341 88 141 192
0.0609239 -0.0992762 0.86839 135 115 238
-0.140268 0.078319 -0.644442 110 137 45
-0.427704 0.0670529 -0.351933 73 136 83
0.0855187 0.113778 0.681152 138 142 214
0.0736951 0.100341 0.338159 137 140 171
0.0994302 -0.110769 -0.699394 140 113 38
-0.286157 0.117971 0.431222 91 143 182
-0.300861 0.00729463 -0.908738 89 128 12
0.0547227 0.111173 -0.536241 134 142 59
-0.152292 0.105139 0.170532 108 141 149
-0.411552 0.0726613 0.265225 75 137 161
0.248639 0.117774 0.746626 159 143 223
-0.080826 -0.111581 -0.516965 117 113 62
0.142765 0.11029 -0.576866 146 142 54
-0.269561 0.0919444 -0.877076 93 139 16
0.239897 0.103279 0.377482 158 141 176
-0.404553 0.0771081 -0.691945 76 137 39
0.263388 0.117736 0.0947889 161 143 140
-0.175179 0.118904 0.194055 105 143 152
0.0479226 0.119088 0.314478 134 143 168
0.193592 0.108332 0.103154 152 141 141
-0.154649 0.10742 -0.0419356 108 141 122
-0.255396 -0.111338 -0.0709086 95 113 118
-0.108166 -0.11133 -0.398273 114 113 77
0.191419 0.100892 -0.831942 152 140 21
0.302195 0.101635 -0.71013 166 140 37
0.15449 0.105519 0.612027 147 141 206
-0.241031 -0.1119 -0.479652 97 113 66
0.395376 -0.0423154 0.225575 178 122 156
-0.335849 -0.101139 -0.747276 85 115 32
-0.0361146 0.0623227 0.949363 123 135 249
0.327346 0.099614 -0.216101 169 140 100
0.442679 0.00792429 -0.765495 184 129 30
-0.456645 0.0249168 -0.4248 69 131 73
-0.0899915 0.11484 0.182289 116 142 151
-0.214943 -0.110598 0.209314 100 113 154
0.30258 0.0994378 0.248387 166 140 159
-0.358287 -0.101845 0.568305 82 115 200
0.231677 0.110007 -0.523538 157 142 61
-0.349706 -0.0725577 -0.828038 83 118 22
-0.187503 0.104641 0.118216 104 141 143
-0.162792 -0.110888 0.534445 107 113 196
0.344283 0.0897609 0.754791 171 139 224
-0.25132 -0.111274 -0.340969 95 113 84
0.0396058 0.100359 0.375492 133 140 175
-0.445196 0.0371962 -0.813308 71 132 24
0.19862 -0.10924 -0.0138055 153 114 126
0.0344727 0.0992815 0.609934 132 140 205
0.126042 0.117054 0.114928 144 142 142
-0.399348 -0.0395494 -0.64156 77 122 46
0.184002 0.0981984 -0.171789 151 140 106
-0.107846 0.114637 0.241735 114 142 158
0.373797 -0.0679448 -0.533526 175 119 59
-0.414209 0.0673162 0.377674 75 136 176
0.152723 -0.109183 0.313347 147 114 167
-0.326559 -0.110195 0.173875 86 113 150
-0.225266 -0.112485 0.741222 99 113 222
-0.408787 -0.0361461 0.0299239 75 123 131
-0.341279 -0.109186 -0.206303 84 114 101
-0.0346649 -0.0917238 -0.888042 123 116 14
0.376802 -0.045053 -0.634025 176 122 47
0.4127 0.0720919 -0.712342 180 137 37
-0.365662 -0.00204409 0.841372 81 127 235
0.384149 0.0497917 0.816599 176 134 232
0.188993 -0.111554 -0.596619 152 113 51
-0.242443 -0.111052 0.0135372 97 113 129
-0.139489 0.12008 -0.127422 110 143 111
0.363135 -0.0524955 0.742488 174 121 222
0.188799 0.0948891 0.857022 152 140 237
0.147384 -0.111068 -0.488725 146 113 65
-0.0362248 -0.0970713 -0.849097 123 115 19
0.366482 0.0933658 -0.53748 174 139 59
-0.329612 0.0992313 0.15981 85 140 148
-0.231228 -0.11089 0.0771246 98 113 137
0.0210255 0.000482845 -0.992974 130 128 1
-0.342635 0.0976459 0.00166469 84 140 128
0.452364 0.0343821 -0.467944 185 132 68
0.300116 -0.103635 -0.784435 166 114 27
0.414212 0.0743611 -0.485199 180 137 66
-0.0878145 -0.0878927 0.912983 116 116 244
-0.207562 -0.107343 0.81846 101 114 232
0.14583 0.119635 0.524238 146 143 194
0.267625 -0.106306 -0.764651 162 114 30
-0.449773 0.0364467 0.0605448 70 132 135
0.278883 0.118853 0.307265 163 143 167
-0.375072 -0.100364 -0.123161 80 115 112
0.326367 -0.0957418 -0.817445 169 115 23
0.157888 0.07953 -0.61429 148 138 49
-0.332053 -0.109875 0.479526 85 113 189
0.350108 0.0952873 0.49643 172 140 191
0.047418 -0.110964 -0.387241 134 113 78
0.32392 0.0355948 -0.886528 169 132 14
-0.140181 -0.111857 -0.525888 110 113 60
0.21808 0.00804048 0.973388 155 129 252
0.350512 -0.0921115 -0.766636 172 116 30
0.316431 -0.108591 0.396175 168 114 178
0.163437 -0.00243098 -0.937389 148 127 8
0.365832 -0.0630341 0.123029 174 119 143
0.36002 0.0906893 0.637121 173 139 209
-0.116288 -0.110525 -0.268259 113 113 93
0.244022 -0.109535 0.502623 159 114 192
-0.353435 -0.107246 -0.0955054 82 114 115
-0.152416 -0.111213 -0.138563 108 113 110
-0.0614268 -0.111575 -0.528034 120 113 60
-0.180825 -0.11231 -0.606182 104 113 50
0.0462997 -0.10981 0.468166 133 113 187
0.139975 -0.104878 0.831943 145 114 234
-0.172938 -0.0659529 0.939894 105 119 247
0.396257 0.0732249 0.716227 178 137 219
-0.181163 0.104165 -0.586998 104 141 53
0.397836 -0.0860752 0.394199 178 117 178
0.0148954 0.060265 -0.352512 129 135 83
-0.220558 0.100695 -0.752015 99 140 32
0.396243 -0.0619876 -0.111495 178 120 113
-0.381331 -0.0978823 0.0871547 79 115 139
-0.362256 0.0882042 0.633211 81 139 208
0.112989 0.103599 -0.737831 142 141 33
-0.0131921 -0.109895 0.157418 126 113 148
-0.399934 0.0753224 0.464489 77 137 187
-0.181907 -0.110608 0.266715 104 113 162
0.193977 -0.111674 -0.663909 152 113 43
-0.334124 -0.108835 -0.399983 85 114 77
-0.302585 -0.104266 -0.779017 89 114 28
0.162796 -0.11064 -0.381841 148 113 79
-0.282977 0.113416 0.275347 91 142 163
-0.306115 -0.111773 -0.596168 88 113 51
0.047675 0.115085 -0.127709 134 142 111
-0.140861 0.10456 0.58678 110 141 202
0.102075 0.0690599 -0.245383 141 136 96
-0.177965 0.0789573 0.906533 105 138 243
-0.114926 -0.110242 0.27386 113 113 162
-0.416248 0.0155462 -0.863111 74 129 17
0.259478 0.109861 0.132686 161 142 144
-0.0621306 -0.111372 -0.437163 120 113 72
-0.348917 -0.104405 -0.498481 83 114 64
0.391121 -0.0464163 0.284797 177 122 164
0.403868 -0.040665 0.0165844 179 122 130
-0.26279 0.059522 -0.263375 94 135 94
0.228584 0.111443 0.676047 157 142 214
-0.033853 -0.103375 0.845274 123 114 235
-0.418567 0.0713363 -0.543956 74 137 58
-0.0407205 0.0602044 -0.465571 122 135 68
0.335123 0.0986411 0.271901 170 140 162
-0.257277 -0.11146 -0.170366 95 113 106
0.0463236 0.100046 -0.23192 133 140 98
-0.219306 -0.0729276 0.918483 100 118 245
-0.217086 0.10447 -0.519788 100 141 61
0.251277 -0.108738 0.339872 160 114 171
0.124076 0.115201 0.785528 143 142 228
0.383917 -0.0472749 0.528565 176 121 195
-0.311721 0.0996379 -0.161997 88 140 107
-0.251864 0.102822 0.607066 95 141 205
0.111062 0.111516 -0.528185 142 142 60
-0.200672 -0.110667 0.186402 102 113 151
-0.257989 -0.111201 0.517915 95 113 194
0.149492 0.11628 0.175322 147 142 150
0.395724 -0.0816701 0.531612 178 117 195
0.297779 -0.109219 -0.302108 165 114 89
-0.0900439 -0.110171 0.774081 116 113 226
0.300339 0.0997786 0.134259 166 140 145
0.191507 -0.100512 -0.822134 152 115 23
-0.433496 0.0617429 -0.441332 72 135 71
0.126324 0.0996558 -0.0978331 144 140 115
-0.0681655 -0.110711 0.565857 119 113 200
0.0441582 -0.111499 -0.533358 133 113 59
-0.238368 -0.11164 -0.409168 97 113 75
0.0565316 0.0787119 -0.671248 135 138 42
-0.113089 -0.110297 0.182015 113 113 151
-0.0262739 -0.00306476 -0.968594 124 127 4
0.26642 0.00843331 -0.913501 161 129 11
0.219079 0.0504172 0.933525 155 134 247
0.255506 -0.0785052 0.899081 160 117 242
0.383544 -0.0436076 0.669824 176 122 213
-0.0173611 -0.106697 -0.761706 125 114 30
0.41247 0.0752402 0.262505 180 137 161
-0.292707 -0.110694 0.399921 90 113 178
-0.0227601 0.109472 -0.544658 125 141 58
0.425085 0.066109 -0.585794 182 136 53
0.330195 0.0991748 0.434858 170 140 183
-0.148178 0.102128 -0.165372 109 141 106
-0.270914 0.060102 -0.290902 93 135 90
-0.414997 0.0698407 -0.842774 75 136 20
-0.242771 0.120309 -0.115397 97 143 113
0.317789 0.113796 0.215949 168 142 155
0.0907098 -0.110017 -0.251787 139 113 95
-0.34817 0.0968272 0.331698 83 140 170
0.405024 -0.0212344 0.749601 179 125 223
-0.259184 -0.110886 0.111884 94 113 142
0.393134 0.0643437 -0.865526 178 136 17
-0.19984 0.102637 -0.642322 102 141 46
-0.0277462 -0.110141 -0.0280602 124 113 124
-0.224865 0.0610787 0.920204 99 135 245
-0.309266 0.0981803 -0.797792 88 140 26
-0.317693 0.0869552 -0.263856 87 139 94
0.0137692 0.0845036 -0.24283 129 138 97
-0.390008 0.084485 -0.56662 78 138 55
-0.352382 -0.0689183 -0.790089 83 119 27
0.341379 0.0944086 0.681566 171 140 214
-0.0982267 -0.00291104 -0.953264 115 127 6
-0.295373 0.100059 -0.187569 90 140 104
0.195239 -0.0980693 -0.841642 152 115 20
0.395571 -0.0654384 -0.169509 178 119 106
-0.430085 0.0249031 0.577613 73 131 201
-0.372464 -0.0946262 -0.438623 80 115 72
-0.20457 -0.110771 0.139531 101 113 145
-0.259407 0.0564571 -0.88492 94 135 15
-0.312912 0.0776756 -0.433016 88 137 72
0.384028 -0.0417521 -0.684737 176 122 40
0.0154577 -0.11175 -0.667831 129 113 42
-0.299538 -0.110803 0.163408 89 113 148
-0.0330939 0.0396003 -0.902179 123 133 12
0.160352 -0.109189 0.228048 148 114 157
0.30248 -0.101183 0.819915 166 115 232
-0.123724 -0.11075 -0.0235159 112 113 125
0.406269 -0.0327646 -0.643044 179 123 46
-0.427544 -0.0261984 -0.297904 73 124 90
0.0129169 -0.109768 0.0755282 129 114 137
-0.173776 -0.111922 -0.539648 105 113 59
-0.0158261 -0.110344 -0.321317 125 113 87
0.343089 0.0943418 -0.792695 171 140 26
-0.0115401 -0.11015 0.50802 126 113 192
-0.0854855 -0.110212 0.379373 117 113 176
-0.0723181 0.106876 0.223041 118 141 156
0.103342 0.110188 -0.584528 141 142 53
-0.400522 0.0636241 0.699096 76 136 217
0.0933385 -0.0977685 -0.843099 139 115 20
0.065611 0.0987396 0.614764 136 140 206
0.375581 -0.0883521 -0.499024 175 116 64
0.174684 -0.109904 -0.133545 150 113 110
0.371055 -0.0799951 -0.593103 175 117 52
0.441532 0.0376227 0.431572 184 132 183
0.174159 -0.110952 -0.464555 150 113 68
0.408166 0.0475747 0.769994 180 134 226
0.173635 0.0857086 0.894555 150 138 242
-0.0120929 -0.111742 -0.553265 126 113 57
-0.2307 -0.110727 0.422331 98 113 181
0.110987 0.0604117 -0.346806 142 135 83
0.10706 0.101313 -0.170857 141 140 106
-0.437058 0.0210466 0.452306 72 130 185
-0.325103 0.0748965 0.838334 86 137 234
0.364666 -0.0473489 -0.718408 174 121 36
-0.138854 -0.00304552 -0.957955 110 127 5
0.109521 -0.00322504 -0.977954 141 127 3
-0.2236 -0.119247 -0.584507 99 112 53
0.166638 -0.0559671 -0.914716 149 120 11
-0.100147 0.0857971 0.900622 115 138 242
-0.120131 -0.108462 0.802423 112 114 230
0.375201 0.0452857 0.835479 175 133 234
-0.0289265 0.118606 -0.00907363 124 143 126
-0.00848108 0.120419 0.197211 126 143 153
-0.406346 0.0791492 -0.377392 76 138 79
0.293103 0.115559 0.662414 165 142 212
0.319098 0.0979645 0.0393332 168 140 133
-0.343188 -0.106262 0.662593 84 114 212
0.359813 -0.0626402 -0.260057 173 120 94
-0.265296 0.114074 -0.0407908 94 142 122
-0.192868 0.100551 -0.0547362 103 140 121
-0.122148 0.0222774 0.992435 112 130 254
0.402644 -0.0801171 0.31831 179 117 168
0.37984 -0.0971556 0.369108 176 115 175
-0.297885 0.102978 0.242772 90 141 158
-0.134247 -0.111565 -0.479868 110 113 66
0.293642 0.0795407 -0.491431 165 138 65
0.0996582 -0.0654452 0.951783 140 119 249
-0.411743 0.0725743 -0.804151 75 137 25
-0.185433 0.100107 -0.664343 104 140 43
0.0588822 -0.104731 -0.782062 135 114 28
-0.380232 0.0814796 0.553273 79 138 198
0.429796 -5.37001e-05 0.688519 182 127 215
0.248438 -0.106789 0.814086 159 114 231
0.301265 -0.108176 0.783093 166 114 227
-0.42689 0.00533225 0.591394 73 128 203
-0.394439 0.0744214 0.59134 77 137 203
0.304568 -0.108898 -0.161087 166 114 107
-0.410183 -0.0303073 0.303556 75 124 166
0.305381 -0.10903 -0.22944 166 114 98
0.114436 -0.109965 -0.106507 142 113 114
-0.427539 -0.0203152 -0.8188 73 125 23
-0.365324 -0.0668142 -0.546527 81 119 58
0.429956 0.0548077 0.467825 182 134 187
-0.157714 0.0602862 -0.385087 107 135 78
0.0470211 0.10269 -0.761019 133 141 30
-0.0400087 -0.109866 0.290497 122 113 165
-0.0533638 -0.109504 0.78259 121 114 227
0.131496 0.102291 -0.785004 144 141 27
0.295832 -0.10836 0.229914 165 114 157
-0.259294 0.11985 0.411565 94 143 180
0.134067 -0.00304957 -0.967259 145 127 4
0.355354 -0.105071 -0.120299 173 114 112
-0.165035 -0.00880205 -0.919371 106 126 10
-0.135711 -0.0324269 -0.917618 110 123 11
-0.260607 0.100649 -0.201626 94 140 102
0.167138 0.118675 0.641166 149 143 209
-0.451415 0.0115123 0.0665616 70 129 136
-0.279126 0.0993415 -0.815965 92 140 23
-0.390271 -0.0579056 0.304013 78 120 166
0.372231 -0.101069 0.120587 175 115 143
0.339596 -0.0869662 0.820781 171 116 232
0.11832 -0.097706 0.875963 143 115 239
0.13136 -0.081473 0.92768 144 117 246
-0.0286151 -0.0912925 0.905072 124 116 243
-0.160481 0.100198 0.0562701 107 140 135
-0.388822 -0.0620032 0.449801 78 120 185
-0.325231 -0.109787 -0.472006 86 114 67
0.206033 0.0995918 0.360015 154 140 173
-0.423985 -0.0126674 0.428095 73 126 182
0.218514 -0.111781 0.674597 155 113 214
-0.385661 -0.047269 -0.0929099 78 121 116
0.0473555 -0.110229 -0.122556 134 113 112
-0.276265 -0.116186 -0.571421 92 113 55
-0.159882 0.0778245 -0.640769 107 137 46
0.212395 -0.1088 -0.322637 155 114 86
-0.362601 -0.0503075 -0.749687 81 121 32
0.275295 -0.117157 -0.538318 163 113 59
0.402194 -0.08217 0.280664 179 117 163
0.205473 0.0982807 0.592025 154 140 203
0.240548 -0.108737 0.117033 158 114 142
0.2136 -0.109822 -0.198029 155 113 102
-0.141007 0.115359 -0.0813183 110 142 117
-0.424364 -0.0199726 -0.850434 73 125 19
-0.164157 0.0904822 0.875762 107 139 239
-0.0746083 0.113153 0.565384 118 142 200
-0.216719 0.0378718 -0.890171 100 132 14
0.271907 0.107163 -0.59808 162 141 51
0.25485 0.108597 -0.0922366 160 141 116
0.244705 0.107334 -0.618851 159 141 49
-0.344657 -0.091083 -0.800095 84 116 25
0.456851 0.027525 -0.0237309 186 131 124
-0.394068 0.0811792 -0.751586 77 138 32
0.383667 -0.0616302 -0.319643 176 120 87
