ply
format ascii 1.0
comment Created by Open3D
element vertex 1200
property double x
property double y
property double z
property uchar red
property uchar green
property uchar blue
end_header
0.0855289 0.100326 0.240029 138 140 158
-0.158621 0.0855065 -0.698205 107 138 38
0.0855289 0.101783 0.237699 138 140 158
-0.158621 0.0776818 -0.679604 107 137 41
-0.321388 0.102586 0.313274 87 141 167
-0.321388 0.108094 0.760882 87 141 225
0.321541 0.0993661 0.500455 168 140 191
-0.321388 0.109922 0.767242 87 142 225
0.0855289 0.100859 0.288859 138 140 164
0.0794822 0.101783 0.296997 138 140 165
0.0855289 0.101783 0.290209 138 140 165
-0.158621 0.078092 -0.614497 107 137 49
0.321541 0.0977485 0.565562 168 140 200
0.0781269 0.101783 0.32955 137 140 170
0.0804102 0.101783 0.337689 138 140 171
0.0855289 0.100137 0.345827 138 140 172
0.0855289 0.101783 0.34258 138 140 171
-0.321388 0.110288 0.769021 87 142 226
0.321541 0.098886 0.614392 168 140 206
-0.321388 0.111799 0.785297 87 142 228
0.0839637 0.101783 0.386519 138 140 177
0.0855289 0.101783 0.384916 138 140 177
0.321541 0.0984511 0.679499 168 140 214
0.0774608 0.101783 0.459764 137 140 186
0.0821338 0.101783 0.467902 138 140 187
0.0855289 0.101783 0.471209 138 140 188
0.0855289 0.101262 0.500455 138 140 191
0.0795349 0.101783 0.508594 138 140 192
0.321541 0.0967985 0.728329 168 140 220
0.0855289 0.101783 0.501049 138 140 191
0.0781819 0.101783 0.5737 137 140 201
0.0825053 0.101783 0.581839 138 140 202
0.0855289 0.0990243 0.589977 138 140 203
0.0855289 0.0991545 0.614392 138 140 206
0.0791676 0.101783 0.622531 138 140 207
0.0855289 0.101783 0.617194 138 140 206
0.0855289 0.0986407 0.703914 138 140 217
0.0855289 0.100402 0.736467 138 140 221
0.0855289 0.0997292 0.817851 138 140 232
-0.158621 0.101478 -0.150612 107 140 108
-0.158621 0.101783 -0.150154 107 140 108
-0.158621 0.100916 -0.0692284 107 140 119
-0.158621 0.10099 -0.0448133 107 140 122
-0.158621 0.101783 -0.0438775 107 140 122
-0.158621 0.100351 0.03657 107 140 132
-0.158621 0.100082 0.060985 107 140 135
-0.158621 0.101783 0.0637552 107 140 136
-0.158621 0.100882 0.142368 107 140 146
-0.158621 0.101783 0.169632 107 140 149
-0.160429 0.101783 0.248167 107 140 159
-0.158621 0.101783 0.249839 107 140 159
0.0810297 0.109922 0.0854 138 142 138
0.0855289 0.109922 0.0776699 138 142 137
-0.158621 0.10046 0.272582 107 140 162
0.0783267 0.109922 0.0935384 137 142 139
-0.158621 0.101783 0.274589 107 140 163
0.0779681 0.109922 0.101677 137 142 140
-0.158621 0.101135 0.353965 107 140 173
0.078453 0.109922 0.109815 138 142 142
-0.164172 0.101783 0.386519 107 140 177
-0.158621 0.101783 0.381702 107 140 176
0.0855289 0.109922 0.184354 138 142 151
-0.165567 0.101783 0.467902 106 140 187
0.0793628 0.109922 0.223752 138 142 156
-0.158621 0.101783 0.472877 107 140 188
0.321541 0.117053 -0.06109 168 142 120
-0.158964 0.101783 0.500455 107 140 191
0.321541 0.11806 -0.0678701 168 143 119
-0.158621 0.101783 0.500187 107 140 191
0.321541 0.113256 -0.0529517 168 142 121
0.0787333 0.109922 0.305135 138 142 166
-0.158621 0.0993632 0.589977 107 140 203
0.0778632 0.109922 0.313274 137 142 167
-0.158621 0.0999564 0.614392 107 140 206
-0.158621 0.101783 0.616114 107 140 206
-0.280696 -0.116743 0.630669 92 113 208
-0.158621 0.0988904 0.703914 107 140 217
-0.280696 -0.113166 0.720191 92 113 219
0.077566 0.109922 0.42721 137 142 182
0.077716 0.109922 0.435349 137 142 183
-0.158621 0.0980354 0.728329 107 140 220
0.0785614 0.109922 0.443487 138 142 184
-0.158621 0.101783 0.73313 107 140 221
0.321541 0.115989 0.305135 168 142 166
0.0809803 0.109922 0.508594 138 142 192
0.321541 0.115649 0.313274 168 142 167
0.207604 -0.00401524 -0.918635 154 127 10
0.321541 0.113104 0.321412 168 142 168
0.0783416 0.109922 0.516732 137 142 193
0.0780437 0.109922 0.52487 137 142 194
0.0784895 0.109922 0.533009 138 142 195
0.0786866 0.109922 0.541147 138 142 196
0.321541 0.116351 0.402795 168 142 179
0.0791156 0.109922 0.549285 138 142 198
0.321541 0.116887 0.410934 168 142 180
0.321541 0.116663 0.419072 168 142 181
0.321541 0.115267 0.42721 168 142 182
0.0285606 -0.00401524 -0.92482 131 127 10
0.207604 0.0203998 0.976435 154 130 252
0.321541 0.115567 0.533009 168 142 195
0.0776363 0.109922 0.646946 137 142 210
0.321541 0.114551 0.541147 168 142 196
0.0285606 -0.00265976 -0.988861 131 127 1
0.321541 0.1122 0.549285 168 142 198
0.207604 0.0366764 -0.898404 154 132 13
0.207604 0.0294658 0.948064 154 131 248
0.207604 0.0292715 0.956202 154 131 249
0.321541 0.11865 -0.0855051 168 143 117
0.321541 0.11919 -0.0773667 168 143 118
-0.164336 0.109922 0.174922 107 142 150
0.321541 0.118204 -0.0692284 168 143 119
-0.158621 0.102908 0.248167 107 141 159
-0.158621 0.109922 0.245687 107 142 159
0.200793 0.0610914 -0.492422 153 135 65
-0.158621 0.109922 0.350726 107 142 172
0.207604 0.0610914 -0.486596 154 135 65
-0.158621 0.102241 0.500455 107 141 191
0.0855289 0.117128 0.0935384 138 142 139
0.0285606 0.0366764 -0.906319 131 132 12
0.0855289 0.117047 0.101677 138 142 140
0.0285606 0.0337353 0.972479 131 132 251
0.0855289 0.116206 0.109815 138 142 142
0.0285606 0.0448148 -0.900009 131 133 13
0.0285606 0.0598587 -0.484284 131 135 66
0.0855289 0.117956 0.305135 138 143 166
0.0285606 0.0610914 -0.48691 131 135 65
0.0855289 0.11806 0.306953 138 143 167
0.207604 0.059517 -0.248272 154 135 96
0.207604 0.0610914 -0.246702 154 135 96
0.0855289 0.117905 0.42721 138 143 182
0.0855289 0.11717 0.435349 138 142 183
0.0855289 0.116493 0.443487 138 142 184
0.207604 0.0692298 -0.491295 154 136 65
0.0855289 0.11557 0.451625 138 142 185
0.0855289 0.117718 0.516732 138 143 193
0.0855289 0.117437 0.52487 138 142 194
0.0855289 0.116978 0.533009 138 142 195
0.0855289 0.116638 0.541147 138 142 196
0.0855289 0.11595 0.549285 138 142 198
0.0855289 0.115152 0.557424 138 142 199
0.0855289 0.114683 0.565562 138 142 200
-0.284589 0.00412315 0.923649 91 128 245
0.0855289 0.117192 0.638807 138 142 209
0.0279435 0.0610914 -0.248272 131 135 96
-0.285489 0.0122614 0.915511 91 129 244
0.0855289 0.116784 0.646946 138 142 210
0.0855289 0.116073 0.655084 138 142 211
-0.280696 0.0122614 0.918533 92 129 245
0.0855289 0.115562 0.663222 138 142 212
0.0285606 0.0692298 -0.491218 131 136 65
0.0285606 0.0612455 -0.248272 131 135 96
0.0285606 0.0692298 -0.243913 131 136 96
0.0855289 0.114649 0.744606 138 142 222
0.0855289 0.115709 0.752744 138 142 223
0.0855289 0.115229 0.760882 138 142 225
-0.280696 0.0355091 -0.899339 92 132 13
-0.285102 0.0366764 -0.891201 91 132 14
-0.280696 0.0366764 -0.890874 92 132 14
-0.158621 0.116798 0.622531 107 142 207
0.0285606 0.0827514 -0.704019 131 138 38
-0.280696 0.0448148 -0.883545 92 133 15
-0.158621 0.117552 0.744606 107 142 222
-0.280696 0.059033 -0.484284 92 135 66
-0.280696 0.0610914 -0.486466 92 135 65
0.0285606 0.0808239 -0.614497 131 138 49
0.207604 0.0979994 -0.15875 154 140 107
0.202645 0.101783 -0.150612 153 140 108
0.207604 0.101783 -0.152348 154 140 108
0.207352 0.101783 -0.00412167 154 140 127
0.207604 0.101783 -0.00401046 154 140 127
0.207604 0.0991674 0.0772618 154 140 137
0.207604 0.0992011 0.0854 154 140 138
0.207604 0.101305 0.0935384 154 140 139
0.207604 0.101726 0.101677 154 140 140
0.207604 0.0997613 0.109815 154 140 142
-0.280696 0.0593267 -0.248272 92 135 96
0.207604 0.0992094 0.117953 154 140 143
-0.280696 0.0610914 -0.246661 92 135 96
0.207604 0.0995395 0.191199 154 140 152
0.207604 0.101235 0.199337 154 140 153
0.206725 0.101783 0.207475 154 140 154
0.207604 0.101783 0.20439 154 140 154
0.207604 0.100363 0.215614 154 140 155
0.0285606 0.101263 -0.0692284 131 140 119
0.207604 0.101783 0.208917 154 140 154
0.207604 0.0995085 0.223752 154 140 156
0.0206104 0.101783 -0.0448133 130 140 122
0.0285606 0.100958 -0.0448133 131 140 122
0.0285606 0.100726 0.03657 131 140 132
0.0285606 0.101783 0.0351762 131 140 132
0.207604 0.0996343 0.296997 154 140 165
0.207604 0.0998001 0.305135 154 140 166
0.0285606 0.101783 0.0629314 131 140 136
0.207604 0.100106 0.313274 154 140 167
0.207604 0.0996288 0.321412 154 140 168
0.207604 0.0996118 0.32955 154 140 170
0.0285606 0.101783 0.169622 131 140 149
-0.280696 0.0936449 0.828706 92 139 233
0.0285606 0.100438 0.272582 131 140 162
0.0285606 0.101783 0.274854 131 140 163
0.207604 0.0998239 0.402795 154 140 179
0.0285606 0.101783 0.358131 131 140 173
0.207604 0.0996874 0.410934 154 140 180
0.207604 0.0997622 0.419072 154 140 181
0.207604 0.0997128 0.42721 154 140 182
0.0285606 0.101783 0.380824 131 140 176
0.207604 0.0997082 0.435349 154 140 183
0.0285606 0.100262 0.47604 131 140 188
0.0285606 0.101783 0.498317 131 140 191
0.0285606 0.101045 0.589977 131 140 203
0.0285606 0.0992528 0.614392 131 140 206
0.207604 0.0989836 0.516732 154 140 193
0.0285606 0.101783 0.616817 131 140 206
0.207604 0.0989373 0.52487 154 140 194
0.0285606 0.0981931 0.712052 131 140 218
0.207604 0.0988492 0.533009 154 140 195
0.207604 0.0988322 0.541147 154 140 196
0.207604 0.0987576 0.549285 154 140 198
0.0285606 0.0980881 0.728329 131 140 220
0.0285606 0.101783 0.733235 131 140 221
0.0285606 0.0982143 0.825989 131 140 233
0.207604 0.0980442 0.638807 154 140 209
0.207604 0.0978921 0.646946 154 140 210
0.207604 0.0978177 0.655084 154 140 211
0.207604 0.0976749 0.663222 154 140 212
0.207604 0.0974117 0.744606 154 140 222
0.207604 0.0977853 0.752744 154 140 223
0.207604 0.0986132 0.760882 154 140 225
-0.280696 0.100324 -0.150612 92 140 108
0.207604 0.0986844 0.769021 154 140 226
-0.280696 0.101783 -0.148587 92 140 109
0.207604 0.0978153 0.777159 154 140 227
-0.280696 0.100988 -0.0692284 92 140 119
0.207604 0.0972687 0.785297 154 140 228
-0.280696 0.101783 -0.0492856 92 140 121
-0.280696 0.0994699 0.03657 92 140 132
-0.319679 -0.0202919 0.874819 87 125 239
-0.31325 -0.0202919 0.896246 88 125 242
-0.280696 0.100681 0.060985 92 140 135
-0.280696 0.101783 0.0619888 92 140 135
-0.315733 -0.0121535 0.882957 87 126 240
0.0285606 0.10216 -0.150612 131 141 108
-0.280696 0.100188 0.142368 92 140 146
-0.31325 -0.0121535 0.886109 88 126 240
-0.280696 0.101783 0.165456 92 140 149
-0.280696 0.100628 0.248167 92 140 159
0.0285606 0.103246 0.142368 131 141 146
-0.31325 -0.00401524 0.891213 88 127 241
-0.280696 0.101783 0.269186 92 140 162
-0.280696 0.100252 0.353965 92 140 173
-0.288379 0.101783 0.37838 91 140 176
-0.280696 0.101783 0.37422 92 140 175
-0.280696 0.0998563 0.467902 92 140 187
-0.31325 0.0342401 -0.899339 88 132 13
-0.280696 0.101685 0.492317 92 140 190
-0.280696 0.101783 0.492399 92 140 190
-0.31325 0.0356958 -0.883062 88 132 15
-0.280696 0.0997142 0.581839 92 140 202
-0.31325 0.0366764 -0.881794 88 132 15
-0.285544 0.101783 0.606254 91 140 205
-0.280696 0.101783 0.604116 92 140 205
-0.280696 0.0987767 0.695776 92 140 216
-0.280696 0.101783 0.719251 92 140 219
-0.314739 0.0610914 -0.459869 87 135 69
-0.31325 0.0598699 -0.459869 88 135 69
-0.31325 0.0610914 -0.466205 88 135 68
-0.315512 0.0610914 -0.45173 87 135 70
-0.31325 0.0593354 -0.45173 88 135 70
-0.31558 0.0610914 -0.443592 87 135 71
-0.31325 0.0592037 -0.443592 88 135 71
-0.31467 0.0610914 -0.435454 87 135 72
-0.31325 0.0596398 -0.435454 88 135 72
0.207604 0.109922 -0.00639097 154 142 127
-0.314242 0.0610914 -0.427315 87 135 73
0.207604 0.102972 0.207475 154 141 154
-0.31325 0.0599789 -0.427315 88 135 73
0.325222 -0.0691219 -0.606359 169 119 50
-0.314717 0.0610914 -0.419177 87 135 74
-0.31325 0.0595123 -0.419177 88 135 74
0.3269 -0.0691219 -0.565667 169 119 55
-0.315012 0.0610914 -0.411039 87 135 75
0.327471 -0.0691219 -0.557529 169 119 56
-0.31325 0.0592884 -0.411039 88 135 75
-0.314804 0.0610914 -0.4029 87 135 76
0.329679 -0.0691219 -0.550095 170 119 57
-0.31325 0.0596893 -0.4029 88 135 76
-0.315361 0.0610914 -0.394762 87 135 77
-0.31325 0.0591953 -0.394762 88 135 77
0.326941 -0.0691219 -0.524975 169 119 61
-0.315929 0.0610914 -0.386624 87 135 78
0.329679 -0.0695937 -0.524975 170 119 61
-0.31325 0.0590624 -0.386624 88 135 78
0.324688 -0.0691219 -0.516837 169 119 62
-0.316958 0.0610914 -0.378485 87 135 79
-0.280696 0.109922 0.167575 92 142 149
-0.31325 0.0589259 -0.378485 88 135 79
-0.318707 0.0610914 -0.370347 87 135 80
0.327601 -0.0691219 -0.492422 169 119 65
-0.280696 0.109922 0.272609 92 142 162
-0.317405 0.0610914 -0.362209 87 135 81
0.329679 -0.0694392 -0.492422 170 119 65
-0.31325 0.0597445 -0.362209 88 135 81
0.327693 -0.0691219 -0.484284 169 119 66
-0.316792 0.0610914 -0.35407 87 135 82
0.329679 -0.0698027 -0.484284 170 119 66
0.207604 0.114587 -0.0122599 154 142 126
-0.31325 0.0589166 -0.35407 88 135 82
0.327446 -0.0691219 -0.476145 169 119 67
0.207604 0.119441 -0.142473 154 143 109
-0.316334 0.0610914 -0.345932 87 135 83
0.329679 -0.0702417 -0.476145 170 119 67
0.32756 -0.0691219 -0.468007 169 119 68
-0.318107 0.0610914 -0.337794 87 135 84
0.329679 -0.0703859 -0.468007 170 119 68
0.327775 -0.0691219 -0.459869 169 119 69
-0.280696 0.109922 0.607119 92 142 205
0.329679 -0.0702726 -0.459869 170 119 69
-0.320783 0.0610914 -0.329655 87 135 85
0.327546 -0.0691219 -0.45173 169 119 70
-0.320053 0.0610914 -0.321517 87 135 87
0.329679 -0.0705295 -0.45173 170 119 70
-0.280696 0.109922 0.722158 92 142 220
0.327915 -0.0691219 -0.443592 169 119 71
-0.282063 0.109922 0.801574 92 142 230
0.329679 -0.0706423 -0.443592 170 118 71
-0.318828 0.0610914 -0.30524 87 135 89
0.328015 -0.0691219 -0.435454 169 119 72
0.329679 -0.070485 -0.435454 170 119 72
-0.318496 0.0610914 -0.297102 87 135 90
0.327782 -0.0691219 -0.427315 169 119 73
0.329679 -0.0708648 -0.427315 170 118 73
-0.318624 0.0610914 -0.288964 87 135 91
0.328039 -0.0691219 -0.419177 169 119 74
0.329679 -0.0706389 -0.419177 170 118 74
-0.31325 0.0590161 -0.288964 88 135 91
-0.318088 0.0610914 -0.280825 87 135 92
0.327912 -0.0691219 -0.411039 169 119 75
-0.31325 0.0585805 -0.280825 88 135 92
0.329679 -0.0707704 -0.411039 170 118 75
0.215742 -0.111716 -0.59822 155 113 51
-0.316403 0.0610914 -0.272687 87 135 93
0.327631 -0.0691219 -0.4029 169 119 76
0.215742 -0.11201 -0.590082 155 113 52
-0.31325 0.0589798 -0.272687 88 135 93
0.329679 -0.0709471 -0.4029 170 118 76
-0.315632 0.0610914 -0.264549 87 135 94
0.328093 -0.0691219 -0.394762 169 119 77
0.329679 -0.0707769 -0.394762 170 118 77
-0.31325 0.0587659 -0.264549 88 135 94
-0.31325 0.0610914 -0.260455 88 135 94
0.328326 -0.0691219 -0.386624 169 119 78
0.329679 -0.0704945 -0.386624 170 119 78
0.329324 -0.0691219 -0.378485 169 119 79
0.329679 -0.0695139 -0.378485 170 119 79
0.329679 -0.0691219 -0.376144 170 119 80
0.32518 -0.0609836 -0.760987 169 120 30
0.329679 -0.0609836 -0.764339 170 120 30
-0.318824 0.0692298 -0.313379 87 136 88
-0.280696 0.11779 0.500455 92 143 191
0.329679 -0.0660444 -0.606359 170 119 50
0.325505 -0.0609836 -0.590082 169 120 52
0.329679 -0.0668159 -0.590082 170 119 52
0.326665 -0.0609836 -0.581944 169 120 53
0.329679 -0.0691203 -0.581944 170 119 53
-0.280696 0.117765 0.614392 92 143 206
0.327196 -0.0609836 -0.573805 169 120 54
0.329679 -0.0691059 -0.573805 170 119 54
0.326774 -0.0609836 -0.565667 169 120 55
0.329679 -0.0674447 -0.565667 170 119 55
0.326038 -0.0609836 -0.557529 169 120 56
0.329679 -0.0678245 -0.557529 170 119 56
0.322256 -0.0609836 -0.54939 169 120 57
0.325064 -0.0609836 -0.524975 169 120 61
0.326938 -0.0609836 -0.516837 169 120 62
0.326186 -0.0609836 -0.508699 169 120 63
-0.280696 0.116496 0.728329 92 142 220
0.326206 -0.0609836 -0.50056 169 120 64
0.327381 -0.0609836 -0.492422 169 120 65
0.327482 -0.0609836 -0.484284 169 120 66
0.327624 -0.0609836 -0.476145 169 120 67
0.329679 -0.0618385 -0.468007 170 120 68
0.329679 -0.0609836 -0.468733 170 120 68
0.329679 -0.0651622 -0.459869 170 119 69
0.329679 -0.0646974 -0.45173 170 119 70
0.329679 -0.0631598 -0.443592 170 119 71
-0.280696 0.110057 0.801574 92 142 230
0.329679 -0.0648211 -0.435454 170 119 72
0.329679 -0.0650807 -0.427315 170 119 73
-0.280696 0.110884 0.817851 92 142 232
0.329679 -0.0667991 -0.419177 170 119 74
0.329679 -0.0660374 -0.411039 170 119 75
0.0936672 -0.00401524 -0.922589 139 127 10
0.329679 -0.0649339 -0.4029 170 119 76
0.329679 -0.0660315 -0.394762 170 119 77
0.329679 -0.0660875 -0.386624 170 119 78
0.329679 -0.0684544 -0.378485 170 119 79
0.0936672 -0.00225133 -0.988861 139 127 1
0.0936672 0.00412315 -0.996313 139 128 0
0.329679 -0.0593572 -0.760987 170 120 30
0.329679 -0.0586171 -0.752849 170 120 32
0.0936672 -0.00273622 -0.923754 139 127 10
0.0872187 0.0203998 0.996894 139 130 255
0.0936672 0.0203998 0.996492 139 130 255
-0.31325 0.0855065 0.817375 88 138 232
0.0912654 0.0366764 -0.899339 139 132 13
0.0936672 0.0365986 -0.899339 139 132 13
0.0936672 0.0366764 -0.899273 139 132 13
-0.31325 0.0936449 -0.488813 88 139 65
0.329679 -0.059507 -0.492422 170 120 65
0.329679 -0.059415 -0.484284 170 120 66
0.329679 -0.059496 -0.476145 170 120 67
-0.150483 -0.00401524 -0.921556 108 127 10
-0.150483 -0.00181262 -0.980722 108 127 2
-0.150483 0.00412315 -0.987194 108 128 2
-0.150483 -0.00254455 -0.923754 108 127 10
0.324571 -0.0121535 0.882957 169 126 240
0.329679 -0.0121535 0.878981 170 126 240
0.322464 -0.0121535 0.891096 169 126 241
0.321589 -0.00401524 0.891096 169 127 241
0.0936672 0.0610914 -0.245649 139 135 96
-0.150483 0.0366764 -0.8981 108 132 13
0.0936672 0.0614638 -0.492422 139 135 65
-0.272558 -0.113381 -0.590082 93 113 52
-0.150483 0.0325973 0.964341 108 132 250
-0.272558 -0.116629 -0.581944 93 113 53
0.0936672 0.0692298 -0.494535 139 136 64
0.329679 0.034318 -0.883062 170 132 15
0.329679 0.0366764 -0.880792 170 132 15
-0.150483 0.059668 -0.484284 108 135 66
0.0936672 0.0817784 -0.704019 139 138 38
-0.150483 0.0610914 -0.486639 108 135 65
0.322836 0.0610914 -0.370347 169 135 80
0.322235 0.0610914 -0.362209 169 135 81
0.322586 0.0610914 -0.35407 169 135 82
0.32389 0.0610914 -0.345932 169 135 83
0.323985 0.0610914 -0.337794 169 135 84
0.323398 0.0610914 -0.329655 169 135 85
0.32215 0.0610914 -0.321517 169 135 87
0.321671 0.0610914 -0.288964 169 135 91
0.321583 0.0610914 -0.280825 169 135 92
0.0936672 0.0813075 -0.614497 139 138 49
-0.31325 0.0998226 -0.142473 88 140 109
-0.316104 0.101783 -0.134335 87 140 110
-0.31325 0.101783 -0.137733 88 140 110
-0.320817 0.101783 -0.126197 87 140 111
-0.31325 0.0996495 -0.0773667 88 140 118
-0.150483 0.0610914 -0.246746 108 135 96
-0.31325 0.100621 -0.036675 88 140 123
-0.3185 0.101783 -0.0285367 87 140 124
-0.31325 0.101783 -0.0352394 88 140 123
-0.31325 0.101123 0.0202933 88 140 130
-0.156318 0.0773682 -0.695881 108 137 39
-0.150483 0.077072 -0.695881 108 137 39
-0.150483 0.0773682 -0.696566 108 137 39
-0.31325 0.0993258 0.0691234 88 140 136
-0.315952 0.101783 0.0772618 87 140 137
-0.31325 0.101783 0.0743738 88 140 137
-0.319704 0.101783 0.0854 87 140 138
-0.318918 0.101783 0.117953 87 140 143
-0.313917 0.101783 0.126092 87 140 144
0.329641 0.0936449 0.752744 170 139 223
0.329679 0.093608 0.752744 170 139 223
-0.31325 0.101783 0.126833 88 140 144
-0.150483 0.0786674 -0.687742 108 138 40
0.329679 0.0936449 0.752186 170 139 223
0.329679 0.0936449 0.753513 170 139 224
0.329206 0.0936449 0.769021 169 139 226
0.329679 0.0936449 0.764353 170 139 225
-0.31325 0.09985 0.174922 88 140 150
0.326938 0.0936449 0.777159 169 139 227
-0.317237 0.101783 0.18306 87 140 151
-0.31325 0.101783 0.17903 88 140 150
0.323053 0.0936449 0.785297 169 139 228
-0.320263 0.101783 0.191199 87 140 152
-0.150483 0.0787984 -0.614497 108 138 49
-0.318962 0.101783 0.223752 87 140 156
-0.31325 0.101134 0.23189 88 140 157
-0.31325 0.0999537 0.28072 88 140 163
-0.317592 0.101783 0.288859 87 140 164
-0.31325 0.101783 0.28442 88 140 164
-0.319273 0.101783 0.296997 87 140 165
-0.321053 0.101783 0.305135 87 140 166
-0.319749 0.101783 0.321412 87 140 168
-0.317962 0.101783 0.32955 87 140 170
-0.31325 0.100007 0.337689 88 140 171
-0.31325 0.101783 0.334496 88 140 170
-0.31325 0.100801 0.394657 88 140 178
-0.318163 0.101783 0.402795 87 140 179
-0.31325 0.101783 0.396202 88 140 178
0.0936672 0.100103 0.060985 139 140 135
-0.319519 0.101783 0.410934 87 140 180
0.0924634 0.101783 0.0691234 139 140 136
-0.320723 0.101783 0.419072 87 140 181
0.0936672 0.101783 0.0680024 139 140 136
-0.320652 0.101783 0.42721 87 140 182
0.0912913 0.101783 0.13423 139 140 145
-0.318783 0.101783 0.435349 87 140 183
-0.316115 0.101783 0.443487 87 140 184
0.0936672 0.101783 0.136407 139 140 145
-0.31325 0.0994754 0.451625 88 140 185
-0.31325 0.101783 0.446612 88 140 184
0.0936672 0.10075 0.174922 139 140 150
0.0936672 0.101783 0.176058 139 140 150
0.0884484 0.101783 0.240029 139 140 158
0.0936672 0.100048 0.248167 139 140 159
0.215742 -0.00401524 -0.916979 155 127 11
0.0936672 0.101783 0.244913 139 140 159
-0.31325 0.100247 0.508594 88 140 192
-0.317089 0.101783 0.516732 87 140 193
-0.31325 0.101783 0.511382 88 140 193
0.0936672 0.100306 0.28072 139 140 163
0.0867152 0.101783 0.288859 139 140 164
0.0936672 0.101783 0.282559 139 140 164
-0.318538 0.101783 0.549285 87 140 198
0.0888574 0.101783 0.345827 139 140 172
-0.315979 0.101783 0.557424 87 140 199
0.0936672 0.100208 0.353965 139 140 173
-0.31325 0.0988461 0.565562 88 140 200
0.0936672 0.101783 0.350723 139 140 172
-0.31325 0.101783 0.560268 88 140 199
0.0936672 0.100282 0.37838 139 140 176
0.0936672 0.101783 0.381047 139 140 176
-0.150483 0.101699 -0.150612 108 140 108
0.0936672 0.100025 0.47604 139 140 188
-0.150483 0.101783 -0.150494 108 140 108
0.209355 0.0285382 0.948064 154 131 248
-0.150483 0.100967 -0.0692284 108 140 119
-0.31325 0.0993394 0.622531 88 140 207
0.215742 0.0274079 0.948064 155 131 248
0.0936672 0.0996994 0.492317 139 140 190
-0.315994 0.101783 0.630669 87 140 208
0.086992 0.101783 0.500455 139 140 191
-0.31325 0.101783 0.626548 88 140 207
0.0936672 0.101783 0.496613 139 140 191
0.0936672 0.0989254 0.589977 139 140 203
-0.150483 0.101307 -0.0448133 108 140 122
-0.150483 0.101783 -0.0441942 108 140 122
0.215742 0.027896 0.964341 155 131 250
-0.150483 0.100497 0.03657 108 140 132
-0.317432 0.101783 0.663222 87 140 212
-0.314137 0.101783 0.671361 87 140 213
0.0936672 0.101283 0.614392 139 140 206
-0.31325 0.0977184 0.679499 88 140 214
0.0936672 0.101783 0.614742 139 140 206
0.0936672 0.101122 0.703914 139 140 217
-0.150483 0.100423 0.060985 108 140 135
-0.150483 0.101783 0.0628548 108 140 136
0.215742 0.0366764 -0.898154 155 132 13
-0.150483 0.101552 0.142368 108 140 146
0.0936672 0.0979727 0.728329 139 140 220
-0.31325 0.096924 0.720191 88 140 219
0.0936672 0.101783 0.733297 139 140 221
-0.31325 0.100403 0.736467 88 140 221
-0.150483 0.101783 0.168387 108 140 149
-0.272558 -0.112901 0.728329 93 113 220
0.0936672 0.0974449 0.825989 139 140 233
-0.150483 0.101783 0.251601 108 140 160
-0.150483 0.100427 0.272582 108 140 162
-0.31325 0.101783 0.816298 88 140 232
-0.150483 0.101783 0.274557 108 140 163
-0.154501 0.101783 0.353965 108 140 173
0.215742 0.0610914 -0.484389 155 135 66
-0.319495 0.109922 -0.126197 87 142 111
0.326401 0.101783 -0.101782 169 140 115
-0.150483 0.100543 0.37838 108 140 176
0.329679 0.0992636 -0.101782 170 140 115
-0.150483 0.101783 0.380502 108 140 176
-0.316654 0.109922 -0.0285367 87 142 124
0.329263 0.101783 -0.0936434 169 140 116
-0.150483 0.100055 0.47604 108 140 188
0.329679 0.101256 -0.0936434 170 140 116
0.329679 0.101783 -0.0916108 170 140 116
-0.320147 0.109922 -0.0203983 87 142 125
0.328879 0.101783 -0.06109 169 140 120
-0.31963 0.109922 0.00401671 87 142 128
0.329679 0.100824 -0.06109 170 140 120
-0.150483 0.101783 0.496572 108 140 191
0.329679 0.101783 -0.064916 170 140 119
-0.150483 0.0995017 0.589977 108 140 203
0.326273 0.101783 -0.0529517 169 140 121
0.329679 0.0992072 -0.0529517 170 140 121
-0.318169 0.109922 0.0854 87 142 138
-0.320354 0.109922 0.0935384 87 142 139
-0.150483 0.101783 0.614392 108 140 206
-0.320767 0.109922 0.101677 87 142 140
-0.150483 0.101783 0.614393 108 140 206
-0.319509 0.109922 0.109815 87 142 142
-0.150483 0.100206 0.703914 108 140 217
-0.150483 0.0985472 0.728329 108 140 220
-0.150483 0.101783 0.731414 108 140 221
-0.318476 0.109922 0.191199 87 142 152
-0.320411 0.109922 0.199337 87 142 153
-0.150483 0.0963712 0.825989 108 140 233
-0.321171 0.109922 0.207475 87 142 154
0.085838 0.109922 0.0772618 138 142 137
0.32433 0.101783 0.0772618 169 140 137
0.329679 0.0977139 0.0772618 170 140 137
0.214265 0.0610914 -0.248272 155 135 96
0.0866101 0.109922 0.18306 139 142 151
0.326636 0.101783 0.0854 169 140 138
0.215742 0.0610914 -0.249748 155 135 96
0.329679 0.0984193 0.0854 170 140 138
-0.319493 0.109922 0.305135 87 142 166
-0.319646 0.109922 0.313274 87 142 167
0.329679 0.0994484 0.0935384 170 140 139
0.215742 0.0692298 -0.49164 155 136 65
0.329679 0.0989685 0.101677 170 140 140
0.0366988 -0.00401524 -0.923998 132 127 10
0.215742 0.0644258 -0.248272 155 136 96
-0.315785 0.109922 0.402795 87 142 179
0.329679 0.0981436 0.109815 170 140 142
-0.31325 0.109922 0.398187 88 142 178
-0.318402 0.109922 0.410934 87 142 180
0.0366988 -0.00266224 -0.988861 132 127 1
-0.31325 0.109922 0.442135 88 142 184
0.323955 0.101783 0.18306 169 140 151
0.329679 0.0987923 0.18306 170 140 151
0.326568 0.101783 0.191199 169 140 152
0.329679 0.0987893 0.191199 170 140 152
0.328046 0.101783 0.199337 169 140 153
0.329679 0.0998609 0.199337 170 140 153
0.329679 0.0995443 0.207475 170 140 154
0.329679 0.0988264 0.215614 170 140 155
0.323007 0.101783 0.223752 169 140 156
0.0366988 0.0340961 -0.988861 132 132 1
-0.150483 0.105721 0.248167 108 141 159
-0.150483 0.109922 0.246824 108 142 159
-0.150483 0.103808 0.353965 108 141 173
-0.317301 0.109922 0.752744 87 142 223
-0.150483 0.109922 0.351606 108 142 172
-0.319447 0.109922 0.760882 87 142 225
-0.315075 0.109922 0.785297 87 142 228
0.32598 0.101783 0.288859 169 140 164
-0.31325 0.109174 0.785297 88 141 228
0.329679 0.098895 0.288859 170 140 164
-0.31325 0.109922 0.783398 88 142 227
0.328487 0.101783 0.296997 169 140 165
-0.31325 0.109922 0.788344 88 142 228
0.0366988 0.0366764 -0.905785 132 132 12
0.329679 0.100341 0.296997 170 140 165
0.0366988 0.0338898 0.972479 132 132 251
0.329679 0.101715 0.305135 170 140 166
0.329679 0.101353 0.313274 170 140 167
0.0366988 0.0448148 -0.900021 132 133 13
0.329679 0.0991037 0.321412 170 140 168
0.323831 0.101783 0.32955 169 140 170
0.329679 0.0988582 0.32955 170 140 170
0.0366988 0.0595535 -0.484284 132 135 66
-0.31325 0.116706 -0.0203983 88 142 125
0.0366988 0.0610914 -0.491882 132 135 65
-0.31325 0.117072 -0.0122599 88 142 126
-0.31325 0.11646 -0.00412167 88 142 127
0.325425 0.101783 0.394657 169 140 178
-0.272558 0.00412315 0.938062 93 128 247
0.329679 0.0983576 0.394657 170 140 178
0.329037 0.101783 0.402795 169 140 179
0.329679 0.100872 0.402795 170 140 179
-0.31325 0.117489 0.0935384 88 142 139
0.215742 0.0980726 -0.15875 155 140 107
-0.272558 0.0122614 0.922645 93 129 245
-0.31325 0.117006 0.101677 88 142 140
0.215742 0.101783 -0.153296 155 140 108
0.215742 0.101783 -0.00269846 155 140 127
0.329679 0.101783 0.428001 170 140 182
0.322999 0.101783 0.443487 169 140 184
0.329679 0.0980635 0.443487 170 140 184
-0.31325 0.117315 0.199337 88 142 153
-0.31325 0.117162 0.207475 88 142 154
-0.272558 0.0354886 -0.899339 93 132 13
-0.272558 0.0366764 -0.889809 93 132 14
0.215742 0.098897 0.0691234 155 140 136
-0.31325 0.117249 0.305135 88 142 166
0.213174 0.101783 0.0772618 155 140 137
-0.272558 0.0448148 -0.884512 93 133 15
0.215742 0.101783 0.0748621 155 140 137
-0.31325 0.116809 0.313274 88 142 167
0.32535 0.101783 0.508594 169 140 192
0.329679 0.0978391 0.508594 170 140 192
0.329293 0.101783 0.516732 169 140 193
0.329679 0.101079 0.516732 170 140 193
0.209531 0.101783 0.109815 154 140 142
-0.31325 0.116328 0.419072 88 142 181
0.211659 0.101783 0.117953 154 140 143
0.215742 0.0994523 0.126092 155 140 144
-0.31325 0.11564 0.42721 88 142 182
0.329679 0.0990585 0.549285 170 140 198
0.329679 0.101783 0.543457 170 140 197
-0.272558 0.0594799 -0.484284 93 135 66
-0.31325 0.114691 0.52487 88 142 194
-0.272558 0.0610914 -0.486077 93 135 66
-0.31325 0.115157 0.533009 88 142 195
0.0936672 0.116547 0.622531 139 142 207
0.329679 0.097215 0.557424 170 140 199
0.0366988 0.0610914 -0.245081 132 135 96
0.213871 0.101783 0.18306 155 140 151
0.215742 0.101783 0.181214 155 140 151
0.210041 0.101783 0.191199 154 140 152
0.0307273 0.0692298 -0.492422 131 136 65
0.0366988 0.0613604 -0.492422 132 135 65
0.208912 0.101783 0.215614 154 140 155
0.0366988 0.0692298 -0.496378 132 136 64
0.329679 0.0973145 0.622531 170 140 207
-0.31325 0.111679 0.744606 88 142 222
0.210896 0.101783 0.223752 154 140 156
-0.31325 0.113844 0.752744 88 142 223
0.215742 0.100613 0.23189 155 140 157
0.329679 0.10061 0.630669 170 140 208
-0.150483 0.117971 0.622531 108 143 207
-0.31325 0.114221 0.760882 88 142 225
-0.31325 0.111984 0.777159 88 142 227
0.0936672 0.117432 0.744606 139 142 222
-0.31325 0.110867 0.793436 88 142 229
0.329679 0.100701 0.663222 170 140 212
0.329679 0.096917 0.671361 170 140 213
0.215742 0.0995039 0.28072 155 140 163
0.215742 0.101696 0.288859 155 140 164
0.210681 0.101783 0.296997 154 140 165
0.215742 0.101783 0.289008 155 140 164
0.0366988 0.0825447 -0.704019 132 138 38
0.209528 0.101783 0.305135 154 140 166
0.209161 0.101783 0.313274 154 140 167
0.21008 0.101783 0.321412 154 140 168
0.212764 0.101783 0.32955 155 140 170
0.215742 0.0997801 0.337689 155 140 171
0.329679 0.0946903 0.736467 170 140 221
0.215742 0.101783 0.332685 155 140 170
0.329679 0.094862 0.744606 170 140 222
-0.272558 0.0586264 -0.248272 93 135 96
-0.272558 0.0610914 -0.245739 93 135 96
0.0366988 0.080416 -0.614497 132 138 49
0.215742 0.0996897 0.394657 155 140 178
0.211846 0.101783 0.402795 155 140 179
0.215742 0.101783 0.398997 155 140 178
0.210537 0.101783 0.410934 154 140 180
0.209944 0.101783 0.419072 154 140 181
0.210175 0.101783 0.42721 154 140 182
0.211325 0.101783 0.435349 154 140 183
0.215742 0.100373 0.443487 155 140 184
0.215742 0.101783 0.440769 155 140 184
0.215742 0.0994251 0.451625 155 140 185
0.215742 0.0992057 0.508594 155 140 192
0.213269 0.101783 0.516732 155 140 193
0.215742 0.101783 0.514114 155 140 193
0.211048 0.101783 0.52487 154 140 194
0.210747 0.101783 0.541147 154 140 196
0.212069 0.101783 0.549285 155 140 198
0.215742 0.100338 0.557424 155 140 199
-0.272558 0.0936449 0.829851 93 139 233
0.215742 0.098579 0.565562 155 140 200
0.329658 0.109922 -0.0855051 170 142 117
0.215742 0.0980131 0.622531 155 140 207
0.215742 0.100922 0.630669 155 140 208
0.329679 0.109922 -0.0852177 170 142 117
0.21258 0.101783 0.638807 155 140 209
0.327601 0.109922 -0.06109 169 142 120
0.215742 0.101783 0.632063 155 140 208
0.329679 0.109922 -0.0685929 170 142 119
0.211912 0.101783 0.646946 155 140 210
0.212276 0.101783 0.655084 155 140 211
0.213688 0.101783 0.663222 155 140 212
0.215742 0.0990221 0.671361 155 140 213
0.215742 0.0975284 0.679499 155 140 214
0.0366988 0.10112 -0.0692284 132 140 119
0.215742 0.0981997 0.736467 155 140 221
0.0366988 0.101051 -0.0448133 132 140 122
0.327661 0.109922 0.305135 169 142 166
0.213891 0.101783 0.744606 155 140 222
0.0366988 0.101783 -0.0435959 132 140 122
0.327358 0.109922 0.313274 169 142 167
0.215742 0.101783 0.742154 155 140 222
0.0366988 0.100825 0.03657 132 140 132
0.0366988 0.101783 0.0347103 132 140 132
0.327521 0.109922 0.402795 169 142 179
0.328919 0.109922 0.410934 169 142 180
0.211366 0.101783 0.777159 154 140 227
0.214427 0.101783 0.785297 155 140 228
0.0366988 0.101783 0.0643486 132 140 136
0.329368 0.109922 0.419072 169 142 181
0.215742 0.0979194 0.793436 155 140 229
0.0311085 0.101783 0.142368 131 140 146
0.0366988 0.100827 0.142368 132 140 146
0.327493 0.109922 0.42721 169 142 182
0.0366988 0.101783 0.171422 132 140 149
0.328795 0.109922 0.52487 169 142 194
0.0366988 0.101427 0.248167 132 140 159
0.328677 0.109922 0.533009 169 142 195
0.0366988 0.101783 0.276975 132 140 163
0.0351295 0.101783 0.353965 132 140 173
0.327156 0.109922 0.630669 169 142 208
0.0366988 0.101372 0.353965 132 140 173
0.329003 0.109922 0.638807 169 142 209
0.329679 0.109922 0.644287 170 142 210
0.328385 0.109922 0.655084 169 142 211
-0.272558 0.100478 -0.150612 93 140 108
0.0366988 0.101783 0.380663 132 140 176
-0.272558 0.101783 -0.148744 93 140 109
0.0366988 0.100216 0.47604 132 140 188
-0.272558 0.101181 -0.0692284 93 140 119
0.325473 0.109922 0.663222 169 142 212
0.0366988 0.101783 0.498419 132 140 191
-0.272558 0.101783 -0.0483296 93 140 121
0.0366988 0.100997 0.589977 132 140 203
-0.272558 0.0996499 0.03657 93 140 132
0.0366988 0.0994612 0.614392 132 140 206
-0.272558 0.100835 0.060985 93 140 135
0.0366988 0.101783 0.616486 132 140 206
-0.272558 0.101783 0.0619253 93 140 135
0.0366988 0.0980972 0.712052 132 140 218
-0.272558 0.0999976 0.142368 93 140 146
0.0366988 0.0981357 0.728329 132 140 220
0.0366988 0.101783 0.733293 132 140 221
-0.277099 0.101783 0.166783 92 140 149
0.0366988 0.0980928 0.825989 132 140 233
-0.272558 0.101378 0.166783 93 140 149
-0.272558 0.101783 0.167138 93 140 149
-0.272558 0.100494 0.248167 93 140 159
-0.272558 0.101783 0.269503 93 140 162
-0.272558 0.100365 0.353965 93 140 173
-0.272558 0.101783 0.374093 93 140 175
-0.272558 0.0999198 0.467902 93 140 187
-0.279558 0.101783 0.492317 92 140 190
-0.272558 0.101783 0.490356 93 140 190
-0.272558 0.0999863 0.581839 93 140 202
0.215742 0.109922 -0.00623511 155 142 127
-0.272558 0.101783 0.6038 93 140 204
-0.272558 0.0992902 0.695776 93 140 216
-0.272558 0.101783 0.719231 93 140 219
0.0366988 0.101854 -0.150612 132 140 108
0.215742 0.109922 0.291303 155 142 165
0.215742 0.109922 0.327892 155 142 169
-0.272558 0.109922 -0.0447061 93 142 122
-0.272558 0.109922 0.167467 93 142 149
-0.278717 0.109922 0.272582 92 142 162
-0.272558 0.109922 0.492883 93 142 190
0.215742 0.109922 0.659762 155 142 212
-0.272558 0.109922 0.607301 93 142 205
-0.272558 0.109922 0.721821 93 142 220
-0.272558 0.109191 0.809712 93 141 231
-0.272558 0.117138 0.0691234 93 142 136
0.215742 0.114439 -0.0122599 155 142 126
0.215742 0.113143 0.0854 155 142 138
0.215742 0.114849 0.0935384 155 142 139
0.215742 0.116398 0.199337 155 142 153
0.215742 0.116689 0.207475 155 142 154
-0.272558 0.117945 0.614392 93 143 206
0.215742 0.120054 -0.142473 155 143 109
-0.272558 0.116757 0.728329 93 142 220
-0.272558 0.11094 0.817851 93 142 232
0.223881 -0.111671 -0.606359 156 113 50
0.223881 -0.116983 -0.590082 156 113 52
-0.311588 -0.0202919 0.899234 88 125 242
-0.310347 -0.0121535 0.891096 88 126 241
-0.305111 -0.00727916 0.899234 89 127 242
-0.305111 -0.00401524 0.896915 89 127 242
-0.305111 0.00412315 0.901313 89 128 242
0.101806 -0.00401524 -0.922549 140 127 10
0.101806 -0.00252322 -0.988861 140 127 1
-0.305111 0.034784 -0.899339 89 132 13
0.101806 0.00412315 -0.996507 140 128 0
-0.305111 0.0355506 -0.883062 89 132 15
-0.305111 0.0366764 -0.881844 89 132 15
0.101806 -0.00269781 -0.923754 140 127 10
-0.142345 -0.00401524 -0.921655 109 127 10
0.223881 -0.111675 0.671361 156 113 213
-0.142345 -0.00294414 -0.980722 109 127 2
0.223881 -0.112075 0.679499 156 113 214
0.101806 0.0203998 0.996058 140 130 254
-0.305824 0.0610914 -0.484284 89 135 66
0.223881 -0.112513 0.687637 156 113 215
-0.305111 0.0603738 -0.484284 89 135 66
0.223881 -0.112624 0.695776 156 113 216
-0.305111 0.0610914 -0.484917 89 135 66
-0.309395 0.0610914 -0.476145 88 135 67
-0.26442 -0.112444 -0.606359 94 113 50
-0.312114 0.0610914 -0.468007 88 135 68
-0.142345 -0.00245466 -0.923754 109 127 10
-0.26442 -0.112705 -0.59822 94 113 51
0.101806 0.0362867 -0.899339 140 132 13
0.101806 0.0366764 -0.898995 140 132 13
0.101806 0.0357789 0.964341 140 132 250
-0.142345 0.0357611 -0.899339 109 132 13
-0.142345 0.0366764 -0.897958 109 132 13
-0.142345 0.0327831 0.964341 109 132 250
-0.30922 0.0610914 -0.25641 88 135 95
-0.305111 0.0587307 -0.25641 89 135 95
-0.305111 0.0610914 -0.252942 89 135 95
0.333052 -0.0691219 -0.476145 170 119 67
0.333621 -0.0691219 -0.468007 170 119 68
-0.306818 0.0692298 -0.484284 88 136 66
0.333431 -0.0691219 -0.459869 170 119 69
-0.305111 0.0692298 -0.485888 89 136 66
0.334125 -0.0691219 -0.45173 170 119 70
0.334287 -0.0691219 -0.443592 170 119 71
-0.142345 0.0599443 -0.484284 109 135 66
-0.142345 0.0610914 -0.485942 109 135 66
0.334356 -0.0691219 -0.435454 170 119 72
0.335902 -0.0691219 -0.427315 170 119 73
0.336071 -0.0691219 -0.419177 170 119 74
0.335858 -0.0691219 -0.411039 170 119 75
0.336446 -0.0691219 -0.4029 170 119 76
0.337139 -0.0691219 -0.394762 170 119 77
0.336726 -0.0691219 -0.386624 170 119 78
0.335485 -0.0691219 -0.378485 170 119 79
-0.308855 0.0773682 -0.484284 88 137 66
0.331649 -0.0609836 -0.760987 170 120 30
-0.305111 0.0773682 -0.48761 89 137 65
0.33338 -0.0609836 -0.752849 170 120 32
0.335611 -0.0609836 -0.744711 170 120 33
0.101806 0.0597615 -0.248272 140 135 96
0.337289 -0.0609836 -0.736572 171 120 34
0.101806 0.0610914 -0.245462 140 135 96
0.337817 -0.0609836 -0.734664 171 120 34
0.101806 0.0632035 -0.492422 140 136 65
0.101806 0.0692298 -0.495966 140 136 64
-0.310661 0.0855065 -0.484284 88 138 66
-0.142345 0.0610914 -0.244913 109 135 96
-0.305111 0.0855065 -0.48881 89 138 65
0.101806 0.0818704 -0.704019 140 138 38
-0.312568 0.0855065 0.817851 88 138 232
-0.305111 0.0855065 0.824621 89 138 233
-0.142517 0.0773682 -0.695881 109 137 39
0.101806 0.0811217 -0.614497 140 138 49
-0.306067 0.0936449 -0.492422 88 139 65
0.337817 -0.0653905 -0.476145 171 119 67
0.330243 -0.0609836 -0.468007 170 120 68
-0.143328 0.0855065 -0.704019 109 138 38
0.337817 -0.0658422 -0.468007 171 119 68
-0.142345 0.0845077 -0.704019 109 138 38
0.332653 -0.0609836 -0.459869 170 120 69
0.337817 -0.0659526 -0.459869 171 119 69
-0.142345 0.0773747 -0.695881 109 137 39
0.332574 -0.0609836 -0.45173 170 120 70
0.337817 -0.0662468 -0.45173 171 119 70
0.331144 -0.0609836 -0.443592 170 120 71
0.337817 -0.0665557 -0.443592 171 119 71
0.332688 -0.0609836 -0.435454 170 120 72
0.337817 -0.0664585 -0.435454 171 119 72
0.33345 -0.0609836 -0.427315 170 120 73
0.337817 -0.0674319 -0.427315 171 119 73
0.33501 -0.0609836 -0.419177 170 120 74
0.337817 -0.0677251 -0.419177 171 119 74
-0.142345 0.0793022 -0.614497 109 138 49
0.333998 -0.0609836 -0.411039 170 120 75
0.337817 -0.0676608 -0.411039 171 119 75
0.332862 -0.0609836 -0.4029 170 120 76
0.337817 -0.0681347 -0.4029 171 119 76
0.333593 -0.0609836 -0.394762 170 120 77
0.337817 -0.0687229 -0.394762 171 119 77
0.333424 -0.0609836 -0.386624 170 120 78
0.337817 -0.0685295 -0.386624 171 119 78
0.33499 -0.0609836 -0.378485 170 120 79
0.337817 -0.0686079 -0.378485 171 119 79
0.336059 -0.0609836 -0.370347 170 120 80
0.337817 -0.0667623 -0.370347 171 119 80
0.336525 -0.0609836 -0.362209 170 120 81
0.337817 -0.0656279 -0.362209 171 119 81
0.337479 -0.0609836 -0.35407 171 120 82
0.337817 -0.0632636 -0.35407 171 119 82
0.337817 -0.0609836 -0.352282 171 120 83
0.336363 -0.0528452 -0.801679 170 121 25
0.337817 -0.0528452 -0.806424 171 121 25
0.33443 -0.0528452 -0.793541 170 121 26
0.335372 -0.0528452 -0.785402 170 121 27
0.335809 -0.0528452 -0.777264 170 121 28
0.337817 -0.0528452 -0.771646 171 121 29
0.337817 -0.0585676 -0.720296 171 120 36
0.337817 -0.0576633 -0.712157 171 120 37
0.337817 -0.0572662 -0.704019 171 120 38
-0.148969 0.101783 -0.150612 109 140 108
-0.142345 0.101054 -0.0692284 109 140 119
-0.305111 0.101534 -0.142473 89 140 109
-0.305111 0.101783 -0.14225 89 140 109
-0.142345 0.10085 -0.0448133 109 140 122
-0.305111 0.0998598 -0.0692284 89 140 119
0.101806 0.100225 0.060985 140 140 135
-0.142345 0.101783 -0.0438069 109 140 122
0.101806 0.101783 0.0634516 140 140 136
-0.142345 0.100704 0.03657 109 140 132
0.101806 0.100077 0.142368 140 140 146
-0.305111 0.0996102 -0.0448133 89 140 122
-0.142345 0.100721 0.060985 109 140 135
-0.305111 0.101783 -0.0419134 89 140 122
0.101806 0.100006 0.166783 140 140 149
-0.142345 0.101783 0.0625608 109 140 135
0.0960647 0.101783 0.174922 140 140 150
-0.147194 0.101783 0.142368 109 140 146
-0.305111 0.0992967 0.0284317 89 140 131
0.101806 0.101783 0.17037 140 140 149
0.101806 0.100341 0.248167 140 140 159
-0.142345 0.101783 0.168488 109 140 149
-0.305111 0.0994199 0.060985 89 140 135
0.101806 0.100127 0.272582 140 140 162
-0.306995 0.101783 0.0691234 88 140 136
0.0972971 0.101783 0.28072 140 140 163
-0.142345 0.101783 0.25236 109 140 160
-0.305111 0.101783 0.0671843 89 140 136
0.101806 0.101783 0.276473 140 140 163
-0.305111 0.101273 0.13423 89 140 145
0.101806 0.100344 0.353965 140 140 173
-0.142345 0.100608 0.272582 109 140 162
0.101806 0.101783 0.352473 140 140 172
-0.142345 0.101783 0.274485 109 140 162
-0.142345 0.101783 0.355877 109 140 173
0.101806 0.100185 0.37838 140 140 176
-0.305111 0.0998131 0.166783 89 140 149
0.101806 0.101783 0.380924 140 140 176
-0.142345 0.100543 0.37838 109 140 176
-0.309308 0.101783 0.174922 88 140 150
0.101806 0.0998892 0.47604 140 140 188
-0.142345 0.101783 0.380299 109 140 176
-0.305111 0.101783 0.170764 89 140 149
-0.142345 0.100195 0.47604 109 140 188
-0.305111 0.1002 0.240029 89 140 158
0.101806 0.0997162 0.492317 140 140 190
0.101806 0.101783 0.495856 140 140 191
0.101806 0.0990638 0.589977 140 140 203
-0.142345 0.101783 0.49629 109 140 191
-0.142345 0.0996493 0.589977 109 140 203
-0.305111 0.100112 0.272582 89 140 162
-0.309764 0.101783 0.28072 88 140 163
0.101806 0.101249 0.614392 140 140 206
-0.305111 0.101783 0.275889 89 140 163
-0.150469 0.101783 0.614392 108 140 206
-0.310531 0.101783 0.337689 88 140 171
0.101806 0.101535 0.703914 140 140 217
-0.142345 0.101783 0.613916 109 140 206
-0.305111 0.100224 0.345827 89 140 172
-0.142345 0.101254 0.703914 109 140 217
-0.305111 0.101783 0.34334 89 140 171
0.101806 0.0982346 0.728329 140 140 220
0.101806 0.101783 0.732407 140 140 221
-0.142345 0.0987133 0.728329 109 140 220
0.101806 0.0975621 0.825989 140 140 233
-0.142345 0.101783 0.731246 109 140 221
-0.305111 0.101482 0.386519 89 140 177
-0.142345 0.0962103 0.825989 109 140 233
-0.312182 0.101783 0.394657 88 140 178
0.219658 0.0203998 0.972479 156 130 251
-0.305111 0.101783 0.386877 89 140 177
-0.309565 0.101783 0.451625 88 140 185
0.223881 0.0203998 0.970361 156 130 251
-0.305111 0.099622 0.459764 89 140 186
-0.305111 0.101783 0.456211 89 140 186
0.223881 0.0285382 -0.921606 156 131 10
0.223881 0.0267765 0.948064 156 131 248
0.333991 -0.0202919 0.866681 170 125 238
0.223881 0.0285382 0.945287 156 131 248
0.337817 -0.0202919 0.863371 171 125 238
0.223881 0.0254288 0.964341 156 131 250
-0.305111 0.100612 0.500455 89 140 191
0.332448 -0.0202919 0.874819 170 125 239
-0.311586 0.101783 0.508594 88 140 192
0.33096 -0.0202919 0.882957 170 125 240
-0.305111 0.101783 0.501707 89 140 191
-0.305111 0.0990426 0.5737 89 140 201
0.223881 0.0366764 -0.898235 156 132 13
0.334795 -0.0121535 0.874819 170 126 239
0.223881 0.0448148 -0.891894 156 133 14
-0.305111 0.0999544 0.614392 89 140 206
-0.310687 0.101783 0.622531 88 140 207
-0.305111 0.0981007 0.687637 89 140 215
0.223881 0.0610914 -0.485499 156 135 66
-0.142345 0.102615 -0.150612 109 141 108
-0.305111 0.10145 0.728329 89 140 220
0.0448372 -0.00401524 -0.923892 133 127 10
-0.311046 0.101783 0.817851 88 140 232
-0.305111 0.101783 0.821301 89 140 232
-0.142345 0.102645 0.142368 109 141 146
0.101806 0.109922 0.280409 140 142 163
0.0448372 -0.00256858 -0.988861 133 127 1
0.337817 0.0296721 -0.883062 171 131 15
0.337817 0.0366764 -0.87737 171 132 16
-0.142345 0.109922 0.247022 109 142 159
-0.27086 0.00412315 0.939926 93 128 247
-0.26442 0.00412315 0.945535 94 128 248
-0.142345 0.10348 0.353965 109 141 173
0.101806 0.109922 0.616235 140 142 206
-0.142345 0.109922 0.352018 109 142 172
-0.270362 0.0122614 0.923649 93 129 245
-0.267554 0.0122614 0.931787 93 129 246
-0.270613 0.0203998 0.923649 93 130 245
-0.305111 0.109922 0.130399 89 142 144
-0.26442 0.014073 0.931787 94 129 246
0.0448372 0.0343366 -0.988861 133 132 1
-0.26442 0.0360049 -0.899339 94 132 13
0.223881 0.0610914 -0.251537 156 135 95
-0.265708 0.0366764 -0.891201 94 132 14
-0.310961 0.109922 0.394657 88 142 178
-0.312457 0.109922 0.443487 88 142 184
-0.26442 0.0367845 -0.891201 94 132 14
0.223881 0.0692298 -0.492219 156 136 65
0.0448372 0.0366764 -0.905511 133 132 12
0.0448372 0.0339841 0.972479 133 132 251
-0.26442 0.0600921 -0.484284 94 135 66
0.337817 0.0835993 0.801574 171 138 230
-0.26442 0.0610914 -0.485445 94 135 66
0.0448372 0.0448148 -0.899837 133 133 13
-0.311856 0.109922 0.785297 88 142 228
-0.306952 0.109922 0.793436 88 142 229
-0.305111 0.109551 0.793436 89 141 229
-0.305111 0.109922 0.796047 89 142 229
-0.305111 0.113845 -0.036675 89 142 123
0.330627 0.0936449 0.760882 170 139 225
0.101806 0.117127 0.622531 140 142 207
-0.26442 0.0586346 -0.248272 94 135 96
-0.26442 0.0610914 -0.245595 94 135 96
0.101806 0.117971 0.744606 140 143 222
0.0448372 0.0610914 -0.247345 133 135 96
0.223881 0.0968632 -0.175027 156 140 105
0.0448372 0.0618151 -0.492422 133 135 65
0.223881 0.0980291 -0.15875 156 140 107
0.0448372 0.0692298 -0.49856 133 136 64
0.223881 0.101783 -0.153424 156 140 108
0.223881 0.0984288 0.00401671 156 140 128
0.223881 0.101783 -0.00178346 156 140 127
0.223881 0.0988734 0.060985 156 140 135
0.221073 0.101783 0.0691234 156 140 136
0.0448372 0.0822665 -0.704019 133 138 38
0.223881 0.101783 0.0663262 156 140 136
0.223881 0.0991028 0.13423 156 140 145
-0.26442 0.0936449 0.831119 94 139 233
0.223881 0.0993195 0.166783 156 140 149
0.222984 0.101783 0.174922 156 140 150
0.223881 0.101783 0.174025 156 140 150
0.223881 0.0997728 0.240029 156 140 158
0.0448372 0.0811298 -0.614497 133 138 49
0.223881 0.0994963 0.272582 156 140 162
0.221319 0.101783 0.28072 156 140 163
0.223881 0.101783 0.278164 156 140 163
0.215821 0.101783 0.288859 155 140 164
0.219364 0.101783 0.337689 155 140 171
0.223881 0.0995957 0.345827 156 140 172
0.223881 0.101783 0.342027 156 140 171
-0.305111 0.116996 0.630669 89 142 208
-0.305111 0.117205 0.638807 89 142 209
0.223881 0.100492 0.386519 156 140 177
0.21838 0.101783 0.394657 155 140 178
0.223881 0.101783 0.388209 156 140 177
0.217269 0.101783 0.443487 155 140 184
-0.305111 0.116396 0.744606 89 142 222
0.223517 0.101783 0.451625 156 140 185
-0.305111 0.116533 0.752744 89 142 223
0.223881 0.101783 0.45197 156 140 185
-0.305111 0.112686 0.785297 89 142 228
-0.305111 0.110509 0.801574 89 142 230
0.223881 0.0997087 0.500455 156 140 191
0.219018 0.101783 0.508594 155 140 192
0.223881 0.101783 0.503055 156 140 192
0.217038 0.101783 0.557424 155 140 199
0.222982 0.101783 0.565562 156 140 200
0.223881 0.0983828 0.5737 156 140 201
0.223881 0.101783 0.566415 156 140 200
0.223881 0.098538 0.614392 156 140 206
0.331936 0.101783 -0.0855051 170 140 117
0.220282 0.101783 0.622531 156 140 207
0.223881 0.101783 0.618429 156 140 206
0.332584 0.101783 -0.0773667 170 140 118
0.0448372 0.101234 -0.0773667 133 140 118
0.331513 0.101783 -0.0692284 170 140 119
0.223881 0.101272 0.679499 156 140 214
-0.26442 0.100504 -0.150612 94 140 108
-0.26442 0.101783 -0.148795 94 140 109
-0.26442 0.101199 -0.0692284 94 140 119
0.223881 0.0975362 0.687637 156 140 215
0.0448372 0.101783 -0.0403585 133 140 122
-0.26442 0.101783 -0.0481965 94 140 121
0.0448372 0.101525 0.0284317 133 140 131
-0.26442 0.0994665 0.03657 94 140 132
0.223881 0.0979727 0.728329 156 140 220
0.0448372 0.101783 0.0281379 133 140 131
-0.26442 0.10046 0.060985 94 140 135
0.223881 0.0979158 0.801574 156 140 230
-0.26442 0.101783 0.0622201 94 140 135
0.0409532 0.101783 0.0691234 133 140 136
-0.26442 0.0999927 0.142368 94 140 146
0.0448372 0.100655 0.0691234 133 140 136
0.0448372 0.101783 0.0705942 133 140 137
0.0448372 0.10053 0.142368 133 140 146
0.0448372 0.101783 0.140018 133 140 145
-0.26442 0.101496 0.166783 94 140 149
-0.26442 0.101783 0.167045 94 140 149
-0.26442 0.100394 0.248167 94 140 159
0.0401689 0.101783 0.174922 133 140 150
0.0448372 0.100392 0.174922 133 140 150
0.0448372 0.101783 0.176896 133 140 150
-0.26442 0.101783 0.268645 94 140 162
0.0448372 0.100242 0.248167 133 140 159
-0.26442 0.100589 0.353965 94 140 173
-0.296973 -0.110017 -0.573805 90 113 54
-0.296973 -0.109814 -0.569123 90 113 55
-0.26442 0.101783 0.374236 94 140 175
0.0402616 0.101783 0.28072 133 140 163
-0.26442 0.0999494 0.467902 94 140 187
-0.296973 -0.110201 -0.54939 90 113 57
0.0448372 0.10036 0.28072 133 140 163
0.0448372 0.101783 0.28273 133 140 164
-0.296973 -0.109814 -0.554823 90 113 57
0.0448372 0.100391 0.353965 133 140 173
-0.26442 0.101783 0.491767 94 140 190
-0.26442 0.100133 0.581839 94 140 202
