ply
format ascii 1.0
comment Created by Open3D
element vertex 1208
property double x
property double y
property double z
property uchar red
property uchar green
property uchar blue
end_header
-0.565487 0.345425 -0.19131 55 172 103
0.166892 -0.444411 -0.354061 149 71 82
0.386605 0.0365523 -0.352194 177 132 83
0.166892 -0.443563 -0.354398 149 71 82
0.492393 -0.736514 -0.479225 190 34 66
0.611086 -0.199436 -0.118072 205 102 112
-0.0367434 0.183028 -0.0692466 123 151 119
0.614456 -0.199436 -0.110007 206 102 113
-0.0417737 0.183028 -0.0529714 122 151 121
0.611354 -0.191299 -0.126209 205 103 111
-0.039064 0.191166 -0.061109 123 152 120
0.609931 -0.191299 0.117917 205 103 143
-0.044145 0.191166 -0.0529714 122 152 121
0.16224 -0.394737 0.362043 148 77 174
0.608665 -0.191299 0.126054 205 103 144
0.166892 -0.394737 0.363916 149 77 174
0.607075 -0.191299 0.134192 205 103 145
0.264542 -0.703964 -0.435263 161 38 72
0.60727 -0.183161 -0.142484 205 104 109
0.386605 0.0863232 0.150467 177 139 147
0.610837 -0.183161 -0.134347 205 104 110
0.386605 0.0935151 0.148501 177 139 146
0.614456 -0.183161 0.111687 206 104 142
0.491101 -0.671414 -0.451711 190 42 70
0.386605 0.101653 0.144454 177 140 146
-0.0365469 0.194084 -0.061109 123 152 120
0.166892 -0.378462 0.367356 149 79 174
0.492393 -0.671414 -0.451531 190 42 70
0.381291 0.10979 0.14233 176 141 146
0.492393 -0.67821 0.362043 190 41 174
0.614456 -0.175366 -0.134347 206 105 110
0.386605 0.10979 0.139295 177 141 145
-0.756541 0.484117 -0.207585 31 189 101
0.386605 0.117928 0.139786 177 143 145
-0.752651 0.484117 -0.215644 32 189 100
0.492393 -0.663276 -0.453331 190 43 70
-0.109785 0.0528274 0.108168 114 134 141
-0.569069 0.410879 -0.28896 55 180 91
-0.565487 0.410879 -0.296822 55 180 90
0.264542 -0.663276 0.364844 161 43 174
-0.109785 0.0534281 0.109779 114 134 141
-0.572998 0.410879 -0.280823 54 180 92
-0.565487 0.405922 -0.272685 55 179 93
0.163743 -0.337775 -0.305235 148 84 89
0.166892 -0.337775 -0.307272 149 84 88
0.38156 0.14234 -0.313373 176 146 88
-0.109785 0.0691025 0.131735 114 136 144
0.166892 -0.337775 0.343361 149 84 171
0.492393 -0.638864 -0.448229 190 46 70
0.386605 0.14234 -0.310953 177 146 88
-0.565487 0.415221 -0.28896 55 180 91
-0.565487 0.412521 -0.280823 55 180 92
-0.394999 0.0609649 0.0609541 77 135 135
0.492393 -0.630726 -0.446786 190 47 71
-0.362049 0.23896 0.158605 81 158 148
0.492393 -0.622589 -0.448453 190 48 70
0.492393 -0.622589 0.380271 190 48 176
-0.160326 0.435292 -0.166897 107 183 106
-0.288811 0.915407 -0.154831 91 244 108
-0.15861 0.435292 -0.165598 107 183 106
-0.397225 0.0691025 0.0609541 77 136 135
0.264542 -0.622589 -0.423273 161 48 74
0.492393 -0.598176 -0.440835 190 51 71
0.166817 -0.288949 -0.297098 149 91 90
-0.394599 0.0695812 0.044679 77 136 133
-0.394702 0.0772401 0.0528166 77 137 134
0.166892 -0.288949 -0.297154 149 91 90
-0.394599 0.0767203 0.0528166 77 137 134
-0.398148 0.0772401 0.0609541 77 137 135
-0.397775 0.0772401 0.0690916 77 137 136
-0.114978 0.134203 -0.231997 113 145 98
-0.397375 0.0853775 0.0528166 77 138 134
-0.109785 0.134203 -0.229688 114 145 98
0.492393 -0.565626 0.393009 190 55 178
-0.15861 0.474396 -0.22386 107 188 99
-0.401306 0.0853775 0.0690916 76 138 136
0.614456 -0.126199 0.108401 206 111 141
-0.15861 0.47598 -0.226058 107 188 99
-0.109785 0.14234 -0.232713 114 146 98
0.606483 -0.118061 -0.142484 205 112 109
0.608032 -0.118061 -0.134347 205 112 110
0.611395 -0.118061 -0.126209 205 112 111
0.613945 -0.118061 -0.118072 206 112 112
-0.399585 0.0935151 0.0528166 77 139 134
0.614456 -0.118061 -0.116359 206 112 113
-0.397572 0.101653 -0.166897 77 140 106
-0.394599 0.101653 -0.172633 77 140 105
-0.401705 0.101653 0.0528166 76 140 134
0.264542 -0.549351 0.386695 161 57 177
0.612403 -0.109923 0.134192 206 113 145
0.492393 -0.516801 -0.411842 190 62 75
-0.400011 0.10979 -0.175035 76 141 105
0.614456 -0.111246 0.14233 206 113 146
0.492393 -0.516801 0.398526 190 62 178
0.256889 -0.533076 -0.402886 160 60 76
0.163109 -0.215711 -0.297098 148 100 90
0.264542 -0.533076 -0.409222 161 60 75
0.166892 -0.215711 -0.299461 149 100 89
0.492393 -0.515362 -0.411023 190 62 75
-0.398472 0.10979 -0.166897 77 141 106
0.492393 -0.508663 -0.408046 190 63 75
0.487787 -0.508663 0.402731 190 63 179
-0.288811 0.970789 -0.0204213 91 251 125
0.492393 -0.508663 0.400238 190 63 179
0.264542 -0.524938 -0.411098 161 61 75
0.492393 -0.492388 -0.403663 190 65 76
-0.401265 0.117928 -0.166897 76 143 106
0.614456 -0.108784 0.134192 206 114 145
0.486132 -0.48425 -0.402886 189 66 76
0.492393 -0.48425 -0.400212 190 66 76
-0.362049 0.370192 -0.199046 81 175 102
0.264542 -0.48425 0.382927 161 66 176
0.264542 -0.476113 0.389643 161 67 177
0.166064 -0.158749 0.23998 149 107 158
0.386605 0.305091 -0.144851 177 166 109
0.492393 -0.435425 -0.384934 190 72 78
0.166892 -0.158749 0.240628 149 107 158
-0.15861 0.580206 -0.329648 107 201 85
0.492393 -0.427288 0.387293 190 73 177
0.386605 0.313229 -0.141396 177 167 109
0.161081 -0.150611 0.23998 148 108 158
0.166892 -0.150611 0.242263 149 108 158
0.386605 0.32123 -0.134347 177 168 110
0.492393 -0.41915 0.390516 190 74 177
-0.758512 0.614318 -0.142484 31 206 109
0.164867 -0.142474 -0.313373 149 109 88
0.166892 -0.142474 -0.314686 149 109 87
0.264542 -0.435425 -0.376759 161 72 79
-0.757074 0.622455 -0.150622 31 207 108
-0.754714 0.622455 -0.142484 31 207 109
0.492393 -0.378462 -0.351793 190 79 83
0.264542 -0.402875 0.385909 161 76 177
0.386605 0.326983 -0.0285589 177 169 124
0.166892 -0.109923 0.238936 149 113 158
0.386605 0.32653 -0.0122837 177 169 126
0.166892 -0.101786 0.237413 149 115 158
0.264542 -0.394737 0.389787 161 77 177
-0.752651 0.626421 -0.150622 32 207 108
0.492393 -0.362187 -0.352422 190 81 83
-0.752651 0.628253 -0.142484 32 208 109
0.492393 -0.362187 0.37827 190 81 176
0.264542 -0.378462 -0.358062 161 79 82
0.614456 -0.0204105 -0.167582 206 125 106
0.166892 -0.0692357 0.246032 149 119 159
-0.679413 0.54108 -0.310636 41 196 88
0.264542 -0.362187 -0.353289 161 81 82
0.6074 -0.0122729 -0.183172 205 126 104
0.610797 -0.0122729 -0.175035 205 126 105
-0.679413 0.549218 -0.310504 41 198 88
0.166892 -0.0651112 0.248118 149 119 159
0.264542 -0.35405 -0.34844 161 82 83
0.492393 -0.329637 -0.325595 190 85 86
0.613849 -0.0041354 -0.175035 206 127 105
0.492393 -0.3215 -0.322989 190 87 86
0.264542 -0.345912 0.373869 161 83 175
-0.367771 0.50853 -0.378473 81 192 79
0.612287 0.00400218 -0.183172 206 128 104
0.166892 -0.0366855 0.248667 149 123 159
-0.362049 0.513041 -0.378473 81 193 79
0.264542 -0.313362 -0.327183 161 88 86
0.485059 -0.280812 0.33763 189 92 171
0.492393 -0.280812 0.333632 190 92 170
-0.109785 0.319256 0.288805 114 168 164
-0.109785 0.320141 0.296943 114 168 165
-0.109785 0.319109 0.30508 114 168 166
0.687694 -0.826027 0.112397 215 22 142
-0.109785 0.321183 0.321355 114 168 168
-0.109785 0.318782 0.329493 114 168 170
0.492393 -0.248262 -0.294034 190 96 90
-0.0365469 0.361471 0.27253 123 174 162
0.160719 0.0121396 0.20743 148 129 154
0.163801 0.0121396 0.215567 148 129 155
-0.394599 0.239896 0.134192 77 158 145
-0.0365469 0.370171 0.158605 123 175 148
0.261304 -0.264537 0.329493 161 94 170
-0.0392749 0.370192 0.166742 122 175 149
0.492393 -0.223849 -0.299933 190 99 89
-0.0365469 0.370192 0.158674 123 175 148
0.264542 -0.264537 0.331725 161 94 170
0.491339 -0.223849 0.288805 190 99 164
0.166892 0.0284148 -0.320557 149 131 87
0.492393 -0.223849 0.287624 190 99 164
0.263809 -0.248262 -0.32151 161 96 87
-0.0365469 0.362603 0.215567 123 174 155
0.264542 -0.248262 -0.321743 161 96 86
0.264542 -0.248262 0.340575 161 96 171
0.264542 -0.240124 -0.323974 161 97 86
-0.0365469 0.373004 0.166742 123 175 149
0.160181 0.0446899 0.0935043 148 133 139
0.159829 0.0446899 0.17488 148 133 150
0.162139 0.0446899 0.183017 148 133 151
0.166395 0.0446899 0.191155 149 133 152
0.6817 -0.760927 -0.362198 214 30 81
0.607472 0.0772401 -0.166897 205 137 106
0.166892 0.0446899 0.192014 149 133 152
0.610501 0.0772401 -0.158759 205 137 107
0.687064 -0.760927 -0.354061 215 30 82
0.612026 0.0772401 -0.150622 206 137 108
0.612653 0.0772401 -0.142484 206 137 109
0.687694 -0.760927 -0.353096 215 30 82
0.16175 0.0528274 0.0935043 148 134 139
0.612689 0.0772401 -0.134347 206 137 110
0.685242 -0.752789 -0.362198 215 32 81
0.614456 0.0772401 -0.126971 206 137 111
0.687694 -0.754872 -0.354061 215 31 82
0.488391 -0.166886 -0.28896 190 106 91
0.608573 0.0772401 0.134192 205 137 145
0.687694 -0.752789 -0.356678 215 32 82
0.492393 -0.166886 -0.285391 190 106 91
0.492393 -0.162368 -0.28896 190 107 91
0.162448 0.0609649 0.0853667 148 135 138
0.492393 -0.158749 -0.292486 190 107 90
0.262708 -0.183161 0.288805 161 104 164
0.264542 -0.183161 0.289289 161 104 164
0.687694 -0.749936 -0.370336 215 32 80
0.614456 0.084026 -0.134347 206 138 110
0.488392 -0.150611 0.248118 190 108 159
0.264542 -0.166886 0.290406 161 106 165
-0.109785 0.427154 -0.115084 114 182 113
0.486547 -0.142474 0.248118 190 109 159
0.492393 -0.142474 0.243482 190 109 159
0.161879 0.0691025 0.0772292 148 136 137
0.492393 -0.135507 0.248118 190 110 159
0.487571 -0.134336 0.256255 190 110 160
0.492393 -0.134336 0.249312 190 110 159
0.487662 -0.134336 0.27253 190 110 162
0.489851 -0.126199 -0.305235 190 111 89
0.492393 -0.126199 -0.303938 190 111 89
0.492393 -0.129433 0.256255 190 111 160
-0.394599 0.345779 -0.174687 77 172 105
0.490671 -0.126199 0.264393 190 111 161
0.492393 -0.126199 0.261347 190 111 161
-0.394599 0.346227 -0.175035 77 172 105
0.490593 -0.126199 0.27253 190 111 162
0.264542 -0.126199 0.27128 161 111 162
-0.394599 0.353916 -0.182831 77 173 104
0.161977 0.0772401 0.0690916 148 137 136
0.68416 -0.712102 0.191155 215 37 152
0.492393 -0.122708 0.264393 190 112 161
0.687694 -0.712102 0.18442 215 37 151
0.492282 -0.118061 0.27253 190 112 162
0.67985 -0.712102 0.199292 214 37 153
0.492393 -0.118061 0.272162 190 112 162
0.264542 -0.0936483 -0.357594 161 116 82
-0.109785 0.467325 -0.166897 114 187 106
-0.109785 0.467842 -0.168586 114 187 106
0.492393 -0.109923 0.271836 190 113 162
-0.109785 0.460372 -0.158759 114 186 107
0.264542 -0.0773732 0.243346 161 118 159
0.492393 -0.0936483 -0.310652 190 116 88
-0.109785 0.47005 -0.175035 114 187 105
0.264542 -0.0692357 0.237038 161 119 158
0.166892 0.0853775 -0.323849 149 138 86
0.161317 0.0853775 0.0609541 148 138 135
0.492393 -0.0855108 -0.308591 190 117 88
0.492393 -0.0773732 -0.309545 190 118 88
-0.362049 0.801298 -0.329648 81 230 85
0.0366908 -0.695258 0.280668 132 39 163
0.0366908 -0.687689 0.282784 132 40 164
-0.362049 0.801481 -0.329289 81 230 86
-0.362049 0.809619 -0.315004 81 231 87
-0.362049 0.814397 -0.305235 81 231 89
-0.117026 0.50853 -0.231997 113 192 98
-0.362049 0.817756 -0.301749 81 232 89
0.492393 -0.0529606 -0.315348 190 121 87
-0.109785 0.504337 -0.22386 114 192 99
-0.109785 0.50853 -0.22701 114 192 99
0.166892 0.0935151 -0.324771 149 139 86
-0.362049 0.823418 -0.297098 81 232 90
0.614456 0.150478 0.0844758 206 147 138
-0.0442124 0.492255 -0.142484 122 190 109
-0.109785 0.515646 -0.231997 114 193 98
-0.0446657 0.492255 -0.134347 122 190 110
-0.109785 0.516667 -0.233453 114 193 98
0.492393 -0.0366855 0.228678 190 123 157
-0.109785 0.524137 -0.248272 114 194 96
0.4874 -0.028548 -0.32151 190 124 87
-0.0365469 0.499575 -0.142484 123 191 109
-0.109785 0.523243 -0.240135 114 194 97
-0.0365469 0.493974 -0.134347 123 190 110
0.492393 -0.0339038 0.223705 190 123 156
0.492393 -0.0204105 -0.322296 190 125 86
0.687694 -0.622589 -0.325686 215 48 86
0.492393 -0.0233476 0.215567 190 125 155
0.264542 -0.0041354 -0.361538 161 127 81
0.687694 -0.622589 0.200001 215 48 153
0.687694 -0.618604 -0.32151 215 49 87
0.389187 -0.88299 0.256255 177 15 160
0.687694 -0.614451 -0.317635 215 49 87
0.394743 -0.887463 0.256255 178 14 160
0.163784 0.101653 0.126054 148 140 144
0.394743 -0.88299 0.259568 178 15 161
0.681383 -0.614451 0.20743 214 49 154
0.687694 -0.614451 0.201458 215 49 153
0.492393 -0.00581032 0.17488 190 127 150
-0.500387 0.25464 0.0365414 64 160 132
0.492393 -0.0041354 0.169525 190 127 149
0.687694 -0.608422 0.20743 215 50 154
-0.280673 -0.598176 -0.397223 92 51 77
0.687694 -0.606313 0.209596 215 50 154
0.394743 -0.874852 0.263478 178 16 161
0.687694 -0.598176 -0.320786 215 51 87
0.163218 0.10979 0.117917 148 141 143
0.394743 -0.872482 0.264393 178 16 161
0.394743 -0.866715 0.266661 178 17 161
-0.28214 -0.590038 -0.402886 92 52 76
-0.280673 -0.590694 -0.402886 92 52 76
0.492393 0.0134164 0.166742 190 129 149
0.394743 -0.858577 0.271822 178 18 162
0.492393 0.0202772 0.163119 190 130 148
0.394743 -0.857551 0.27253 178 18 162
0.0292083 -0.647001 -0.280823 131 45 92
0.394743 -0.85044 0.278615 178 19 163
-0.394599 0.500332 -0.378473 77 191 79
-0.394599 0.498187 -0.370336 77 191 80
0.60778 0.17489 0.0121288 205 150 129
0.394743 -0.849054 0.280668 178 19 163
0.608776 0.17489 0.0202664 205 150 130
0.614456 0.167708 0.0202664 206 149 130
-0.280673 -0.549676 -0.443574 92 57 71
-0.280673 -0.557471 -0.435436 92 56 72
0.0366908 -0.641637 -0.305235 132 46 89
0.0366908 -0.63951 -0.297098 132 46 90
-0.109785 0.588215 -0.305235 114 202 89
0.0366908 -0.64606 -0.28896 132 45 91
-0.109785 0.58638 -0.297098 114 202 90
-0.0419606 0.581768 -0.240135 122 202 97
0.0346391 -0.638864 0.30508 132 46 166
-0.0365469 0.581768 -0.232744 123 202 98
0.0297973 -0.638864 0.313218 131 46 167
0.263722 0.0609649 0.248118 161 135 159
0.264542 0.0601565 0.248118 161 135 159
0.687694 -0.549351 -0.280428 215 57 92
0.264542 0.0609649 0.247514 161 135 159
0.685338 -0.541213 -0.280823 215 58 92
0.687694 -0.541213 -0.279162 215 58 92
0.264542 0.0564235 0.256255 161 135 160
0.0366908 -0.635273 0.313218 132 47 167
0.687694 -0.533076 -0.284797 215 60 91
0.258685 0.0691025 0.248118 160 136 159
-0.0365469 0.586978 -0.240135 123 202 97
0.264542 0.0691025 0.243505 161 136 159
0.492393 0.101653 -0.297538 190 140 90
0.394743 -0.76689 0.33763 178 30 171
0.394743 -0.760927 0.343198 178 30 171
0.492393 0.10979 0.11852 190 141 143
0.264542 0.0853775 -0.345216 161 138 83
0.492393 0.117928 0.110864 190 143 142
-0.284515 -0.48425 -0.467986 91 66 68
0.492043 0.126065 0.109779 190 144 141
0.492393 0.126065 0.1099 190 144 142
-0.280673 -0.48425 -0.469316 92 66 68
0.390973 -0.720239 -0.467986 177 36 68
0.394743 -0.720239 -0.46866 178 36 68
0.492393 0.150478 -0.285396 190 147 91
0.264542 0.117928 0.218507 161 143 155
0.264542 0.12178 0.215567 161 143 155
0.264542 0.126065 0.21372 161 144 155
-0.394599 0.671281 0.487559 77 213 190
0.680446 -0.467975 -0.248272 214 68 96
-0.500387 0.372826 -0.22386 64 175 99
0.394743 -0.687689 0.381409 178 40 176
0.686236 -0.467975 -0.240135 215 68 97
-0.394599 0.676827 0.484106 77 214 189
0.687694 -0.467975 -0.238133 215 68 97
0.394743 -0.679551 0.38593 178 41 177
0.264542 0.158615 -0.317614 161 148 87
0.394743 -0.677978 0.386456 178 41 177
0.394743 -0.671414 0.38833 178 42 177
-0.286496 -0.402875 -0.467986 91 76 68
0.394743 -0.663276 0.393099 178 43 178
-0.280673 -0.402875 -0.469881 92 76 68
0.264542 0.17489 0.188666 161 150 152
0.166892 0.239991 -0.213945 149 158 100
0.166892 0.248128 -0.207776 149 159 101
0.166892 0.248343 -0.207585 149 159 101
0.394743 -0.623033 -0.451711 178 48 70
0.394743 -0.622589 -0.451826 178 48 70
-0.280673 -0.362187 -0.474625 92 81 67
0.166892 0.261596 -0.199447 149 161 102
-0.280673 -0.35405 -0.476003 92 82 67
0.49058 0.239991 -0.207585 190 158 101
0.0348316 -0.541213 0.313218 132 58 167
0.492393 0.236551 -0.207585 190 158 101
0.0366908 -0.543178 0.313218 132 58 167
0.0366908 -0.541213 0.312295 132 58 167
0.0295473 -0.541213 0.321355 131 58 168
0.0366908 -0.548661 0.321355 132 58 168
0.264542 0.223012 0.150467 161 156 147
0.035167 -0.533076 0.313218 132 60 167
0.0366908 -0.536888 0.313218 132 59 167
0.680982 -0.41915 0.248118 214 74 159
0.0366908 -0.533076 0.314461 132 60 168
-0.501055 0.451567 -0.337785 64 185 84
-0.500387 0.450067 -0.329648 64 185 85
-0.500387 0.451567 -0.335654 64 185 85
0.394743 -0.557488 0.414689 178 56 180
0.687694 -0.411012 0.236113 215 75 158
0.0366908 -0.516801 -0.408451 132 62 75
0.681979 -0.402875 -0.183172 214 76 104
0.614456 0.370192 -0.0714835 206 175 118
0.685532 -0.402875 -0.175035 215 76 105
-0.500387 0.452061 -0.337785 64 185 84
0.687694 -0.402875 -0.171499 215 76 106
0.614456 0.373578 -0.0773841 206 175 118
0.614456 0.380322 -0.126209 206 176 111
0.0350427 -0.492388 0.296943 132 65 165
0.0366908 -0.492388 0.298109 132 65 166
0.259783 0.272541 0.117917 161 162 143
0.264542 0.270967 0.117917 161 162 143
0.264542 0.272541 0.116214 161 162 142
0.0366908 -0.48425 0.309252 132 66 167
0.492393 0.288816 -0.119064 190 164 112
0.264542 0.265166 0.126054 161 161 144
0.264542 0.280679 -0.200711 161 163 102
0.394743 -0.492388 -0.413404 178 65 75
0.264542 0.28035 0.109779 161 163 141
0.264542 0.280679 0.109515 161 163 141
0.394743 -0.487314 -0.411023 178 65 75
0.394743 -0.48425 -0.409778 178 66 75
0.687694 -0.373138 -0.158759 215 80 107
0.394743 -0.467975 0.415466 178 68 180
0.264542 0.304296 0.028404 161 166 131
0.264542 0.305091 0.0267808 161 166 131
0.0366908 -0.435425 -0.385252 132 72 78
0.394743 -0.427288 -0.39084 178 73 78
0.0366908 -0.427288 -0.381553 132 73 79
0.0366908 -0.41915 -0.379161 132 74 79
0.394743 -0.411012 -0.399426 178 75 77
0.687694 -0.337775 -0.131446 215 84 111
0.0366908 -0.416658 -0.378473 132 74 79
0.0366908 -0.411012 -0.376842 132 75 79
0.26309 0.313229 -0.061109 161 167 120
0.0352888 -0.402875 0.27253 132 76 162
0.0366908 -0.402875 0.273617 132 76 162
0.264542 0.308575 0.0202664 161 167 130
0.0366908 -0.394737 -0.37265 132 77 80
0.0366908 -0.38865 -0.370336 132 78 80
0.0366908 -0.3866 -0.369537 132 78 80
0.0294824 -0.3866 0.280668 131 78 163
0.394743 -0.370325 -0.374773 178 80 80
0.61655 -0.988778 0.199292 206 1 153
0.0366908 -0.3866 0.284717 132 78 164
0.394743 -0.370325 0.397731 178 80 178
0.388441 -0.362187 -0.370336 177 81 80
0.0366908 -0.378462 -0.365741 132 79 81
0.0918754 -0.834165 0.199292 139 21 153
0.394743 -0.362187 -0.372005 178 81 80
0.0366908 -0.378462 0.287244 132 79 164
0.0936537 -0.834165 0.198885 139 21 153
0.622594 -0.995704 0.231842 207 1 157
0.0936537 -0.826027 0.204672 139 22 154
0.0366908 -0.370325 -0.358938 132 80 82
0.264542 0.313628 -0.061109 161 167 120
0.687402 -0.297087 0.109779 215 90 141
0.622594 -0.988778 0.256511 207 1 160
0.687694 -0.297087 0.108793 215 90 141
0.0366908 -0.362187 -0.354291 132 81 82
0.680365 -0.297087 0.14233 214 90 146
0.394743 -0.3215 -0.355545 178 87 82
0.681345 -0.297087 0.150467 214 90 147
0.394743 -0.3215 0.389306 178 87 177
0.682636 -0.297087 0.158605 215 90 148
0.679713 -0.297087 0.166742 214 90 149
0.0936537 -0.800963 0.231842 139 25 157
0.621959 -0.98064 0.199292 207 2 153
0.0936537 -0.795837 0.23998 139 26 158
0.0304285 -0.345912 0.256255 131 83 160
0.616217 -0.98064 0.264393 206 2 161
0.0936537 -0.793477 0.244789 139 26 159
0.682844 -0.288949 0.109779 215 91 141
0.622594 -0.98064 0.259325 207 2 161
0.0366908 -0.345912 0.263085 132 83 161
0.0936537 -0.791734 0.248118 139 27 159
-0.280673 -0.0529606 0.112556 92 121 142
-0.280673 -0.0448231 0.117142 92 122 142
0.394743 -0.272674 0.363368 178 93 174
0.0366908 -0.329637 -0.332702 132 85 85
0.394743 -0.264537 -0.333963 178 94 85
0.033474 -0.3215 -0.329648 132 87 85
0.394743 -0.270579 0.362043 178 93 174
0.0366908 -0.325222 -0.329648 132 86 85
0.394743 -0.264537 0.358364 178 94 173
0.394743 -0.256399 -0.330663 178 95 85
0.0366908 -0.3215 -0.328152 132 87 86
0.394743 -0.248262 -0.330706 178 96 85
0.622594 -0.972503 0.254591 207 4 160
0.394743 -0.240124 0.340623 178 97 171
0.394743 -0.215711 -0.326976 178 100 86
0.394743 -0.207574 -0.326322 178 101 86
0.622594 -0.964365 0.256342 207 5 160
0.388027 -0.199436 -0.329648 177 102 85
0.394743 -0.199436 -0.326531 178 102 86
0.389172 -0.191299 -0.329648 177 103 85
0.394743 -0.19427 -0.329648 178 103 85
0.394743 -0.191299 -0.332727 178 103 85
0.394743 -0.183161 0.294716 178 104 165
-0.280673 0.0935151 -0.266554 92 139 94
0.0366908 -0.272165 -0.207585 132 93 101
0.0366908 -0.265349 -0.199447 132 94 102
0.0936537 -0.647001 0.318017 139 45 168
0.0936537 -0.642664 0.321355 139 46 168
0.0313623 -0.256399 0.183017 131 95 151
0.0936537 -0.638864 0.329288 139 46 169
0.0366908 -0.256399 0.188216 132 95 151
0.0936537 -0.637024 -0.329648 139 46 85
0.0936537 -0.630726 -0.337377 139 47 84
-0.155012 -0.736514 0.256255 108 34 160
-0.150473 -0.744115 0.256255 108 33 160
0.394743 -0.126199 0.281041 178 111 163
0.387483 -0.118061 -0.345923 177 112 83
0.0366908 -0.240124 0.19277 132 97 152
0.0936537 -0.630389 -0.337785 139 47 84
0.265882 -0.931815 0.166742 161 9 149
0.500531 -0.91554 0.318224 191 11 168
0.618056 -0.923678 0.280668 206 10 163
-0.22339 -0.630726 0.248118 99 47 159
0.622594 -0.923678 0.275359 207 10 163
0.500531 -0.907403 0.320785 191 12 168
-0.215573 -0.630726 0.25425 100 47 160
0.617476 -0.91554 0.280668 206 11 163
0.622594 -0.91554 0.276931 207 11 163
-0.749282 0.630593 -0.150622 32 208 108
-0.221735 -0.622589 0.248118 99 48 159
-0.219345 -0.622589 0.256255 100 48 160
-0.215573 -0.628146 0.256255 100 47 160
-0.35732 -0.557488 -0.386611 82 56 78
-0.353911 -0.561738 -0.386611 82 56 78
-0.221214 -0.614451 0.248118 99 49 159
-0.745313 0.63873 -0.158759 32 209 107
0.0344984 -0.183161 0.14233 132 104 146
0.0366908 -0.183161 0.144858 132 104 146
0.394722 -0.0366855 -0.354061 178 123 82
-0.215573 -0.606313 -0.391716 100 50 78
-0.353911 -0.545871 -0.411023 82 58 75
0.0344698 -0.150611 -0.199447 132 108 102
0.39038 -0.028548 -0.362198 177 124 81
0.0366908 -0.150611 -0.200527 132 108 102
0.394743 -0.0366638 -0.354061 178 123 82
-0.744513 0.639927 -0.150622 33 209 108
-0.215573 -0.602914 -0.394748 100 51 77
0.394743 -0.028548 -0.357193 178 124 82
0.500531 -0.834165 -0.514503 191 21 62
0.500531 -0.826027 -0.514873 191 22 62
-0.744513 0.647312 -0.175035 33 210 105
0.0366908 -0.134336 0.159429 132 110 148
-0.223555 -0.573763 0.23998 99 54 158
-0.150473 -0.695826 0.33419 108 39 170
-0.150473 -0.695891 0.353906 108 39 173
0.500531 -0.809752 0.294784 191 24 165
-0.150473 -0.695826 0.353741 108 39 173
-0.220352 -0.565626 0.23998 99 55 158
-0.353911 -0.48425 -0.442459 82 66 71
0.500531 -0.793477 0.299567 191 26 166
-0.156219 -0.687689 0.329493 108 40 170
-0.217122 -0.557488 0.23998 100 56 158
0.500531 -0.785339 -0.48833 191 27 65
0.394743 0.0121396 0.178151 178 129 150
-0.150473 -0.692806 0.345768 108 39 172
0.500531 -0.787251 0.30508 191 27 166
0.61825 -0.826027 0.215567 206 22 155
0.622594 -0.829571 0.215567 207 22 155
0.622594 -0.826027 0.210563 207 22 154
0.500531 -0.780581 -0.484261 191 28 66
0.500531 -0.777202 -0.481909 191 28 66
-0.215573 -0.549351 -0.468226 100 57 68
0.394743 0.0152769 0.17488 178 129 150
-0.215573 -0.551025 0.231842 100 57 157
0.500531 -0.769064 -0.483757 191 29 66
-0.215573 -0.554795 0.23998 100 57 158
0.394743 0.0365523 -0.349939 178 132 83
0.500531 -0.744652 -0.477158 191 33 67
-0.215573 -0.541213 -0.474707 100 58 67
0.0936537 -0.443563 -0.335963 139 71 85
0.496979 -0.736514 -0.476124 191 34 67
0.500531 -0.736514 -0.47347 191 34 67
0.0936537 -0.435425 -0.334002 139 72 85
0.0333695 -0.0855108 0.0690916 132 117 136
0.0858705 -0.435425 0.329493 138 72 170
0.0936537 -0.435425 0.335378 139 72 170
0.168104 -0.923678 0.231842 149 10 157
0.0936537 -0.427288 -0.330133 139 73 85
0.175029 -0.923678 0.224138 150 10 156
-0.215573 -0.53455 -0.476124 100 59 67
-0.215573 -0.533076 -0.476372 100 60 67
-0.150473 -0.622589 -0.372079 108 48 80
-0.361603 -0.402875 -0.435436 81 76 72
0.0936537 -0.426361 -0.329648 139 73 85
-0.353911 -0.402875 -0.439201 82 76 72
0.0936537 -0.41915 -0.325927 139 74 86
0.0366908 -0.0834614 0.0690916 132 117 136
0.0936537 -0.411072 -0.32151 139 75 87
0.0366908 -0.0692357 -0.231065 132 119 98
-0.150473 -0.614451 -0.375107 108 49 80
0.0366908 -0.0610982 -0.238815 132 120 97
-0.215573 -0.524938 -0.476575 100 61 67
-0.150473 -0.613295 -0.378473 108 49 79
0.622594 -0.768113 0.215567 207 30 155
0.619289 -0.760927 0.223705 206 30 156
0.622594 -0.760927 0.220558 207 30 156
0.500531 -0.679551 -0.454959 191 41 69
0.695412 -0.874852 0.0365414 216 16 132
0.394743 0.10979 -0.327964 178 141 86
0.175029 -0.88299 0.216003 150 15 155
0.500531 -0.671414 -0.451495 191 42 70
0.394743 0.10979 0.139622 178 141 145
0.500531 -0.671451 0.362043 191 42 174
0.393877 0.117928 0.134192 178 143 145
0.0936537 -0.378462 -0.304868 139 79 89
0.394743 0.117162 0.134192 178 142 145
0.0935541 -0.378462 0.329493 139 79 170
0.394743 0.117928 0.133614 178 143 145
0.175029 -0.874852 0.215436 150 16 155
0.271892 -0.679551 -0.435436 162 41 72
0.622594 -0.760264 0.223705 207 31 156
0.0936537 -0.370325 -0.304238 139 80 89
0.27268 -0.679551 -0.435649 162 41 72
-0.280673 0.402742 -0.211526 92 179 101
-0.215573 -0.516801 -0.476614 100 62 67
0.175029 -0.866715 0.217631 150 17 155
0.0936537 -0.362187 -0.301628 139 81 89
0.175029 -0.858577 0.217562 150 18 155
0.394743 0.14234 -0.312067 178 146 88
0.695832 -0.873885 0.0365414 216 16 132
0.622594 -0.736514 -0.430316 207 34 73
0.0936537 -0.35405 -0.29831 139 82 89
0.615637 -0.728377 -0.427298 206 35 73
0.175029 -0.85044 0.221425 150 19 156
-0.215573 -0.508663 -0.480061 100 63 66
0.394743 0.150478 -0.312528 178 147 88
0.622594 -0.728377 -0.422488 207 35 74
0.0936537 -0.352142 -0.297098 139 83 90
0.500531 -0.630726 -0.444253 191 47 71
0.0936537 -0.345912 -0.293117 139 83 90
0.500531 -0.628872 -0.443574 191 47 71
0.174542 -0.842302 0.231842 150 20 157
0.500531 -0.622589 -0.441107 191 48 71
0.0936537 -0.34079 -0.28896 139 84 91
0.0936537 -0.337775 -0.286448 139 84 91
0.500531 -0.622589 0.37966 191 48 176
0.0320674 -0.0041354 -0.231997 132 127 98
0.175029 -0.834604 0.23998 150 21 158
0.0366908 -0.0041354 -0.236745 132 127 97
0.175029 -0.834165 0.240312 150 21 158
0.0936537 -0.331526 -0.280823 139 85 92
0.0936537 -0.329637 -0.278866 139 85 92
0.0366908 0.00400218 -0.238342 132 128 97
-0.157057 -0.516801 0.215567 107 62 155
0.0936537 -0.3215 -0.273557 139 87 93
0.27268 -0.622589 -0.426804 162 48 73
0.500531 -0.598176 -0.436562 191 51 72
0.0936537 -0.313362 -0.276346 139 88 92
-0.150473 -0.512661 0.20743 108 62 154
0.171696 -0.809752 -0.354061 149 24 82
0.27268 -0.614451 -0.432037 162 49 72
0.175029 -0.809752 -0.355823 150 24 82
-0.150473 -0.513243 0.215567 108 62 155
0.0366908 0.0202772 -0.245766 132 130 96
-0.353911 -0.296723 -0.354061 82 90 82
0.0936537 -0.305225 -0.277001 139 89 92
-0.215573 -0.435425 -0.495091 100 72 64
0.693181 -0.834165 0.109779 216 21 141
0.27268 -0.598176 0.383945 162 51 176
0.689943 -0.826027 0.109779 215 22 141
0.695832 -0.826027 0.105046 216 22 141
0.500531 -0.557488 0.392292 191 56 178
-0.280673 0.499834 -0.337785 92 191 84
-0.280673 0.500392 -0.3384 92 191 84
0.27268 -0.573763 -0.429197 162 54 73
0.622594 -0.655139 -0.399927 207 44 77
-0.280673 0.507449 -0.345923 92 192 83
-0.280673 0.50853 -0.347041 92 192 83
-0.280673 0.515662 -0.354061 92 193 82
0.0335152 0.0691025 -0.207585 132 136 101
0.27268 -0.549351 0.390452 162 57 177
0.500531 -0.524938 -0.416805 191 61 74
0.0366908 0.0691025 -0.213762 132 136 100
0.0923497 -0.264537 -0.248272 139 94 96
0.0936537 -0.264537 -0.248749 139 94 96
0.394743 0.264404 -0.224456 178 161 99
0.500531 -0.516801 -0.411659 191 62 75
0.0936537 -0.264537 0.270721 139 94 162
0.49666 -0.516801 0.394593 191 62 178
0.500531 -0.516801 0.390711 191 62 177
0.267029 -0.533076 -0.411023 162 60 75
0.622594 -0.622589 -0.388147 207 48 78
0.27268 -0.533076 -0.415559 162 60 75
0.500531 -0.508663 -0.411044 191 63 75
0.622594 -0.622589 0.286469 207 48 164
0.27268 -0.524938 -0.411319 162 61 75
0.616363 -0.614451 -0.386611 206 49 78
0.622594 -0.614451 -0.383276 207 49 79
0.619824 -0.614451 0.288805 207 49 164
0.622594 -0.614451 0.287844 207 49 164
-0.101647 -0.705644 0.362043 115 38 174
0.614957 -0.606313 -0.394748 206 50 77
0.618492 -0.606313 -0.386611 206 50 78
0.622594 -0.606313 -0.381673 207 50 79
0.500531 -0.48425 -0.397609 191 66 77
0.500531 -0.476113 -0.401017 191 67 76
0.622594 -0.606313 0.297094 207 50 165
0.174982 -0.720239 -0.378473 150 36 79
0.621456 -0.598176 -0.386611 207 51 78
-0.280673 0.546324 -0.378473 92 197 79
0.175029 -0.720279 -0.378473 150 36 79
-0.280673 0.545398 -0.370336 92 197 80
0.692527 -0.760927 -0.345923 216 30 83
0.622594 -0.598176 0.303147 207 51 166
0.174296 -0.712102 -0.386611 150 37 78
0.271732 -0.48425 0.386456 162 66 177
0.622594 -0.590038 -0.388958 207 52 78
0.27268 -0.48425 0.386911 162 66 177
-0.386461 -0.541213 -0.369495 78 58 80
0.27268 -0.476113 0.391427 162 67 177
0.695832 -0.752976 -0.362198 216 31 81
0.693214 -0.752789 -0.354061 216 32 82
0.692558 -0.752789 -0.345923 216 32 83
0.391073 0.305091 -0.142484 177 166 109
0.500531 -0.443563 -0.384387 191 71 78
0.694659 -0.752789 -0.337785 216 32 84
0.0294395 0.10979 -0.166897 131 141 106
0.394743 0.304041 -0.142484 178 166 109
0.695832 -0.752789 -0.335667 216 32 85
0.0899916 -0.207574 -0.248272 139 101 96
-0.386461 -0.54046 -0.370336 78 59 80
0.394743 0.313229 -0.140537 178 167 110
0.394743 0.320476 -0.134347 178 168 110
0.494811 -0.427288 0.386456 191 73 177
0.0936537 -0.199436 -0.251374 139 102 95
0.27268 -0.443563 -0.378209 162 71 79
-0.101647 -0.630726 -0.346782 115 47 83
0.0936537 -0.191299 -0.25229 139 103 95
0.174045 -0.679551 -0.386611 150 41 78
0.495484 -0.41915 0.386456 191 74 177
0.175029 -0.679551 -0.387499 150 41 78
0.500531 -0.41915 0.382654 191 74 176
0.27268 -0.435425 -0.379691 162 72 79
-0.0284095 -0.698651 0.345768 124 38 172
-0.0337828 -0.695826 0.353906 123 39 173
-0.0284095 -0.695826 0.348455 124 39 172
0.622594 -0.541213 -0.354085 207 58 82
0.695832 -0.736514 -0.381966 216 34 79
0.0936537 -0.166886 -0.256233 139 106 95
-0.101647 -0.624648 -0.354061 115 48 82
0.695832 -0.728377 -0.384607 216 35 78
-0.388859 -0.48425 -0.419161 78 66 74
0.394743 0.32488 -0.0366963 178 169 123
-0.386461 -0.48425 -0.42132 78 66 74
0.394743 0.324733 -0.0285589 178 169 124
0.394743 0.326735 -0.0204213 178 169 125
-0.101647 -0.606313 -0.445739 115 50 71
-0.0284095 -0.694446 0.353906 124 39 173
0.26537 -0.402875 0.386456 161 76 177
0.694092 -0.720239 -0.386611 216 36 78
0.622594 -0.516801 0.314737 207 62 168
0.695832 -0.720239 -0.385907 216 36 78
0.27268 -0.402875 0.39169 162 76 177
-0.280673 0.63873 -0.438947 92 209 72
-0.101647 -0.598176 -0.446982 115 51 71
0.500531 -0.378462 -0.350803 191 79 83
-0.101647 -0.590038 -0.447778 115 52 70
-0.280673 0.646868 -0.436243 92 210 72
-0.101647 -0.581901 -0.451118 115 53 70
0.0936537 -0.150611 0.190897 139 108 152
0.692698 -0.712102 0.17488 216 37 150
-0.280673 0.648921 -0.435436 92 210 72
-0.101647 -0.573763 -0.456368 115 54 69
0.688526 -0.712102 0.183017 215 37 151
0.0936537 -0.142474 0.197461 139 109 153
0.500531 -0.370325 0.376171 191 80 175
0.500531 -0.362187 -0.351573 191 81 83
-0.280673 0.655006 -0.432984 92 211 72
0.500531 -0.362187 0.372512 191 81 175
0.500531 -0.35405 0.374021 191 82 175
0.0936537 -0.134336 0.198709 139 110 153
-0.280673 0.663143 -0.42836 92 212 73
-0.287077 0.671281 -0.435436 91 213 72
0.0932549 -0.126199 0.199292 139 111 153
0.0936537 -0.127468 0.199292 139 111 153
-0.280673 0.667671 -0.427298 92 213 73
0.0936537 -0.126199 0.199474 139 111 153
0.27268 -0.35405 -0.351462 162 82 83
-0.280673 0.671281 -0.426626 92 213 73
0.500509 -0.329637 -0.32151 191 85 87
-0.280673 0.67321 -0.427298 92 213 73
0.175029 -0.581901 -0.377844 150 53 79
0.0911766 -0.118061 0.199292 139 112 153
-0.280673 0.679418 -0.430288 92 214 73
-0.546954 0.427154 -0.305235 58 182 89
0.618472 -0.467975 -0.32151 206 68 87
0.27268 -0.345912 -0.353083 162 83 82
-0.541075 0.423195 -0.297098 59 181 90
0.500531 -0.329637 -0.321501 191 85 87
-0.101647 -0.541213 -0.467511 115 58 68
0.27268 -0.345912 0.378274 162 83 176
0.622594 -0.467975 -0.317567 207 68 87
-0.101647 -0.540486 -0.467986 115 59 68
-0.541075 0.427154 -0.301398 59 182 89
-0.280673 0.687556 -0.433026 92 215 72
-0.101647 -0.533076 -0.474536 115 60 67
0.500531 -0.3215 -0.322143 191 87 86
-0.280673 0.695693 -0.432422 92 216 72
-0.541075 0.429287 -0.313373 59 182 88
-0.541075 0.429896 -0.305235 59 182 89
0.0936537 -0.0936483 -0.286745 139 116 91
-0.280673 0.703831 -0.429266 92 217 73
0.622594 -0.4517 -0.322448 207 70 86
-0.0284095 -0.638864 -0.274007 124 46 93
-0.38686 -0.402875 -0.419161 78 76 74
-0.386461 -0.402875 -0.419412 78 76 74
0.27268 -0.313362 -0.329214 162 88 86
-0.35628 -0.0366855 0.0690916 82 123 136
-0.386666 -0.394737 -0.419161 78 77 74
-0.353911 -0.0366855 0.0711505 82 123 137
-0.386461 -0.394737 -0.419308 78 77 74
-0.358676 -0.028548 0.0690916 82 124 136
-0.35652 -0.028548 0.0772292 82 124 137
0.499182 -0.280812 0.329493 191 92 170
0.500531 -0.280812 0.328705 191 92 169
0.616452 -0.435425 0.288805 206 72 164
-0.0284095 -0.630837 -0.280823 124 47 92
0.175029 -0.508663 -0.365342 150 63 81
0.621472 -0.427288 0.27253 207 73 162
0.622594 -0.427288 0.271804 207 73 162
0.695832 -0.638864 0.196746 216 46 153
0.617071 -0.427288 0.280668 206 73 163
-0.354335 -0.0204105 0.117917 82 125 143
0.690884 -0.630726 0.199292 216 47 153
-0.101647 -0.48425 -0.476459 115 66 67
0.695832 -0.630726 0.192835 216 47 152
0.622594 -0.425046 0.27253 207 73 162
0.500531 -0.248262 -0.289751 191 96 91
0.622594 -0.41915 0.275728 207 74 163
0.689004 -0.622589 0.199292 215 48 153
0.695832 -0.622589 0.19688 216 48 153
0.167066 -0.476113 0.370181 149 67 175
0.27268 -0.264537 0.336771 162 94 170
0.175029 -0.476113 0.371974 150 67 175
0.695832 -0.614451 0.204198 216 49 154
0.175029 -0.467975 0.374168 150 68 175
0.175029 -0.459838 -0.357228 150 69 82
-0.101647 -0.483435 -0.476124 115 66 67
0.695832 -0.606313 -0.31543 216 50 87
0.622594 -0.411012 0.276614 207 75 163
-0.101647 -0.476113 -0.473853 115 67 67
0.170544 -0.4517 -0.354061 149 70 82
0.27268 -0.248262 0.343486 162 96 171
0.27268 -0.240124 -0.322528 162 97 86
0.175029 -0.4517 -0.358482 150 70 82
0.695832 -0.601889 -0.313373 216 51 88
0.695832 -0.598176 -0.311581 216 51 88
0.498641 -0.223849 0.280668 191 99 163
0.622594 -0.402875 -0.277028 207 76 92
0.175029 -0.435425 -0.357831 150 72 82
0.622594 -0.402875 0.274737 207 76 163
0.500531 -0.223849 0.278711 191 99 163
0.695832 -0.590038 -0.308378 216 52 88
-0.101647 -0.467975 -0.473326 115 68 67
0.622594 -0.394737 0.273074 207 77 162
0.0928815 -0.0366855 -0.28896 139 123 91
0.695832 -0.581901 0.229446 216 53 157
0.0936537 -0.0366855 -0.289569 139 123 91
0.0870944 -0.0366855 0.0202664 139 123 130
0.0915371 -0.0366855 0.028404 139 123 131
0.695832 -0.573763 -0.292211 216 54 90
0.695832 -0.575401 0.231842 216 54 157
0.0936537 -0.0366855 0.031957 139 123 132
0.695832 -0.570578 -0.28896 216 55 91
0.695832 -0.565626 -0.283751 216 55 91
0.175029 -0.394737 -0.340625 150 77 84
0.175029 -0.394737 0.365588 150 77 174
0.695832 -0.56234 -0.280823 216 56 92
0.695832 -0.557488 -0.27516 216 56 92
-0.215573 0.0772129 0.134192 100 137 145
0.692362 -0.549351 -0.272685 216 57 93
-0.215573 0.0772401 0.134198 100 137 145
0.695832 -0.555437 -0.272685 216 57 93
0.27268 -0.175024 0.290921 162 105 165
-0.355623 0.0609649 -0.22386 82 135 99
0.500531 -0.175024 -0.28224 191 105 92
0.695832 -0.549351 -0.267771 216 57 93
-0.353911 0.0609649 -0.225321 82 135 99
-0.215573 0.0853775 0.137244 100 138 145
0.27268 -0.166886 0.288416 162 106 164
0.695832 -0.541213 -0.274768 216 58 92
0.500531 -0.166886 -0.282963 191 106 91
-0.215573 0.0935151 0.140058 100 139 145
0.27268 -0.158749 -0.346366 162 107 83
-0.215573 0.101653 0.142053 100 140 146
0.175029 -0.345912 -0.312214 150 83 88
-0.215573 0.102525 0.14233 100 141 146
-0.215573 0.10979 0.145154 100 141 146
0.171911 -0.337775 0.345768 149 84 172
0.175029 -0.337775 0.347186 150 84 172
-0.215573 0.117928 0.149334 100 143 147
0.500531 -0.147406 0.23998 191 109 158
0.268084 -0.126199 0.27253 162 111 162
0.27268 -0.126199 0.27407 162 111 162
0.500531 -0.142474 0.240682 191 109 158
-0.215573 0.119214 0.150467 100 143 147
-0.101647 -0.402875 -0.478588 115 76 66
-0.35548 0.0935151 -0.248272 82 139 96
-0.108677 -0.394737 -0.476124 114 77 67
-0.101647 -0.394737 -0.478269 115 77 67
0.500531 -0.118061 -0.29751 191 112 90
0.27268 -0.0936483 -0.359168 162 116 82
0.500531 -0.118061 0.268861 191 112 162
-0.356713 0.101653 -0.248272 82 140 96
0.0906164 0.0365523 -0.280823 139 132 92
0.0936537 0.0365523 -0.283287 139 132 91
0.616667 -0.305225 -0.199447 206 89 102
0.622594 -0.312661 -0.199447 207 88 102
0.0936537 0.0446899 -0.281298 139 133 92
-0.3565 0.10979 -0.248272 82 141 96
0.500531 -0.101786 -0.302231 191 115 89
-0.280673 0.907269 -0.166839 92 243 106
0.0936537 0.0528274 -0.288014 139 134 91
0.500531 -0.0936483 -0.301908 191 116 89
-0.355921 0.117928 -0.248272 82 143 96
0.175029 -0.288949 -0.302629 150 91 89
0.27268 -0.0773732 0.244911 162 118 159
0.616597 -0.288949 -0.19131 206 91 103
0.500344 -0.0855108 -0.305235 191 117 89
0.689164 -0.476113 -0.240135 215 67 97
0.693353 -0.476113 -0.231997 216 67 98
0.269194 -0.0692357 0.23998 162 119 158
0.0871868 0.0609649 -0.0366963 139 135 123
-0.355856 0.126065 -0.248272 82 144 96
0.27268 -0.0692357 0.244924 162 119 159
0.695832 -0.476113 -0.227272 216 67 99
0.0936537 0.0609649 -0.0318861 139 135 123
0.693255 -0.467975 -0.231997 216 68 98
0.500531 -0.0773732 -0.309887 191 118 88
0.695832 -0.467975 -0.22859 216 68 98
0.0936537 0.0691025 -0.0352944 139 136 123
-0.0284095 -0.48425 -0.444297 124 66 71
0.617003 -0.272674 -0.166897 206 93 106
0.622594 -0.272674 -0.159149 207 93 107
-0.0284095 -0.476113 -0.444756 124 67 71
-0.0352112 -0.476113 0.20743 123 67 154
0.618476 -0.264537 -0.166897 206 94 106
-0.0284095 -0.476113 0.214516 124 67 155
0.0366908 0.416786 0.191155 132 181 152
-0.0284095 -0.467975 -0.447104 124 68 70
0.500531 -0.0366855 -0.310139 191 123 88
-0.0284095 -0.459838 -0.448447 124 69 70
0.175029 -0.215711 -0.302509 150 100 89
0.500531 -0.0318705 0.223705 191 123 156
-0.0284095 -0.4517 -0.447784 124 70 70
0.0366908 0.42417 0.17488 132 182 150
0.27268 -0.0041354 -0.361251 162 127 81
0.0366908 0.42058 0.183017 132 181 151
-0.0284095 -0.443563 -0.446764 124 71 71
-0.0284095 -0.435425 -0.444607 124 72 71
-0.215573 0.264404 -0.242614 100 161 97
0.617393 -0.240124 0.166742 206 97 149
0.0343888 0.435292 0.109779 132 183 141
-0.0284095 -0.431656 -0.443574 124 72 71
-0.0284095 -0.427288 -0.442428 124 73 71
0.493852 0.00400218 0.166742 190 128 149
0.500531 -0.00011391 0.166742 191 127 149
0.500531 0.00400218 0.162481 191 128 148
0.500531 -0.00288207 0.17488 191 127 150
0.500531 0.0121396 -0.313368 191 129 88
-0.0284095 -0.41915 -0.439862 124 74 71
0.692271 -0.411012 0.223705 216 75 156
0.500531 0.0121396 0.163129 191 129 148
0.0906477 0.158615 -0.215722 139 148 100
0.688849 -0.411012 0.231842 215 75 157
0.0936537 0.158615 -0.22003 139 148 99
0.0867764 0.158615 -0.207585 139 148 101
0.175029 -0.158749 0.246973 150 107 159
0.693335 -0.402875 0.215567 216 76 155
0.0366908 0.436725 0.117917 132 183 143
-0.0284095 -0.411012 -0.436703 124 75 72
-0.215573 0.272541 -0.242656 100 162 97
0.500531 0.0246561 0.158605 191 131 148
0.500531 0.0284148 0.155987 191 131 147
0.175029 -0.150611 0.245083 150 108 159
0.27268 0.0365523 0.263552 162 132 161
0.0936537 0.166753 -0.225198 139 149 99
0.175029 -0.142474 -0.318675 150 109 87
0.688778 -0.394737 -0.175035 215 77 105
0.175029 -0.142474 0.250975 150 109 159
-0.0284095 -0.402875 -0.437647 124 76 72
0.691333 -0.394737 -0.166897 216 77 106
0.695832 -0.402873 -0.166897 216 76 106
0.175029 -0.134336 -0.325066 150 110 86
-0.0338526 -0.402875 0.191155 123 76 152
0.695832 -0.394737 -0.16258 216 77 107
-0.0286766 -0.402875 0.199292 124 76 153
0.270106 0.0446899 0.256255 162 133 160
-0.0284095 -0.402875 0.199744 124 76 153
0.27268 0.0404468 0.256255 162 133 160
0.27268 0.0446899 0.253929 162 133 160
0.618711 -0.207574 0.109779 206 101 141
0.622594 -0.212481 0.109779 207 100 141
0.690974 -0.3866 -0.166897 216 78 106
0.622594 -0.207574 0.105088 207 101 141
0.695832 -0.3866 -0.160996 216 78 107
0.266743 0.0528274 0.256255 162 134 160
0.500531 0.0609649 -0.30692 191 135 88
0.618446 -0.207574 0.117917 206 101 143
0.27268 0.0528274 0.25091 162 134 159
0.695832 -0.3866 0.215327 216 78 155
0.267962 0.0609649 0.248118 162 135 159
0.693278 -0.378462 -0.158759 216 79 107
0.614505 -0.199436 -0.109934 206 102 113
0.0888475 0.191166 -0.199447 139 152 102
-0.0772347 0.148864 -0.215722 118 146 100
0.620548 -0.199436 -0.101797 207 102 115
0.175029 -0.101786 0.237644 150 115 158
0.0936537 0.191166 -0.206409 139 152 101
0.622594 -0.199436 -0.098599 207 102 115
0.617019 -0.199436 0.109779 206 102 141
0.0936537 0.199303 -0.205166 139 153 101
0.27268 0.0853775 -0.345654 162 138 83
0.175029 -0.0855108 0.239826 150 117 158
0.616103 -0.191299 0.109779 206 103 141
0.500531 0.0935151 0.125612 191 139 144
0.175029 -0.0773732 0.23881 150 118 158
0.27268 0.0935151 0.22968 162 139 157
0.500531 0.101653 0.121878 191 140 143
0.619668 -0.183161 0.101642 207 104 140
0.49357 0.10979 -0.297098 190 141 90
-0.353911 0.239022 0.166742 82 158 149
0.500531 0.10979 -0.289736 191 141 91
0.614751 -0.183161 0.109779 206 104 141
0.500531 0.10979 0.116184 191 141 142
0.400267 -0.866715 0.27253 179 17 162
0.40288 -0.866715 0.278504 179 17 163
0.62184 -0.175024 0.0935043 207 105 139
0.500531 0.117928 0.11108 191 143 142
0.27268 0.126065 0.213246 162 144 155
0.621039 -0.175024 0.101642 207 105 140
0.500531 0.126065 0.113497 191 144 142
0.175029 -0.0366855 0.254308 150 123 160
0.500531 0.134203 -0.287612 191 145 91
0.695513 -0.337775 -0.126209 216 84 111
0.168107 -0.028548 0.248118 149 124 159
0.500531 0.14234 -0.282854 191 146 91
0.695832 -0.337775 -0.125943 216 84 111
0.175029 -0.0341593 0.256255 150 123 160
0.27268 0.158615 -0.320277 162 148 87
-0.0340817 -0.329637 0.14233 123 85 146
-0.0284095 -0.329637 0.149732 124 85 147
0.0883546 0.248128 -0.0936592 139 159 116
0.27268 0.166753 -0.319763 162 149 87
0.0904464 0.248128 -0.0855217 139 159 117
0.0924697 0.248128 -0.0773841 139 159 118
0.621341 -0.158749 0.0772292 207 107 137
0.27268 0.17489 0.189149 162 150 152
0.0334683 0.524805 -0.0773841 132 194 118
-0.22307 0.419017 -0.199447 99 181 102
-0.215573 0.419017 -0.196561 100 181 102
0.0366908 0.527756 -0.0773841 132 195 118
0.619382 -0.150611 0.0690916 206 108 136
0.494038 0.215578 -0.22386 190 155 99
0.169404 0.0202772 -0.32151 149 130 87
0.499821 0.215578 -0.215722 191 155 100
0.175029 0.0202772 -0.325346 150 130 86
0.40288 -0.769064 0.336866 179 29 170
-0.742357 0.646868 -0.166897 33 210 106
-0.737926 0.646868 -0.158759 33 210 107
0.49312 0.223716 -0.22386 190 156 99
0.692811 -0.297087 0.0935043 216 90 139
0.498098 0.223716 -0.207585 191 156 101
0.689417 -0.297087 0.101642 215 90 140
0.49604 0.231853 -0.207585 191 157 101
-0.736585 0.655006 -0.175035 34 211 105
-0.736376 0.650445 -0.158759 34 210 107
-0.36077 0.370192 -0.199447 82 175 102
0.170076 0.0446899 0.199292 149 133 153
-0.353911 0.370192 -0.201554 82 175 102
0.17459 0.0446899 0.20743 150 133 154
0.40288 -0.720239 -0.468011 179 36 68
-0.736376 0.6564 -0.183172 34 211 104
-0.215573 0.484117 0.523689 100 189 194
0.6191 -0.134336 0.0609541 206 110 135
0.0366908 0.571262 -0.142484 132 200 109
-0.215573 0.492255 0.524207 100 190 194
0.0366908 0.57363 -0.145016 132 201 109
0.620906 -0.134336 0.0772292 207 110 137
0.620205 -0.134336 0.0853667 207 110 138
-0.215573 0.500392 0.524056 100 191 194
-0.388348 0.0446899 0.044679 78 133 133
0.40288 -0.686849 0.378318 179 40 176
0.40288 -0.679551 0.383529 179 41 176
0.40288 -0.676479 0.386456 179 41 177
0.0366908 0.575461 -0.150622 132 201 108
0.621699 -0.126199 0.0609541 207 111 135
0.40288 -0.671414 0.390785 179 42 177
0.175029 0.0853775 -0.326842 150 138 86
0.500531 0.280679 -0.122649 191 163 112
0.49891 0.280679 0.0609541 191 163 135
0.620659 -0.126199 0.0935043 207 111 139
0.500531 0.278282 0.0609541 191 163 135
0.27268 0.280679 -0.20174 162 163 102
0.26507 0.280679 0.109779 161 163 141
-0.389495 0.0528274 0.044679 78 134 133
0.616953 -0.126199 0.101642 206 111 140
0.617083 -0.118061 -0.109934 206 112 113
-0.215573 0.532942 0.514159 100 195 193
0.619125 -0.118061 -0.101797 206 112 115
-0.029627 -0.264537 0.0935043 124 94 139
-0.215573 0.54108 -0.341282 100 196 84
0.622594 -0.118061 -0.0858054 207 112 117
-0.0284095 -0.264537 0.0954985 124 94 140
0.622594 -0.125296 0.0609541 207 112 135
-0.215573 0.54108 0.511996 100 196 193
0.27268 0.285302 0.0935043 162 164 139
0.27268 0.288816 0.0868904 162 164 139
-0.0788208 0.313229 0.370181 117 167 175
0.265229 0.288816 0.101642 161 164 140
-0.215573 0.54696 -0.345923 100 197 83
0.492726 0.288816 0.0609541 190 164 135
0.40288 -0.630726 0.3985 179 47 178
0.27268 0.282637 0.101642 162 164 140
-0.0360914 -0.256399 0.0935043 123 95 139
0.27268 0.28617 0.109779 162 164 141
-0.390486 0.0609649 0.044679 78 135 133
-0.0831665 0.313229 0.378318 117 167 176
-0.0815886 0.313229 0.386456 117 167 177
-0.392045 0.0609649 0.0528166 78 135 134
0.27268 0.286583 0.117917 162 164 143
0.27268 0.295238 0.0690916 162 165 136
-0.39429 0.0691025 0.044679 77 136 133
-0.393607 0.0691025 0.0528166 77 136 134
0.27268 0.293555 0.0772292 162 165 137
0.27268 0.289785 0.0853667 162 164 138
-0.215573 0.563232 -0.354061 100 199 82
-0.101647 0.0521443 0.0935043 115 134 139
-0.101647 0.0528274 0.0987115 115 134 140
0.27268 0.301926 0.0365414 162 166 132
-0.0772347 0.315827 0.378318 118 168 176
-0.0772347 0.318574 0.386456 118 168 177
-0.0787564 0.321366 0.394593 117 168 178
-0.0772347 0.321366 0.391193 118 168 177
0.40288 -0.557488 -0.435773 179 56 72
-0.388085 0.0935151 -0.183172 78 139 104
0.40288 -0.557488 0.413887 179 56 180
-0.386461 0.0935151 -0.18716 78 139 104
0.622594 -0.103783 0.134192 207 114 145
-0.392417 0.0935151 -0.175035 77 139 105
-0.392502 0.101653 -0.183172 77 140 104
-0.393329 0.101653 -0.175035 77 140 105
-0.0301582 -0.215711 0.0365414 124 100 132
-0.35729 0.516667 -0.378473 82 193 79
-0.0772347 0.323338 0.394593 118 169 178
-0.0323524 -0.207574 0.028404 123 101 131
-0.0772347 0.326045 0.402731 118 169 179
-0.0284095 -0.209892 0.028404 124 101 131
0.27268 0.316736 -0.061109 162 168 120
-0.0284095 -0.207574 0.0263287 124 101 131
-0.0772347 0.329504 0.407112 118 170 179
-0.353911 0.518489 -0.378473 82 194 79
-0.0284095 -0.214392 0.0365414 124 100 132
-0.101647 0.134203 -0.227099 115 145 99
-0.0284095 -0.199436 0.023111 124 102 130
0.40288 -0.476113 -0.407675 179 67 76
-0.0284095 -0.191299 0.0211799 124 103 130
0.40288 -0.467975 0.413534 179 68 180
0.40288 -0.459838 -0.404152 179 69 76
-0.0284095 -0.183161 0.0209985 124 104 130
-0.0284095 -0.175024 0.0260149 124 105 131
0.0366908 0.716238 0.288805 132 219 164
-0.0284095 -0.166886 0.0284401 124 106 131
-0.0772347 0.33648 0.27253 118 170 162
-0.0772347 0.337021 0.280668 118 170 163
0.40288 -0.427288 -0.392037 179 73 78
-0.0772347 0.33088 0.410868 118 170 180
-0.272536 -0.598176 -0.397734 93 51 77
-0.0772347 0.337641 0.416622 118 171 181
0.40288 -0.411012 -0.398312 179 75 77
-0.0791339 0.337641 0.443419 117 171 184
0.622594 -0.0366855 -0.149502 207 123 108
-0.272536 -0.593115 -0.402886 93 52 76
0.618918 -0.028548 -0.158759 206 124 107
0.621554 -0.028548 -0.150622 207 124 108
0.622594 -0.028548 -0.148615 207 124 109
0.614801 -0.0204105 -0.166897 206 125 106
0.622594 -0.022313 -0.158759 207 125 107
0.622594 -0.0273399 -0.150622 207 124 108
0.40288 -0.370325 -0.372905 179 80 80
0.40288 -0.370325 0.398849 179 80 178
-0.272536 -0.550637 -0.443574 93 57 71
0.40288 -0.362187 -0.374079 179 81 80
-0.0284095 -0.114244 0.00399134 124 113 128
0.40288 -0.362187 0.399026 179 81 178
0.175029 0.256266 -0.200977 150 160 102
-0.0772347 0.343716 0.419006 118 171 181
-0.0772347 0.345779 0.421353 118 172 181
0.175029 0.257487 -0.199447 150 160 102
0.6172 0.00400218 -0.175035 206 128 105
-0.0772347 0.345779 0.431325 118 172 182
0.622594 0.00400218 -0.170237 207 128 106
-0.0772347 0.34454 0.443419 118 171 184
0.175029 0.264404 0.06284 150 161 136
0.618661 0.0121396 -0.183172 206 129 104
0.175029 0.266077 0.0609541 150 161 135
0.622293 0.0121396 -0.166897 207 129 106
-0.0284095 -0.0773732 -0.00894436 124 118 126
0.400994 -0.3215 -0.354061 179 87 82
0.40288 -0.3215 -0.353636 179 87 82
0.40288 -0.3215 0.387051 179 87 177
-0.0284095 -0.0715613 -0.0122837 124 118 126
-0.0284095 -0.0692357 -0.0135827 124 119 126
0.40288 -0.313362 0.386773 179 88 177
