ply
format ascii 1.0
comment Created by Open3D
element vertex 1206
property double x
property double y
property double z
property uchar red
property uchar green
property uchar blue
end_header
0.649829 0.300359 -0.125822 210 166 111
-0.239118 -0.493486 -0.483141 97 65 66
-0.26034 0.697259 -0.433266 94 216 72
-0.445023 -0.998481 -0.10989 71 0 113
-0.180364 0.954065 -0.0511588 105 249 121
0.283994 -0.247973 -0.324983 164 96 86
-0.630421 0.820643 -0.122986 47 232 112
-0.431444 -0.729111 0.231377 72 35 157
0.734831 -0.478165 -0.210564 221 67 101
-0.3101 0.934853 0.305643 88 247 166
-0.441717 -0.460764 0.118727 71 69 143
0.532421 0.266199 0.0652567 195 161 136
0.615052 -0.996193 -0.292609 206 0 90
0.0825864 0.602874 0.323141 138 204 169
-0.433091 -0.616211 0.19737 72 49 153
-0.58369 -0.718303 0.0724817 53 36 137
-0.782407 0.605489 -0.0765616 28 205 118
0.669539 -0.261076 -0.0678746 213 94 119
-0.435089 0.147674 0.023765 72 146 131
-0.127854 -0.724566 -0.356854 111 35 82
0.0563758 -0.835299 0.229993 135 21 157
0.797171 -0.471988 -0.0185414 229 67 125
0.620671 -0.96193 0.0911219 207 5 139
0.417679 -0.51018 -0.43242 181 62 72
0.551163 -0.277567 0.281116 198 92 163
-0.0508041 0.17402 0.0790956 121 150 138
0.0253372 0.373775 0.326331 131 175 169
-0.586029 -0.979277 -0.0532744 53 3 121
-0.0589732 0.316018 -0.0984694 120 168 115
-0.120822 0.180417 -0.242133 112 151 97
0.163721 0.201979 -0.239579 148 153 97
-0.254756 -0.458849 0.195886 95 69 152
0.324721 -0.549718 -0.445222 169 57 71
-0.0345305 0.158959 -0.110304 123 148 113
-0.728234 0.247674 0.0177197 35 159 130
0.0289716 -0.533938 0.309924 131 59 167
0.625267 0.276483 -0.121571 207 163 112
0.0793098 -0.267401 -0.243214 138 93 96
0.109371 -0.337454 -0.291018 141 84 90
-0.206741 -0.997819 -0.206298 101 0 101
-0.757554 0.443424 0.260432 31 184 161
-0.681537 0.258436 0.0724198 41 160 137
0.502665 -0.940136 0.315188 192 8 168
0.159096 0.560251 0.0341305 148 199 132
0.609605 0.150764 0.0913105 205 147 139
0.377591 -0.369467 0.402332 176 80 179
0.0951853 0.541188 0.296755 140 197 165
0.169403 -0.597848 -0.380935 149 51 79
-0.231309 -0.0524604 -0.31469 98 121 87
-0.620845 0.870322 -0.0373245 48 238 123
-0.391235 0.227518 0.444492 78 157 184
-0.399568 0.0600701 -0.173723 77 135 105
0.276018 -0.330046 -0.346324 163 85 83
0.609946 0.134337 -0.159193 205 145 107
0.397371 -0.915226 0.250645 178 11 159
-0.514643 -0.683748 -0.291456 62 40 90
-0.816039 0.485976 0.0417801 23 189 133
-0.79927 0.322162 -0.0548035 26 169 121
0.624381 0.119602 -0.121215 207 143 112
0.271955 -0.658254 0.379022 162 44 176
0.385993 -0.99359 -0.021402 177 1 125
-0.320565 -0.621557 0.233868 87 48 157
0.527827 0.110527 0.124014 195 142 143
-0.0829762 -0.710549 0.376681 117 37 176
0.121565 0.711824 -0.028662 143 218 124
-0.0642858 0.608791 0.443718 119 205 184
-0.359406 -0.999035 -0.237904 82 0 97
0.400651 0.298238 -0.153625 179 166 108
-0.546663 -0.961633 0.0920222 58 5 139
-0.762276 0.406281 0.246164 30 179 159
0.207068 0.0430645 0.326751 154 133 169
0.0234965 0.259482 -0.201624 130 161 102
0.0373058 -0.761651 -0.233967 132 30 98
0.558789 0.236974 0.0780047 199 158 137
-0.196688 0.534328 0.510308 102 196 193
-0.203175 -0.279307 -0.416237 102 92 74
-0.53395 0.443752 0.477689 59 184 188
0.0646093 -0.310017 -0.294415 136 88 90
-0.317726 -0.366215 -0.466791 87 81 68
-0.457931 -0.186208 -0.0591663 69 104 120
-0.470547 -0.998398 -0.0526212 68 0 121
-0.0304211 -0.240001 -0.223385 124 97 99
-0.426509 -0.686237 0.225418 73 40 156
-0.457165 -0.999585 -0.225875 69 0 99
-0.135504 -0.97323 0.267147 110 3 162
0.482628 -0.925945 -0.449489 189 9 70
0.175561 -0.431335 -0.357586 150 73 82
-0.449462 0.23577 0.446657 70 158 184
0.111043 -0.4506 -0.33961 142 70 84
0.373115 -0.993519 0.0502885 175 1 134
-0.429154 0.296579 -0.128176 73 165 111
-0.480988 0.531788 0.509839 66 195 193
0.0203993 0.597995 -0.271661 130 204 93
0.00464938 0.596173 0.394459 128 204 178
-0.278839 0.32247 -0.236198 92 169 97
-0.35248 0.368007 0.514633 83 174 193
0.709463 -0.68862 0.178259 218 40 150
-0.551249 0.378203 -0.240563 57 176 97
0.195184 -0.0901603 -0.342086 152 116 84
0.358125 -0.140545 0.2923 173 110 165
-0.52384 -0.534739 -0.239195 61 59 97
-0.223246 -0.988978 0.195899 99 1 152
0.449008 -0.974028 -0.409379 185 3 75
-0.117586 -0.430922 0.154108 113 73 147
-0.413267 -0.755977 0.239918 75 31 158
0.164454 -0.893175 -0.307026 148 14 88
-0.712313 0.774319 0.145343 37 226 146
-0.773556 0.359496 0.21241 29 173 155
0.607441 -0.84436 0.264763 205 20 161
-0.454062 -0.443942 -0.385252 70 71 78
0.425331 -0.993281 0.196833 182 1 153
0.0837081 -0.727725 0.282255 138 35 163
0.420315 -0.0497522 0.264887 181 121 161
-0.0570604 0.0618371 -0.19951 120 135 102
0.720791 -0.914539 -0.100979 219 11 115
-0.17835 0.916691 0.265959 105 244 161
0.542037 -0.146638 -0.258593 197 109 95
0.660119 -0.0326615 0.0647191 212 123 136
0.659613 -0.934807 0.0475389 212 8 134
0.209589 -0.728893 -0.412558 154 35 75
-0.0210081 -0.118741 0.0179303 125 112 130
-0.145418 -0.479823 -0.493372 109 66 65
-0.0623897 -0.413138 0.137342 120 75 145
0.760201 -0.768281 -0.126123 224 30 111
-0.123409 0.0980874 -0.248918 112 140 96
0.0597018 -0.157379 -0.227819 135 107 98
-0.213021 -0.608765 -0.41451 100 50 75
-0.036907 0.214097 -0.046108 123 155 122
-0.430294 0.221416 0.21682 73 156 155
-0.085855 -0.459162 -0.48212 117 69 66
0.0857963 -0.680738 0.310702 138 41 167
0.378883 0.273455 0.137694 176 162 145
-0.062579 -0.848297 -0.266977 120 19 93
0.401018 -0.994348 -0.139588 179 1 110
0.163287 -0.99459 0.105832 148 1 141
0.201727 -0.994285 0.0969499 153 1 140
-0.590203 -0.921136 -0.118901 52 10 112
0.65285 -0.606862 0.275282 211 50 163
-0.381528 0.148307 -0.219976 79 146 99
0.336917 -0.531224 -0.431024 170 60 73
-0.622941 0.255112 0.0130823 48 160 129
0.708943 -0.636031 -0.329495 218 46 85
-0.200751 -0.683472 -0.393471 102 40 77
-0.587126 -0.824528 -0.176468 53 22 105
0.614845 0.084823 -0.134706 206 138 110
-0.0682547 -0.540175 0.442036 119 59 184
0.0684076 0.410618 0.235204 136 180 157
-0.0374308 -0.0860936 -0.00596685 123 117 127
-0.00412046 0.0248118 -0.0545698 127 131 121
0.0675655 -0.0734072 0.135542 136 118 145
-0.221343 0.347587 0.500319 99 172 191
-0.100481 0.587944 -0.303306 115 202 89
-0.046215 -0.269248 -0.267341 122 93 93
0.0224722 0.711925 -0.275907 130 218 92
0.266021 -0.671678 0.364649 161 42 174
0.616488 0.034476 -0.195418 206 132 103
-0.034285 0.417925 0.026194 123 181 131
-0.532204 -0.485168 -0.0142383 60 66 126
-0.0620343 -0.504779 -0.476469 120 63 67
-0.18021 -0.496173 0.203912 105 64 153
0.149914 0.0191618 -0.318272 147 130 87
0.416515 0.21129 0.141286 181 154 146
0.627349 -0.219667 0.111989 207 99 142
0.500153 -0.0490763 0.240746 191 121 158
-0.690951 0.54788 -0.305766 39 197 89
-0.579914 0.917622 0.0108135 54 244 129
0.736047 -0.753008 0.0514878 221 31 134
-0.602402 0.89514 0.184823 51 242 151
-0.457045 -0.281218 0.00725262 69 92 128
0.716795 -0.327486 0.125838 219 86 144
0.579895 0.128176 -0.204714 201 144 101
0.272525 -0.994053 -0.0434324 162 1 122
0.28325 -0.348927 -0.360924 164 83 81
0.338627 -0.928534 -0.401901 171 9 76
-0.753441 0.668096 -0.0938863 31 213 116
0.0227484 -0.371565 -0.38409 130 80 79
-0.58452 -0.615997 -0.0826262 53 49 117
-0.0783937 0.315279 0.40555 118 168 179
-0.203129 -0.617865 0.43618 102 49 183
-0.808197 0.554578 0.013402 24 198 129
0.362146 0.0185675 0.227408 174 130 156
-0.61764 0.542414 0.41839 49 197 181
-0.0579061 0.227549 -0.156201 120 157 108
-0.324497 0.324837 -0.228827 86 169 98
-0.601254 -0.916775 0.0295345 51 11 131
0.711225 -0.568001 0.216202 218 55 155
0.636132 -0.8307 0.179769 209 22 150
0.0591026 -0.342697 -0.328251 135 84 86
0.424357 -0.994679 -0.188263 182 1 103
-0.456518 -0.311482 0.0243946 69 88 131
-0.160147 0.672545 0.468041 107 213 187
0.182284 0.0186904 0.26983 151 130 162
-0.37009 -0.798036 -0.382824 80 26 79
-0.0797375 -0.480083 0.1547 117 66 147
0.471247 -0.612877 -0.45548 188 49 69
-0.280523 -0.291461 -0.464589 92 90 68
0.0265225 0.71103 0.329038 131 218 169
-0.192574 -0.775386 0.245407 103 29 159
0.300561 0.0662628 -0.355403 166 136 82
-0.548762 0.220888 0.156509 58 156 147
-0.147039 -0.305384 0.134411 109 89 145
0.28422 0.317275 -0.0765929 164 168 118
0.116098 0.458654 0.245762 142 186 159
-0.0809953 -0.568154 -0.457382 117 55 69
-0.220489 0.939218 -0.120623 99 247 112
0.617342 0.0947062 -0.173918 206 140 105
-0.385729 0.238451 -0.203824 78 158 102
0.357522 -0.648095 0.397957 173 45 178
-0.212894 -0.472951 -0.4971 100 67 64
0.559354 -0.398851 0.3464 199 77 172
0.591408 0.0777516 0.142112 203 137 146
-0.398748 0.334409 -0.172938 77 170 105
0.224812 -0.138056 0.266342 156 110 161
0.150166 -0.502944 -0.367361 147 63 81
-0.1227 -0.995827 0.0300602 112 1 131
-0.317431 0.388322 -0.211719 87 177 101
-0.00660785 -0.364121 0.226865 127 81 156
0.319571 -0.0783145 0.27962 168 118 163
0.271846 -0.996076 -0.285265 162 1 91
-0.113302 -0.325107 -0.47247 113 86 67
-0.425542 -0.583805 0.188554 73 53 152
0.149082 0.537594 0.0220359 147 196 130
0.453491 0.211513 -0.265183 185 154 94
0.0553022 0.459916 0.0887017 135 186 139
0.0158745 -0.919704 -0.133731 130 10 110
-0.484397 0.928071 0.283206 66 246 164
-0.448625 -0.298234 -0.249274 70 89 96
-0.396158 -0.193472 -0.277546 77 103 92
-0.19192 0.262073 0.42108 103 161 181
-0.602106 -0.721583 -0.1455 51 35 109
-0.359955 0.427187 -0.28134 82 182 92
-0.112035 -0.396319 -0.475533 113 77 67
-0.804487 0.331588 0.0565949 25 170 135
0.719248 -0.909978 -0.179748 219 11 105
0.517392 -0.270611 0.318249 193 93 168
-0.442088 0.1995 -0.104434 71 153 114
0.0167986 0.736182 0.295 130 221 165
-0.202094 -0.558679 -0.470208 102 56 68
0.20996 -0.837287 -0.385178 154 21 78
0.509614 -0.994763 -0.206128 192 1 101
-0.0982744 0.323232 0.328681 115 169 169
0.588568 -0.0855577 -0.21432 203 117 100
-0.716675 0.775449 0.110391 36 226 142
0.383646 -0.837989 -0.484953 176 21 66
0.335212 -0.834814 0.297815 170 21 165
0.49953 0.179566 -0.263474 191 150 94
-0.63506 0.39701 -0.317864 47 178 87
0.164978 -0.169647 0.259702 149 106 161
0.0312133 0.473587 0.393189 131 188 178
-0.456561 -0.393987 0.0640951 69 77 136
-0.753788 0.62582 0.210932 31 207 154
0.118082 0.669161 0.154096 143 213 147
-0.0701316 -0.871313 -0.264279 119 16 94
-0.55131 0.245842 0.4047 57 159 179
0.663884 -0.814356 0.149056 212 24 147
-0.379487 -0.495274 -0.427019 79 64 73
0.20211 0.188995 -0.276775 153 152 92
0.352688 0.287602 0.117153 172 164 142
-0.523951 -0.437922 -0.177977 61 72 105
0.23961 0.255954 -0.250057 158 160 96
0.0636962 0.789807 -0.0504353 136 228 121
0.497548 -0.847881 -0.506876 191 19 63
0.0288111 -0.173476 0.136822 131 105 145
0.62773 -0.159032 0.0130177 208 107 129
-0.351296 -0.813936 -0.38505 83 24 78
-0.291796 0.345449 -0.228336 90 172 98
-0.114026 0.706096 -0.380911 113 218 79
-0.256123 -0.997883 -0.200876 95 0 102
0.0931122 -0.118933 -0.279532 139 112 92
-0.0192705 0.0844939 -0.0750349 125 138 118
-0.348832 0.843166 -0.273449 83 235 93
0.0879584 0.442648 0.166892 139 184 149
0.0434221 -0.614151 -0.388896 133 49 78
-0.0601115 0.838557 -0.191281 120 234 103
-0.492901 -0.982097 -0.240686 65 2 97
-0.282022 -0.156596 0.119924 92 108 143
0.159863 -0.994732 -0.0307403 148 1 124
0.753337 -0.84517 -0.0801805 224 20 117
0.61103 -0.166707 -0.139381 205 106 110
0.405356 0.0114495 0.176543 179 129 150
-0.482802 0.967541 0.0184519 66 251 130
0.0199007 0.0690537 -0.0577399 130 136 120
-0.604738 0.847884 0.255851 50 236 160
0.522248 0.00542794 -0.306386 194 128 88
0.0958799 0.16104 -0.0089059 140 148 126
-0.652478 0.499217 -0.349889 44 191 83
-0.390832 -0.603088 -0.375433 78 51 80
-0.00381596 0.855914 -0.0460735 127 237 122
-0.330419 0.142119 0.148804 85 146 146
-0.0309919 0.371397 0.177032 124 175 150
0.0614936 -0.791991 -0.255085 135 27 95
0.230191 -0.99421 0.00496534 157 1 128
-0.0358631 -0.205575 0.0297114 123 101 131
0.156901 0.596728 -0.0406494 148 204 122
0.45634 -0.0152722 0.189209 186 126 152
0.6854 -0.694596 0.212909 215 39 155
0.446944 -0.334049 -0.35584 184 85 82
-0.272768 -0.125037 -0.323433 93 112 86
-0.155244 0.835334 -0.260809 108 234 94
0.458593 0.250626 -0.222379 186 159 99
0.712968 -0.525487 -0.252652 218 61 95
-0.288483 -0.0515539 0.10968 91 121 141
0.333103 -0.899013 0.238809 170 13 158
0.685144 -0.858888 -0.379961 215 18 79
-0.527509 -0.774093 0.173465 60 29 150
-0.664609 0.540933 -0.327182 43 196 86
-0.172338 -0.487268 0.338486 106 65 171
-0.0159007 -0.951661 0.285477 125 6 164
-0.276907 -0.450988 -0.484997 92 70 66
0.05262 -0.074347 0.102816 134 118 141
-0.684881 0.535518 0.355385 40 196 173
-0.295065 -0.583072 0.232772 90 53 157
0.648852 0.283672 -0.0966117 210 164 115
0.442327 -0.967212 0.309837 184 4 167
0.610264 -0.220261 0.172481 205 99 149
0.0832995 -0.744894 -0.294519 138 33 90
-0.125026 -0.0321327 -0.284516 112 123 91
0.11318 -0.213219 -0.273518 142 100 93
0.18543 -0.995748 -0.162704 151 1 107
-0.583534 0.330997 -0.173599 53 170 105
0.156854 0.609662 0.088491 147 205 139
-0.169343 0.284404 0.256203 106 164 160
-0.336688 0.893222 0.353501 85 241 173
0.0492632 -0.905029 0.212727 134 12 155
0.446119 -0.993501 0.0231385 184 1 130
-0.350348 0.462201 -0.317525 83 186 87
0.583489 -0.358536 0.296739 202 82 165
0.49506 0.323766 0.0304852 191 169 131
-0.617858 0.84317 -0.101625 49 235 115
0.676229 -0.770114 0.166885 214 29 149
0.546086 -0.773233 -0.487005 197 29 65
0.144056 -0.841148 0.215444 146 20 155
0.31889 0.323291 -0.077285 168 169 118
-0.384522 -0.437269 0.151074 78 72 147
0.587276 -0.994442 -0.0602538 202 1 120
0.144892 -0.159256 -0.298915 146 107 89
0.720662 -0.837384 0.0338423 219 21 132
0.38159 -0.709034 0.374895 176 37 175
0.573777 -0.509534 -0.387425 201 63 78
0.188995 0.0388635 0.303482 152 132 166
-0.45081 0.415819 -0.285833 70 181 91
-0.61275 -0.81122 -0.0385552 49 24 123
0.571918 0.180646 0.103123 200 151 141
-0.225718 -0.144914 0.127671 99 109 144
-0.521788 0.961671 0.17542 61 250 150
-0.427697 0.681559 0.487848 73 214 190
0.467192 0.0724831 -0.320415 187 137 87
0.0371395 -0.653552 0.423198 132 44 181
-0.1497 -0.879066 -0.33455 108 15 85
-0.421703 0.406162 0.510585 74 179 193
0.388718 -0.986926 -0.361065 177 2 81
0.52731 -0.590889 -0.428658 195 52 73
0.73124 -0.575589 0.18695 221 54 151
-0.59461 -0.771233 -0.169128 52 29 106
0.0681901 -0.646229 -0.349467 136 45 83
-0.137692 0.0441963 0.107978 110 133 141
-0.691801 0.263081 0.0148616 39 161 129
0.584274 -0.994569 0.0118449 202 1 129
-0.107972 -0.283226 -0.418656 114 91 74
0.267901 -0.0354483 0.285534 162 123 164
-0.167538 0.470263 -0.229166 106 187 98
-0.0281237 0.0702588 -0.137429 124 136 110
-0.807667 0.324935 0.0244559 25 169 131
-0.0458546 0.127531 0.00838284 122 144 129
-0.133199 0.756721 0.411896 111 224 180
-0.0181741 -0.56556 0.436155 125 55 183
-0.416512 -0.935571 0.209639 74 8 154
-0.240229 -0.00266564 0.139541 97 127 145
-0.450223 0.219286 0.27794 70 155 163
-0.10313 0.606005 -0.383215 114 205 79
-0.082485 -0.856207 0.334168 117 18 170
-0.276391 -0.996547 0.0446872 92 0 133
-0.401811 0.856369 -0.240389 76 237 97
0.266571 -0.845522 -0.419864 161 20 74
0.598795 -0.577948 0.331986 204 54 170
-0.237435 -0.576531 0.233983 97 54 157
-0.544319 -0.569638 0.03139 58 55 132
-0.35723 0.312232 -0.214546 82 167 100
-0.762916 0.409006 -0.196029 30 180 103
-0.442093 -0.956134 -0.303955 71 6 89
0.628378 -0.162186 -0.0234177 208 107 125
-0.504157 0.308717 0.460045 63 167 186
-0.51697 -0.508146 0.0416109 62 63 133
0.40994 -0.890051 0.321294 180 14 168
-0.155371 -0.944659 0.25165 108 7 160
0.116749 -0.978294 -0.188877 142 3 103
-0.493711 0.442439 0.494451 65 184 191
-0.231811 0.253198 0.442754 98 160 184
-0.174479 0.356676 0.49167 105 173 190
-0.287341 -0.743763 -0.401569 91 33 76
0.519451 0.199462 -0.218301 194 153 100
-0.439638 -0.337189 -0.301032 71 85 89
-0.776612 0.62023 0.151865 28 207 147
0.00477806 -0.995169 0.141398 128 1 146
-0.371726 0.81245 -0.313137 80 231 88
0.204293 -0.0657852 -0.340856 154 119 84
0.386967 -0.983253 0.194414 177 2 152
-0.750556 0.604265 -0.203662 32 205 102
0.658796 -0.0132845 0.0605765 211 126 135
0.580388 0.016285 0.176136 201 130 150
-0.543099 0.473405 0.474799 58 188 188
-0.489118 0.204455 0.361474 65 154 174
0.640646 -0.558961 0.297103 209 56 165
-0.64169 0.535427 -0.352422 46 196 83
-0.0772594 0.41004 -0.0333267 118 180 123
-0.128354 0.571141 0.482896 111 200 189
0.640452 -0.100995 0.0183037 209 115 130
-0.0990969 0.924127 0.114814 115 245 142
-0.61183 0.233997 0.160853 49 157 148
0.0304083 -0.737372 -0.237058 131 33 97
-0.0354221 0.166713 -0.139041 123 149 110
-0.644452 0.314594 -0.122378 45 168 112
0.725356 -0.877493 -0.0197393 220 16 125
0.00426157 -0.487913 0.274266 128 65 162
0.288123 -0.506358 0.401435 164 63 179
0.294031 0.32444 0.00120113 165 169 128
-0.144087 0.29724 0.283792 109 165 164
-0.0175953 -0.516339 0.371806 125 62 175
0.648765 -0.968454 -0.304386 210 4 89
0.649366 -0.413837 -0.257506 210 75 95
-0.781728 0.583155 0.164452 28 202 148
0.542857 -0.578462 -0.423903 197 54 73
0.607019 0.304118 -0.141864 205 166 109
-0.283177 -0.996273 0.123104 91 0 143
0.0775058 0.47169 0.0792541 137 188 138
-0.572861 0.439727 -0.377334 54 184 79
-0.29658 0.238476 0.377478 90 158 176
0.771614 -0.476957 -0.171875 226 67 106
-0.556967 -0.53549 -0.112749 56 59 113
0.398944 -0.592444 -0.451289 178 52 70
-0.0590601 0.365509 0.447187 120 174 185
0.774041 -0.432922 0.0519667 226 72 134
0.265515 -0.595614 0.381584 161 52 176
0.00728054 -0.995244 -0.00430801 128 1 127
-0.551114 -0.984976 -0.137847 57 2 110
0.661128 -0.241413 0.0332229 212 97 132
0.249246 -0.845619 0.273419 159 20 162
-0.286714 0.151323 -0.281765 91 147 92
0.691216 -0.589324 -0.314292 216 52 87
-0.197933 -0.319326 -0.477251 102 87 67
0.647859 -0.0770127 0.0220134 210 118 130
-0.326612 -0.870162 0.248971 86 17 159
0.796618 -0.562395 -0.162166 229 56 107
-0.039513 0.336242 0.325233 122 170 169
0.0467929 -0.311774 -0.321326 133 88 87
-0.103784 0.72788 0.413402 114 220 180
0.580756 -0.708256 0.304458 202 37 166
-0.76221 0.696643 0.0149314 30 216 129
0.568124 0.149689 0.121891 200 147 143
0.152761 -0.36311 0.354588 147 81 173
-0.575079 0.736598 0.375601 54 221 175
0.00162386 -0.0872513 -0.186097 128 116 104
-0.0192771 -0.727193 -0.236344 125 35 97
0.0982174 -0.150959 -0.278895 140 108 92
-0.488415 -0.31177 -0.115239 65 88 113
-0.758476 0.541294 -0.230402 31 197 98
-0.311642 0.213525 -0.259077 88 155 94
-0.488045 0.824203 -0.252934 65 233 95
-0.0398351 0.375621 0.123193 122 175 143
-0.364792 0.769503 0.444884 81 226 184
0.636787 -0.487274 0.304003 209 65 166
0.155173 0.240745 -0.216275 147 158 100
-0.449157 -0.863352 0.221541 70 17 156
0.468467 -0.00166113 -0.328606 187 127 86
0.673263 -0.629135 0.230197 213 47 157
0.491077 -0.189885 -0.292778 190 103 90
-0.243218 0.227265 0.183379 96 156 151
0.0863676 0.100997 -0.0272318 139 140 124
0.142103 0.0409141 -0.323347 146 133 86
-0.123486 -0.0613638 -0.291601 112 120 90
-0.0359281 0.129995 -0.0400072 123 144 122
-0.0831173 -0.123279 -0.272411 117 112 93
-0.638667 0.784286 0.278632 46 227 163
-0.62086 0.327232 -0.159 48 169 107
0.423585 0.145623 -0.312805 182 146 88
0.455278 0.0284382 -0.346932 186 131 83
0.433777 0.215508 -0.27039 183 155 93
0.569519 -0.646019 0.328116 200 45 169
0.340568 0.123507 0.188839 171 143 152
0.349347 -0.228659 -0.338269 172 98 84
0.608981 -0.994815 -0.0765398 205 1 118
0.605935 -0.00373497 -0.183221 205 127 104
0.564 -0.0279424 -0.253018 199 124 95
-0.284236 -0.347309 -0.477987 91 83 67
-0.196528 0.86633 -0.223494 102 238 99
-0.295377 -0.399241 0.174461 90 77 150
-0.650086 0.342031 -0.189497 45 171 103
0.291831 -0.695913 0.377235 165 39 176
0.103384 0.281959 -0.244464 141 163 96
0.0591431 0.713875 -0.221813 135 219 99
0.635766 -0.0984391 -0.0471399 209 115 121
-0.401607 0.121623 0.083457 76 143 138
0.662049 -0.0370389 0.0261445 212 123 131
-0.256389 -0.140272 0.123896 95 110 143
-0.0979889 0.116363 -0.225533 115 142 99
0.188428 0.333496 -0.0536917 152 170 121
0.627926 -0.160421 -0.0950762 208 107 115
0.0550434 -0.159295 0.162514 135 107 148
-0.407446 0.071968 -0.152161 76 137 108
-0.407735 0.915934 0.326881 76 244 169
-0.155105 0.292635 0.328433 108 165 169
0.466475 -0.0227462 -0.335058 187 125 85
-0.724699 0.324322 0.280168 35 169 163
-0.212276 0.964654 -0.0372531 100 250 123
0.417269 0.0319237 0.146399 181 132 146
-0.233249 -0.914736 -0.354173 98 11 82
0.432834 -0.10408 0.28793 183 114 164
0.143763 -0.607364 -0.377155 146 50 79
-0.716438 0.292283 -0.104515 36 165 114
0.395897 -0.5279 0.428937 178 60 182
-0.142293 -0.657931 0.469241 109 44 187
-0.19341 0.129104 0.159041 103 144 148
-0.265672 0.603496 -0.432791 94 204 72
-0.0411028 -0.31758 0.122871 122 87 143
-0.396353 0.1051 -0.174495 77 141 105
0.723529 -0.883549 -0.239875 220 15 97
-0.200822 -0.715963 -0.393093 102 36 77
0.733614 -0.520343 0.217296 221 61 155
-0.0098622 -0.733029 0.327176 126 34 169
-0.32143 -0.120294 0.101029 87 112 140
-0.356884 -0.997128 0.029585 82 0 131
-0.240005 -0.546084 0.347765 97 58 172
0.0230836 -0.850616 -0.176766 130 19 105
0.601465 -0.124502 0.167875 204 112 149
0.765901 -0.585068 0.146058 225 53 146
-0.512015 -0.438957 -0.217072 62 72 100
-0.526848 -0.586258 0.0834785 60 53 138
0.271441 0.03134 0.28163 162 131 163
0.524345 -0.242488 -0.279051 194 97 92
-0.529999 -0.449614 -0.0777586 60 70 118
-0.576026 -0.75335 0.100171 54 31 140
-0.0804483 0.86205 -0.163972 117 237 107
-0.0161173 -0.252835 -0.208157 125 95 101
0.190747 0.04454 0.259134 152 133 161
-0.667069 0.848768 0.0639899 42 236 136
-0.0448129 0.202696 -0.152508 122 153 108
-0.492692 0.712603 0.452547 65 218 185
0.627377 -0.868131 0.151496 207 17 147
-0.108093 0.281874 0.130863 114 163 144
0.219704 0.26036 -0.210932 156 161 101
0.63011 0.0536501 -0.109412 208 134 114
-0.365723 -0.881571 0.24251 81 15 158
0.218312 0.312397 0.0787171 155 167 138
0.190482 -0.100414 0.240055 152 115 158
0.256695 -0.771897 -0.439682 160 29 71
0.520463 0.076723 0.12855 194 137 144
0.592802 -0.872675 0.31524 203 16 168
-0.111411 0.89695 -0.112805 113 242 113
0.635278 -0.00489435 0.1591 208 127 148
0.43788 -0.493291 -0.419389 183 65 74
-0.0739268 0.223598 -0.190123 118 156 103
0.793485 -0.671489 -0.00573682 229 42 127
-0.624728 0.678745 0.373053 48 214 175
-0.617635 0.867824 0.207835 49 238 154
0.29059 0.0456498 0.253205 165 133 160
0.202129 0.0583531 0.243417 153 135 159
-0.61296 0.246663 0.0689688 49 159 136
0.127434 0.158774 -0.272486 144 148 93
0.571608 -0.0629684 0.226149 200 119 156
-0.429222 -0.0676303 -0.173014 73 119 105
-0.710073 0.40465 -0.277649 37 179 92
0.543571 -0.157064 0.218958 197 107 155
0.220427 -0.823686 0.277902 156 22 163
0.025964 0.139458 -0.131698 131 145 111
-0.260783 0.985636 0.117286 94 253 142
0.617517 -0.634122 -0.396692 206 47 77
0.160176 0.0825043 0.104246 148 138 141
-0.759218 0.616494 -0.146454 31 206 109
-0.693688 0.743952 -0.135355 39 222 110
0.56158 0.108544 -0.241688 199 141 97
-0.158842 0.168301 0.163482 107 149 148
0.617056 -0.900967 0.278672 206 13 163
-0.674304 0.804495 -0.0670745 42 230 119
-0.447568 -0.148126 -0.0389691 70 109 123
-0.57044 -0.600771 -0.178052 55 51 105
0.0371562 0.333195 -0.248626 132 170 96
-0.301638 0.241493 0.228222 89 158 157
0.252753 -0.744054 -0.433531 160 33 72
-0.114571 0.795106 0.36955 113 229 175
0.194467 0.0281441 -0.347113 152 131 83
-0.299713 -0.997911 -0.153626 89 0 108
0.0466195 -0.65301 -0.324624 133 44 86
-0.465634 0.259027 0.0295457 68 161 131
0.363998 -0.99223 -0.341588 174 1 84
0.082132 0.501625 0.0346401 138 191 132
0.120064 0.595229 0.23227 143 203 157
0.0257914 0.469318 0.00983404 131 187 129
-0.755241 0.514343 0.256988 31 193 160
-0.412812 -0.86919 0.233234 75 17 157
-0.806443 0.46355 -0.0784075 25 187 118
-0.1931 -0.646806 0.446146 103 45 184
0.228366 -0.994386 -0.0218959 157 1 125
0.445011 -0.0770608 -0.336594 184 118 85
-0.750699 0.647981 -0.127095 32 210 111
-0.377111 0.212069 -0.217282 79 155 100
0.252579 -0.513526 -0.412666 160 62 75
0.326639 0.158396 0.186247 169 148 151
-0.396059 -0.999146 -0.218676 77 0 100
-0.469925 -0.943951 -0.286617 68 7 91
-0.433787 -0.0719384 -0.044954 72 118 122
-0.0682328 0.322174 0.0598415 119 169 135
0.386393 0.251401 -0.249205 177 160 96
-0.25943 0.498167 0.524058 94 191 194
-0.47664 -0.708411 0.205289 67 37 154
-0.419513 -0.565824 0.183648 74 55 151
-0.446597 0.827891 -0.266214 71 233 94
0.632906 -0.200182 -0.0748903 208 102 118
0.402099 -0.985666 0.222841 179 2 156
-0.145007 -0.820533 0.283388 109 23 164
0.681566 -0.968013 -0.165241 214 4 106
0.0257531 -0.102882 0.0951855 131 114 140
-0.336902 0.969784 0.254334 85 251 160
-0.545563 -0.500178 -0.111849 58 64 113
-0.224529 -0.667973 0.335795 99 42 170
0.356825 -0.619572 0.405905 173 49 179
-0.647063 0.76466 -0.18291 45 225 104
0.23843 -0.625122 0.372402 158 48 175
-0.56233 -0.82464 0.124546 56 22 143
-0.315947 -0.998403 -0.186911 87 0 104
-0.167485 0.774804 -0.345988 106 226 83
-0.0838759 -0.724835 -0.320124 117 35 87
0.242571 -0.697166 -0.431616 158 39 72
-0.423293 -0.305008 -0.289976 74 89 91
-0.0216252 -0.849007 -0.190368 125 19 103
-0.016212 0.82537 0.227077 125 233 156
-0.506356 -0.998848 -0.084307 63 0 117
-0.38401 -0.0378514 -0.233937 79 123 98
0.380232 0.193876 -0.30509 176 152 89
0.349708 -0.196511 0.314333 172 102 168
-0.785538 0.52222 -0.162743 27 194 107
0.0482627 -0.598905 0.392224 134 51 178
-0.122328 0.657503 -0.405452 112 211 76
-0.499311 -0.371759 -0.193794 64 80 103
-0.688294 0.341217 0.33363 40 171 170
-0.220448 0.871867 -0.220627 99 239 99
0.112699 0.514045 0.00244624 142 193 128
-0.675723 0.303155 0.331942 41 166 170
-0.273447 0.527821 -0.355023 93 195 82
-0.411109 0.364422 -0.198365 75 174 102
0.704651 -0.290942 0.0185375 217 90 130
0.648738 -0.882286 0.128553 210 15 144
-0.0338506 0.751657 -0.29111 123 223 90
-0.492079 -0.997452 -0.211331 65 0 101
0.14145 -0.527775 -0.35401 146 60 82
-0.217246 -0.886678 -0.363102 100 14 81
0.574232 -0.575293 -0.402621 201 54 76
0.56437 -0.463177 0.355016 199 68 173
-0.0167742 0.584266 -0.2712 125 202 93
0.689638 -0.72911 -0.384695 215 35 78
0.406243 -0.0586804 -0.351848 179 120 83
-0.472767 -0.604261 0.165244 67 50 149
0.431249 0.363526 0.0149231 182 174 129
0.0625253 0.786165 -0.071847 135 228 118
-0.327469 0.996835 0.145769 86 255 146
0.647602 -0.866007 -0.44712 210 17 70
-0.346486 -0.229613 -0.323796 83 98 86
0.346544 -0.620493 -0.457641 172 48 69
-0.167347 0.130463 0.156487 106 144 147
0.291311 0.16295 0.197428 165 148 153
-0.724688 0.740431 0.174103 35 222 150
0.608135 0.0863923 0.134256 205 139 145
0.273627 0.198879 0.18986 162 153 152
-0.649875 0.37084 -0.272432 45 175 93
-0.091512 0.851366 -0.194559 116 236 103
0.520476 -0.995141 -0.238969 194 1 97
-0.168997 -0.281162 0.136647 106 92 145
-0.126177 -0.937278 -0.290391 111 8 90
-0.00974693 -0.995176 0.0931585 126 1 139
0.293394 -0.958134 -0.360871 165 5 81
0.603954 0.200179 -0.0319161 205 153 123
0.386542 0.207733 0.153302 177 154 147
-0.708728 0.234878 0.0853525 37 157 138
0.704483 -0.400433 0.204971 217 76 154
0.269015 -0.448829 -0.381415 162 70 79
0.0698749 -0.657619 -0.309057 136 44 88
-0.135322 0.639476 0.470141 110 209 187
-0.17926 0.744328 -0.380999 105 222 79
-0.0722173 0.355815 0.128811 118 173 144
0.600394 -0.241807 0.185761 204 97 151
0.0684361 0.403927 0.255488 136 179 160
-0.255119 0.981146 0.0435882 95 253 133
-0.781725 0.420608 -0.153083 28 181 108
0.754124 -0.356124 -0.027814 224 82 124
0.158662 0.548692 0.113402 148 197 142
0.471157 0.073658 0.117592 188 137 142
-0.0847191 0.697595 -0.369456 117 216 80
-0.0654607 -0.460669 0.147262 119 69 146
0.401328 -0.0973486 -0.359153 179 115 82
-0.593263 -0.865758 0.0625255 52 17 135
-0.000329592 -0.0258151 -0.0302266 127 124 124
-0.545594 -0.655887 0.107746 58 44 141
-0.0854554 0.897873 -0.0771626 117 242 118
0.163636 -0.287717 -0.295901 148 91 90
-0.0485487 -0.181754 -0.240402 121 104 97
0.512902 -0.846064 0.327833 193 20 169
-0.52359 -0.492692 -0.223012 61 65 99
0.410521 -0.470822 -0.404816 180 67 76
0.0362461 0.101153 -0.0553458 132 140 120
-0.149859 -0.708557 0.391552 108 37 177
-0.180699 0.187072 -0.24743 104 151 96
-0.0124076 -0.501446 -0.438114 126 64 72
-0.0593206 -0.883418 0.333485 120 15 170
-0.551423 -0.749379 -0.245915 57 32 96
-0.00356618 -0.123556 -0.182934 127 112 104
-0.0779571 -0.996531 -0.151109 118 0 108
0.0916995 -0.423424 0.34136 139 74 171
-0.515936 0.786755 0.385401 62 228 177
-0.324116 -0.997105 -0.00719865 86 0 127
0.653421 -0.96637 0.0254184 211 4 131
0.731987 -0.748079 0.0855961 221 32 138
-0.648234 0.449505 0.400943 45 185 179
-0.236883 -0.55884 0.379041 97 56 176
0.658263 -0.0371344 -0.0163103 211 123 125
-0.312723 0.0197384 0.142564 88 130 146
-0.558842 0.204329 0.306776 56 154 167
0.213562 -0.865493 0.246713 155 17 159
-0.684445 0.679808 -0.224484 40 214 99
-0.537926 -0.477373 -0.111509 59 67 113
-0.0627391 0.721772 0.388516 120 220 177
-0.160785 0.726062 0.443086 107 220 184
-0.38287 0.961272 -0.0457553 79 250 122
-0.202876 -0.0735945 0.12132 102 118 143
0.321643 -0.373447 -0.367249 169 80 81
-0.187396 -0.632054 -0.386085 104 47 78
-0.228849 0.0185849 -0.295057 98 130 90
0.21196 -0.995114 -0.129129 155 1 111
-0.637767 0.726832 -0.239137 46 220 97
0.347509 -0.948461 0.178676 172 7 150
-0.0384035 0.452291 -0.073745 123 185 118
-0.455091 -0.158639 -0.0747886 69 107 118
-0.203846 0.0899497 -0.277507 102 139 92
0.596252 -0.864157 -0.51931 204 17 61
-0.0694492 -0.605363 -0.454659 119 50 70
0.343214 -0.995918 -0.272662 171 1 93
-0.00964816 -0.543101 -0.447926 126 58 70
0.414924 -0.993206 0.0430722 180 1 133
0.385208 -0.791467 0.332019 177 27 170
-0.0519835 -0.958752 0.304403 121 5 166
-0.410534 -0.675287 -0.369658 75 41 80
0.618901 -0.15742 0.112029 206 107 142
-0.266402 0.240603 0.426404 94 158 182
0.74101 -0.397677 0.142626 222 77 146
-0.501236 0.944919 0.244869 64 248 159
-0.456379 -0.569669 0.162171 69 55 148
0.146279 0.513738 0.0981836 146 193 140
0.63545 -0.757473 0.236445 209 31 158
-0.159015 -0.314894 -0.467136 107 87 68
0.65125 0.109081 0.0484821 211 141 134
-0.227308 0.60628 0.507233 99 205 192
-0.601131 -0.688032 -0.0731831 51 40 118
-0.360949 -0.365285 0.141209 81 81 146
-0.348722 -0.298205 0.127154 83 89 144
-0.499217 0.379679 -0.243673 64 176 96
0.0935424 0.707061 -0.155007 139 218 108
0.211055 0.223562 -0.263173 154 156 94
-0.169006 0.280352 0.394696 106 163 178
-0.453782 0.524298 0.511594 70 194 193
0.382038 0.325324 0.0917477 176 169 139
-0.0796062 -0.00227215 -0.23977 117 127 97
-0.0603078 0.341305 0.426779 120 171 182
-0.433466 0.975841 0.00759697 72 252 128
-0.186844 0.00860965 -0.297574 104 129 90
0.539384 -0.997524 0.277204 196 0 163
-0.327123 0.714612 -0.421136 86 219 74
0.582384 -0.829389 -0.523405 202 22 61
-0.291062 0.970456 -0.0225718 90 251 125
0.0934277 0.758801 0.0189871 139 224 130
0.437737 -0.995691 -0.28158 183 1 92
0.115928 -0.413715 -0.331562 142 75 85
-0.553146 0.671684 0.444477 57 213 184
-0.655933 0.806637 -0.103665 44 230 114
0.737613 -0.422953 -0.163353 222 74 107
-0.254967 0.890716 -0.193735 95 241 103
0.00747848 0.437236 0.0383977 128 183 132
0.214857 -0.0297696 -0.360236 155 124 82
0.239815 -0.54615 0.38101 158 58 176
0.38741 -0.127047 -0.344476 177 111 84
-0.579927 0.758112 -0.265539 54 224 94
-0.621666 0.388121 -0.303635 48 177 89
-0.811204 0.428809 0.111404 24 182 142
-0.00345717 0.820589 -0.153305 127 232 108
-0.202162 -0.178138 0.127037 102 105 144
-0.177379 0.320798 0.436369 105 168 183
-0.53836 0.723189 -0.330505 59 220 85
0.638205 -0.0711709 0.0981079 209 118 140
-0.521312 -0.424291 -0.139292 61 73 110
-0.467089 0.0518553 -0.0535252 68 134 121
-0.606934 -0.77057 0.0157807 50 29 130
-0.576298 -0.65813 -0.200441 54 44 102
0.0403676 0.245758 -0.170783 133 159 106
-0.0301802 -0.219616 0.0479377 124 99 134
-0.16206 -0.546152 -0.485783 107 58 66
-0.00901325 0.800168 -0.202739 126 230 102
-0.0846756 -0.704113 0.461748 117 38 186
-0.0970429 -0.482271 0.392666 115 66 178
0.201884 -0.583384 -0.385186 153 53 78
-0.499416 0.565708 0.501374 64 200 191
-0.697534 0.229916 0.115736 39 157 142
0.62401 0.319849 -0.0409393 207 168 122
0.646895 -0.02249 -0.0767933 210 125 118
-0.725513 0.271142 0.251347 35 162 160
-0.441514 0.811818 0.40168 71 231 179
0.455193 -0.0217998 0.217472 186 125 155
-0.0208437 0.814614 -0.191204 125 231 103
0.0832295 -0.0698878 0.173317 138 119 150
-0.259891 -0.339949 0.162113 94 84 148
-0.565434 -0.5972 0.0154736 55 51 129
0.174424 0.183121 0.120453 150 151 143
0.78517 -0.468439 0.0616385 228 68 135
-0.296675 0.962829 0.260515 90 250 161
-0.235508 0.283564 -0.241036 97 164 97
-0.0279088 -0.995913 -0.0566541 124 1 120
-0.0259143 -0.639977 -0.393174 124 46 77
-0.292017 -0.611068 0.239086 90 50 158
0.240593 -0.865269 -0.396154 158 17 77
-0.452682 0.337314 -0.164192 70 171 107
0.643003 0.0100741 -0.102974 209 129 114
-0.100018 -0.672391 -0.342489 115 42 84
0.248389 0.303294 -0.149865 159 166 108
-0.0087068 -0.514651 0.337902 126 62 171
0.467563 -0.898854 -0.473781 187 13 67
0.459077 -0.292914 -0.324747 186 90 86
0.595196 0.0218615 -0.231794 203 130 98
-0.0307209 0.581973 0.428586 124 202 182
0.747272 -0.515174 0.201353 223 62 153
0.0947431 -0.929265 0.21196 140 9 155
0.121167 0.681614 -0.10438 143 214 114
0.598044 -0.789128 0.227076 204 27 156
-0.115048 0.446031 -0.142746 113 184 109
0.393033 0.360516 0.0378254 178 173 132
-0.604734 -0.895347 -0.029797 50 13 124
-0.257235 -0.630589 0.350767 95 47 172
-0.0575763 0.786788 -0.27018 120 228 93
0.535124 -0.558591 -0.429545 196 56 73
-0.33594 0.235714 0.345934 85 158 172
0.437337 -0.682263 0.389081 183 41 177
-0.0909458 0.54462 -0.257265 116 197 95
-0.399974 -0.64116 -0.373857 77 46 80
-0.0602018 -0.292324 0.0824893 120 90 138
-0.746146 0.720954 0.0969795 32 219 140
-0.614562 0.898679 0.131726 49 242 144
-0.392434 -0.0552222 0.0315151 77 120 132
0.0502411 -0.875906 -0.19984 134 16 102
-0.246127 0.918347 0.30805 96 245 167
0.42713 -0.790828 0.320005 182 27 168
-0.390832 0.411243 -0.268422 78 180 93
0.101017 -0.947054 -0.202483 140 7 102
-0.150729 -0.0813818 -0.309244 108 117 88
-0.0900914 -0.534245 -0.481896 116 59 66
-0.607029 -0.828986 -0.110597 50 22 113
0.0234629 0.814233 0.157582 130 231 148
-0.201106 0.455579 -0.231608 102 186 98
-0.427596 0.227822 0.0683556 73 157 136
-0.472605 0.914609 -0.112824 67 244 113
-0.557123 -0.544282 -0.166826 56 58 106
0.279284 -0.829472 -0.428868 163 22 73
0.659339 -0.980601 -0.0594096 212 2 120
-0.377883 -0.241547 0.089176 79 97 139
-0.796572 0.381691 0.162308 26 176 148
-0.275922 -0.462365 0.196827 92 69 153
-0.170659 -0.132335 -0.324407 106 111 86
0.468927 -0.883711 -0.490543 187 15 65
-0.0395104 -0.678685 -0.277244 122 41 92
-0.165009 -0.623837 0.460927 106 48 186
0.527725 -0.0239584 0.218047 195 124 155
-0.524294 0.608108 -0.416603 61 205 74
-0.59334 0.917732 0.0646372 52 245 136
-0.323875 -0.0499256 0.0917694 86 121 139
-0.390916 0.853695 0.383909 78 236 176
0.0373484 -0.0173005 -0.242714 132 125 97
-0.305782 0.954054 0.278033 89 249 163
-0.385603 0.253431 0.474006 78 160 188
-0.56432 -0.637687 0.0603057 56 46 135
-0.412025 0.235284 0.454274 75 157 185
-0.350483 0.987335 0.213692 83 253 155
0.57699 -0.997466 0.21478 201 0 155
-0.0334267 0.136935 -0.0750762 123 145 118
-0.0307486 -0.549068 0.433796 124 57 183
-0.314285 0.236361 0.284562 87 158 164
-0.0865256 0.331324 0.193744 116 170 152
-0.176779 -0.582979 -0.461799 105 53 69
-0.451593 0.023164 -0.0624376 70 130 120
0.130529 -0.270226 0.307961 144 93 167
0.220954 -0.946549 -0.31541 156 7 87
0.150576 0.659037 0.0257006 147 212 131
-0.041807 0.848316 0.230783 122 236 157
0.681169 -0.508745 0.252543 214 63 160
-0.0602992 0.566886 -0.245949 120 200 96
-0.773842 0.271946 0.145429 29 162 146
-0.238476 0.420729 -0.206305 97 181 101
-0.441226 0.552605 0.517844 71 198 194
0.520235 0.248358 -0.162559 194 159 107
-0.087225 0.367145 -0.124706 116 174 112
0.648425 -0.825401 -0.459987 210 22 69
0.284041 -0.653737 -0.446614 164 44 71
-0.534099 -0.892406 0.148897 59 14 146
-0.455307 0.123056 -0.0637192 69 143 119
0.327456 0.19719 -0.295752 169 153 90
-0.603477 0.871385 -0.067315 51 239 119
0.111381 0.0638132 -0.300682 142 136 89
0.244094 -0.99401 0.0785616 159 1 138
-0.296516 0.694072 -0.430978 90 216 73
-0.303574 -0.483119 0.197502 89 66 153
0.137539 -0.454528 0.374466 145 70 175
0.650275 0.0389533 -0.0273163 210 132 124
0.169108 -0.995465 -0.123324 149 1 112
-0.256034 0.0552913 -0.282044 95 135 92
-0.584197 0.20445 0.305469 53 154 166
-0.566368 0.786733 -0.245214 55 228 96
0.139818 0.615711 -0.109962 145 206 113
0.784915 -0.493959 -0.118545 228 65 112
-0.26698 -0.375803 -0.485468 93 80 66
-0.44673 -0.718364 0.22396 71 36 156
0.00601283 -0.513806 -0.436016 128 62 72
-0.346189 0.122412 0.135848 83 143 145
0.5641 -0.122833 0.229045 199 112 157
0.0574336 0.771591 -0.134241 135 226 110
-0.438658 0.66307 0.491854 72 212 190
-0.104408 0.695684 0.431326 114 216 182
0.41771 -0.704374 -0.472223 181 38 67
0.00631623 -0.46812 0.278764 128 68 163
0.347367 0.24599 -0.26704 172 159 93
0.383049 -0.954298 0.203296 176 6 153
0.085542 0.748303 0.112255 138 223 142
-0.188232 -0.543152 0.415692 104 58 181
-0.423157 0.501393 -0.438178 74 191 72
-0.260015 0.837465 0.396186 94 234 178
0.23007 -0.89167 0.227851 157 14 157
-0.428866 -0.663176 -0.35854 73 43 82
-0.293661 0.428955 0.52375 90 182 194
-0.176583 0.822764 -0.287003 105 232 91
0.357283 -0.770944 -0.476382 173 29 67
0.651819 -0.769221 -0.40326 211 29 76
-0.0455925 0.139343 -0.167428 122 145 106
0.0310806 -0.472465 0.312176 131 67 167
-0.0921306 -0.314165 -0.452417 116 87 70
0.178027 0.104476 0.173651 150 141 150
-0.03191 0.343281 0.386048 123 171 177
0.790047 -0.63863 -0.16854 228 46 106
0.427603 0.28058 -0.199856 182 163 102
-0.531563 -0.541314 0.0371429 60 58 132
0.158041 -0.713804 -0.37418 148 36 80
-0.498058 -0.343579 -0.143213 64 84 109
0.0324903 -0.0500124 0.0115667 132 121 129
0.387803 0.233867 -0.263339 177 157 94
-0.10119 -0.293172 -0.333803 115 90 85
-0.0548075 -0.591387 -0.451259 121 52 70
-0.391385 0.229534 0.205765 78 157 154
-0.737662 0.258451 0.217482 33 160 155
-0.431303 0.225079 0.313401 73 156 167
-0.752569 0.466231 0.269481 32 187 162
-0.0149566 0.865635 0.108228 126 238 141
0.0134107 0.05296 -0.188879 129 134 103
-0.1635 -0.507342 0.204744 107 63 154
-0.206583 0.548751 -0.342862 101 197 84
-0.544188 -0.619642 0.0821716 58 48 138
0.0795187 -0.370901 0.313775 138 80 168
-0.0792406 -0.719735 0.356171 117 36 173
0.598743 0.0609623 0.149681 204 135 147
-0.679005 0.581376 -0.31183 41 202 88
-0.0633552 -0.925265 -0.216926 119 10 100
0.0428439 0.822622 0.0247034 133 232 131
-0.282792 -0.223322 0.134712 91 99 145
-0.342979 0.00928489 0.124351 84 129 143
-0.631516 0.480603 0.415452 47 189 180
0.650447 0.0441358 0.117661 210 133 143
-0.310256 -0.658805 -0.400346 88 44 76
0.415047 -0.839396 -0.48999 180 20 65
-0.0221288 -0.284401 0.135638 125 91 145
-0.519978 -0.647268 -0.280986 61 45 92
0.635119 -0.463347 0.282449 208 68 164
0.720997 -0.70267 -0.350359 219 38 83
0.259185 -0.143288 0.281572 161 109 163
0.0784334 -0.578244 -0.383933 138 54 79
0.339283 -0.0829289 -0.367104 171 117 81
0.778112 -0.722917 -0.00984174 227 35 126
0.140528 -0.872226 0.236003 145 16 158
-0.532848 -0.478479 -0.190229 60 66 103
-0.208921 -0.998529 -0.261813 101 0 94
0.0534758 0.159555 -0.0668413 134 148 119
0.636399 -0.992244 -0.21367 209 1 100
0.106149 -0.0219243 -0.309324 141 125 88
0.405778 -0.995485 -0.258508 179 1 95
0.00761824 -0.667323 0.309305 128 42 167
-0.277854 -0.565878 -0.434619 92 55 72
-0.242021 0.981458 0.0824985 97 253 138
0.0492066 -0.556383 -0.40232 134 57 76
0.373217 0.304049 -0.147763 175 166 109
-0.297183 -0.547383 -0.447406 90 58 70
-0.2786 -0.280371 -0.412023 92 92 75
0.752581 -0.791039 -0.171337 223 27 106
0.707142 -0.302343 0.062608 218 89 135
0.107213 0.668992 -0.170702 141 213 106
-0.660936 0.407457 0.383288 43 179 176
-0.15465 0.166068 -0.243102 108 149 97
0.627414 -0.380539 0.273141 207 79 162
0.375354 -0.0187736 0.254728 175 125 160
-0.0308826 0.878193 -0.0301063 124 239 124
-0.590648 -0.633722 -0.0594899 52 47 120
-0.663397 0.239391 0.126963 43 158 144
-0.487261 -0.353294 -0.0157685 65 82 125
-0.168273 0.25951 0.17135 106 161 149
-0.3216 -0.998793 -0.223735 86 0 99
-0.0310062 -0.47366 0.214659 124 67 155
-0.498658 -0.935581 0.161831 64 8 148
-0.293142 -0.145347 -0.325117 90 109 86
-0.420306 0.710762 -0.398451 74 218 77
0.79409 -0.539198 -0.160802 229 59 107
-0.415521 0.0707383 0.0336054 75 137 132
0.525348 -0.996644 -0.367306 194 0 81
-0.513518 0.438646 -0.349054 62 183 83
0.071259 0.680543 0.285143 137 214 164
0.599233 -0.403106 -0.313689 204 76 88
0.607743 0.163992 -0.0905637 205 148 116
-0.224814 -0.34058 0.160226 99 84 148
0.447465 -0.990262 0.257542 185 1 160
-0.556433 -0.554645 -0.0161117 57 57 125
0.494206 -0.808731 -0.505286 191 24 63
0.024695 0.815043 -0.109661 131 231 114
-0.600401 -0.923794 -0.0105313 51 10 126
-0.424916 0.995069 0.160624 73 254 148
-0.788599 0.402969 0.19312 27 179 152
-0.451723 0.197767 -0.0150197 70 153 126
0.599559 0.203163 -0.0718046 204 153 118
0.503072 -0.229565 -0.295254 192 98 90
-0.414162 -0.203121 0.0400552 75 102 133
-0.612223 -0.840329 -0.0116486 49 20 126
-0.214628 -0.352507 -0.491347 100 83 65
-0.796744 0.456813 0.175436 26 186 150
0.451946 -0.751644 -0.485965 185 32 66
-0.0347374 0.202364 -0.113037 123 153 113
0.538365 -0.671772 -0.45224 196 42 70
0.174624 -0.230127 -0.298591 150 98 89
0.0262746 0.0350916 -0.0407988 131 132 122
-0.21706 0.973475 0.140913 100 252 145
0.685661 -0.268096 0.0862193 215 93 138
-0.200307 0.569373 -0.404934 102 200 76
-0.109631 0.663135 0.450234 114 212 185
-0.586165 -0.974853 -0.0034353 53 3 127
-0.78193 0.572921 -0.108173 28 201 114
0.0510778 -0.584911 -0.402784 134 53 76
-0.338644 0.107933 -0.276376 84 141 92
-0.438958 -0.318495 0.0529127 72 87 134
-0.150573 0.575103 0.490757 108 201 190
0.634911 -0.995634 -0.181374 208 1 104
0.301509 -0.846127 -0.435915 166 20 72
0.210887 -0.419194 -0.361723 154 74 81
-0.0660198 -0.994821 0.281857 119 1 163
0.540535 0.218982 0.105281 196 155 141
-0.0251542 -0.0531124 -0.184702 124 121 104
0.15336 -0.038896 0.237742 147 123 158
-0.0845428 -0.151909 -0.278132 117 108 92
-0.0394031 0.402407 0.0593683 122 179 135
-0.367791 0.73511 0.462851 81 221 187
0.607904 -0.201903 -0.160604 205 102 107
-0.77638 0.435155 -0.166839 29 183 106
-0.315445 -0.283404 -0.422126 87 91 74
0.263198 0.238241 -0.271235 161 158 93
0.480266 0.35376 -0.0136009 189 173 126
-0.73804 0.501134 -0.256321 33 191 95
0.446498 -0.0264071 -0.345524 184 124 83
-0.466975 0.206742 0.364674 68 154 174
-0.0858054 -0.473202 0.357708 117 67 173
0.590088 -0.758339 -0.456273 203 31 69
-0.317107 -0.997643 -0.119281 87 0 112
-0.174593 0.446467 -0.194847 105 184 103
-0.602367 0.407624 -0.334165 51 179 85
-0.485671 -0.33906 -0.201395 66 84 102
0.102382 0.642085 -0.191973 141 209 103
0.591838 -0.147836 -0.179893 203 109 105
0.645199 -0.222067 -0.0582591 210 99 120
-0.599471 -0.892038 -0.101307 51 14 115
-0.163456 -0.324405 0.144088 107 86 146
-0.0499866 -0.0344998 0.0163904 121 123 130
-0.773834 0.619219 -0.0904127 29 206 116
-0.203769 -0.558829 0.413545 102 56 180
-0.22427 0.440749 -0.225433 99 184 99
-0.480015 0.318556 -0.143142 66 168 109
0.571937 -0.146116 -0.225026 200 109 99
0.481526 -0.284666 0.344304 189 91 171
-0.0365845 0.808864 0.2833 123 231 164
-0.508548 0.640847 -0.408717 63 209 75
0.38004 -0.846134 0.284856 176 20 164
-0.43394 -0.536067 -0.338306 72 59 84
-0.262934 -0.709817 0.255494 94 37 160
0.516088 -0.642282 0.362992 193 46 174
0.154573 0.639478 -0.0303535 147 209 124
-0.2116 -0.996291 0.028142 101 0 131
0.678747 -0.76756 -0.367663 214 30 81
0.19318 -0.911471 0.200408 152 11 153
0.532982 0.173007 -0.24481 195 150 96
-0.175439 0.813304 0.387472 105 231 177
-0.040164 0.159422 -0.032316 122 148 123
0.676868 -0.875565 0.110629 214 16 142
0.493225 0.285105 0.086968 190 164 139
0.0352242 0.628474 -0.27883 132 208 92
0.073224 0.559397 -0.123634 137 199 112
-0.708328 0.284537 0.283705 37 164 164
0.398663 -0.995132 -0.230706 178 1 98
0.799964 -0.61804 0.0412667 229 49 133
-0.323977 -0.987965 -0.314097 86 2 87
0.12656 -0.958053 -0.220351 144 5 99
-0.0383496 0.886091 -0.00923598 123 240 126
-0.354838 0.108204 -0.25841 82 141 95
-0.472034 0.341035 -0.174839 67 171 105
0.045992 -0.284506 -0.247718 133 91 96
-0.214614 0.213431 -0.246506 100 155 96
0.0754728 0.42451 0.199355 137 182 153
0.11685 0.706414 -0.0777461 142 218 118
0.755722 -0.641787 0.130625 224 46 144
-0.216009 0.959955 -0.0615726 100 250 120
-0.481877 -0.988175 0.120948 66 2 143
0.753756 -0.434225 0.134057 224 72 145
0.147448 0.306244 -0.00769 146 167 127
0.106949 -0.811732 -0.296227 141 24 90
-0.0725208 0.811403 0.319556 118 231 168
-0.261372 -0.997677 -0.139816 94 0 110
0.486149 -0.489497 -0.404207 189 65 76
0.269695 -0.995804 -0.207937 162 1 101
0.421919 0.323227 -0.118861 181 169 112
0.116284 0.493491 0.0574625 142 190 135
0.599558 -0.181764 -0.169247 204 104 106
0.557051 -0.996758 0.197793 199 0 153
-0.784872 0.633371 0.0497052 27 208 134
0.00870144 -0.943433 0.25986 129 7 161
-0.0395664 -0.0318864 -0.0047761 122 123 127
0.107838 -0.256383 0.276058 141 95 163
0.0662188 0.209224 -0.0974682 136 154 115
0.00152155 -0.347223 0.219312 128 83 155
0.0763898 0.0164319 -0.278775 137 130 92
-0.0836475 0.242055 -0.18981 117 158 103
-0.00730274 0.502828 -0.11781 127 192 112
0.667792 -0.472195 -0.280745 213 67 92
0.0399979 0.488824 -0.0144129 133 190 126
-0.117472 0.151845 0.144535 113 147 146
-0.00489821 -0.651746 -0.366342 127 44 81
-0.409625 0.949768 -0.0670222 75 249 119
-0.251554 0.968367 0.217274 95 251 155
0.0765826 -0.845074 0.206253 137 20 154
-0.0024778 -0.691695 0.385038 127 39 177
-0.064682 0.229586 0.0642165 119 157 136
-0.405614 0.12686 -0.187646 76 144 104
0.274718 0.27075 0.133826 163 162 145
-0.236371 -0.730845 -0.397987 97 34 77
0.347414 0.326519 -0.0932207 172 169 116
0.478551 0.157778 -0.286316 189 148 91
0.7563 -0.745486 0.0134028 224 32 129
-0.258726 -0.996713 -0.0388652 95 0 123
-0.375529 0.504481 -0.390518 80 192 78
0.199647 -0.883059 0.215279 153 15 155
0.647652 -0.0674641 -0.0617709 210 119 120
0.363401 -0.506269 -0.410803 174 63 75
0.237471 -0.131636 -0.357163 158 111 82
0.673346 -0.535425 -0.29691 213 59 90
-0.467733 0.61874 0.497694 68 206 191
-0.0875718 -0.687356 -0.327968 116 40 86
-0.101712 -0.0441043 -0.271215 115 122 93
-0.560371 -0.54352 -0.0728555 56 58 118
-0.291006 -0.322249 0.154208 90 86 147
-0.299996 -0.897074 0.243924 89 13 159
0.622894 0.274963 -0.0269792 207 163 124
-0.465983 0.251236 0.0631929 68 160 136
0.345203 -0.585618 -0.448463 172 53 70
0.274162 -0.692938 0.362366 162 39 174
-0.355216 -0.803561 0.251703 82 25 160
0.399097 0.122923 0.129877 178 143 144
0.595065 -0.123429 -0.203886 203 112 102
-0.0371842 -0.461825 -0.456239 123 69 69
-0.0451523 0.833899 0.259719 122 234 161
-0.560351 -0.779633 -0.231214 56 28 98
-0.0203418 -0.429894 -0.447377 125 73 70
0.512188 -0.335034 -0.32016 193 85 87
0.0986029 -0.0445639 0.15398 140 122 147
0.00526115 -0.628483 0.444638 128 47 184
-0.0485697 0.083373 -0.176659 121 138 105
0.0207029 -0.626453 0.433527 130 48 183
-0.517872 0.679853 0.458849 61 214 186
-0.488152 0.732774 -0.353001 65 221 82
-0.521592 0.329574 -0.166067 61 170 106
-0.436191 -0.061053 -0.126423 72 120 111
-0.395502 -0.473974 0.159011 77 67 148
0.471188 -0.0928377 -0.330588 188 116 85
0.301402 -0.993801 0.0954044 166 1 140
-0.270341 -0.811934 -0.391376 93 24 78
0.0319915 -0.0598926 -0.238138 132 120 97
0.107942 0.566833 0.270434 141 200 162
0.0347937 -0.65801 -0.339303 132 44 84
0.277661 -0.769597 -0.448625 163 29 70
-0.0761753 0.346612 0.161478 118 172 148
0.629077 -0.156781 -0.0743918 208 108 118
-0.444793 0.185545 0.0198757 71 151 130
-0.265223 0.857547 0.380294 94 237 176
-0.197407 -0.997595 -0.186808 102 0 104
-0.342146 0.185451 -0.252372 84 151 95
-0.243356 0.774147 -0.366176 96 226 81
0.101284 -0.887749 -0.248059 140 14 96
-0.00790935 -0.276945 0.161854 126 92 148
-0.265457 -0.996262 0.147319 94 0 146
-0.590868 0.274897 -0.0680291 52 163 119
-0.440691 -0.0908307 -0.0771011 71 116 118
-0.646978 0.85924 0.00353079 45 237 128
0.651828 0.329557 -0.0704795 211 170 119
-0.365764 -0.525422 -0.436584 81 61 72
-0.394834 0.973721 -0.00992621 77 252 126
-0.236292 0.891974 0.335986 97 241 170
-0.299583 0.993247 0.132671 89 254 144
