ply
format ascii 1.0
comment Created by Open3D
element vertex 1218
property double x
property double y
property double z
property uchar red
property uchar green
property uchar blue
end_header
-0.849739 0.295642 0.448518 19 165 185
-0.324288 0.915576 0.258828 86 244 161
-0.730851 0.554055 -0.413772 34 198 75
-0.619401 0.735587 -0.331133 49 221 85
0.495216 0.637627 0.590742 191 209 203
-0.128213 0.420368 0.890568 111 181 241
0.320413 -0.209677 -0.93254 168 101 9
-0.604961 -0.00899888 0.827856 50 126 233
0.749853 -0.431921 -0.487005 223 72 65
0.661222 0.28477 0.699392 212 164 217
-0.236668 0.231857 0.947521 97 157 248
0.428908 0.867053 -0.291775 182 238 90
0.440605 -0.4128 0.803134 184 75 230
-0.0049107 -0.422019 0.908589 127 74 243
-0.162305 -0.227261 0.965802 107 99 251
0.489254 0.753329 0.44592 190 224 184
-0.778969 0.168255 0.61554 28 149 206
-0.933636 -0.255135 -0.263804 8 95 94
-0.345911 -0.693227 0.655766 83 39 211
-0.188743 -0.91693 -0.376938 103 11 79
-0.290198 0.490576 -0.826335 90 190 22
-0.142791 -0.785232 -0.618807 109 27 49
0.210663 0.287529 -0.937279 154 164 8
0.557439 -0.497167 0.673109 199 64 213
0.814232 0.0818497 0.561431 231 138 199
-0.629809 -0.580489 0.535387 47 53 196
0.802277 0.613527 0.0853968 230 206 138
-0.269403 -0.958702 -0.0116621 93 5 126
0.0418671 -0.934464 -0.367889 133 8 81
0.351455 0.446457 -0.829908 172 184 22
-0.310723 0.746553 -0.60018 88 223 51
0.608201 -0.724271 0.333124 205 35 170
-0.987618 0.0681321 -0.153535 2 136 108
0.103602 0.180368 -0.979074 141 150 3
-0.739814 -0.566805 -0.375076 33 55 80
-0.482987 -0.351577 -0.81132 66 83 24
0.520718 0.0996903 -0.859329 194 140 18
0.153759 0.666525 -0.740627 147 212 33
-0.963378 0.274371 -0.0716271 5 162 118
-0.593855 -0.748022 0.280834 52 32 163
-0.729711 0.0132603 -0.689175 34 129 40
-0.78454 -0.232931 -0.565785 27 98 55
-0.386944 0.901088 0.233444 78 242 157
0.716546 0.190909 0.66358 219 152 212
0.361636 -0.876418 0.327906 174 16 169
-0.875383 0.470223 -0.200715 16 187 102
0.436974 -0.746586 0.510892 183 32 193
-0.794162 -0.436991 -0.430729 26 72 73
-0.829538 0.0965158 -0.545704 22 140 58
0.635148 0.783385 0.00762172 208 227 128
0.602108 -0.790819 -0.117978 204 27 112
0.981729 -0.0309207 -0.204474 253 124 101
-0.139604 -0.63391 -0.759406 110 47 31
-0.897887 -0.430042 0.129582 13 73 144
0.38804 -0.89665 -0.214008 177 13 100
-0.399114 0.865931 -0.329525 77 238 85
0.455284 0.368112 0.813926 186 174 231
-0.520368 -0.00682328 -0.863133 61 127 17
0.571772 -0.726383 -0.375319 200 35 80
-0.638437 -0.72156 0.275866 46 36 163
-0.984295 -0.157842 0.10592 2 107 141
-0.265587 0.46047 0.84319 94 186 235
-0.374806 -0.547364 0.76068 80 58 224
-0.267659 0.522085 -0.812154 93 194 24
-0.779928 0.0806297 0.642025 28 138 209
0.433324 -0.883147 0.168742 183 15 149
0.397423 -0.501873 -0.770945 178 64 29
0.160388 0.833479 -0.544901 148 234 58
-0.6107 -0.559191 -0.569229 50 56 55
-0.724221 -0.589237 0.37639 35 52 175
0.516146 -0.492563 -0.70115 193 65 38
0.813626 0.448337 0.363459 231 185 174
0.488497 0.505855 0.708302 190 192 218
0.756156 -0.657689 -0.0121803 224 44 126
0.993143 -0.000505498 0.132211 254 127 144
0.884244 -0.467902 0.0187785 240 68 130
0.746953 0.26246 0.612554 223 161 206
-0.68421 0.530446 -0.509956 40 195 62
0.860326 -0.332114 -0.37392 237 85 80
-0.829274 0.509861 -0.270681 22 193 93
0.78322 -0.12005 -0.608643 227 112 50
0.584944 -0.807291 -0.0481207 202 25 121
0.967201 -0.196785 0.172643 251 102 150
0.360087 0.510874 0.776962 173 193 227
-0.206601 0.912658 0.324509 101 244 169
0.562972 0.252173 -0.794595 199 160 26
0.393251 -0.821167 0.424134 178 23 182
0.480097 0.880162 0.0859321 189 240 138
0.662597 -0.0384471 0.754146 212 123 224
-0.773125 -0.586691 0.262854 29 53 161
-0.694809 -0.221388 0.714476 39 99 219
0.210946 0.264619 0.939432 154 161 247
0.944912 -0.0570358 0.323967 248 120 169
0.590336 0.0751467 0.810786 203 137 231
-0.39638 -0.493827 0.790208 77 65 228
-0.544512 -0.455699 -0.71608 58 69 36
-0.90569 0.202777 -0.376269 12 153 80
0.165849 -0.0760845 -0.983145 149 118 2
0.832056 -0.317731 0.4509 234 87 185
0.950822 -0.297494 -0.0868715 249 90 116
0.658517 -0.460687 -0.588204 211 69 53
-0.940034 -0.00138594 0.360597 8 127 173
-0.458439 -0.702643 -0.558975 69 38 56
0.383594 0.843493 0.388708 176 235 177
-0.694934 0.215037 -0.703813 39 155 38
0.691667 -0.116261 0.713847 216 113 219
-0.0377675 -0.7741 0.649972 123 29 210
-0.315051 -0.225551 -0.929772 87 99 9
-0.328535 0.184508 0.936297 86 151 247
-0.698566 0.34158 0.643162 38 171 210
-0.294181 0.934222 0.210688 90 247 154
0.121359 -0.950035 0.299216 143 6 166
-0.0197551 0.994764 0.0203541 125 254 130
0.918931 0.298137 0.270099 245 166 162
-0.649493 -0.740079 -0.189465 45 33 103
0.223076 -0.934885 -0.289077 156 8 91
0.416153 -0.317382 -0.862005 181 87 18
-0.811349 -0.558308 -0.193362 24 56 103
0.736378 0.27831 -0.605351 221 163 50
-0.331937 0.927578 -0.190934 85 246 103
-0.0848609 -0.160355 -0.982038 117 107 2
-0.700927 0.145573 0.723953 38 146 220
-0.855918 -0.515624 -0.0353199 18 62 123
0.977607 -0.200147 0.0416082 252 102 133
-0.0544993 0.977318 0.177624 121 252 150
0.166042 0.0125021 0.98545 149 129 253
-0.703395 0.417417 0.580971 38 181 202
0.614553 -0.440307 0.65864 206 71 211
-0.563532 0.334159 0.770551 56 170 226
-0.786922 0.0917979 -0.59281 27 139 52
0.816891 0.479951 -0.349263 232 189 83
0.819893 -0.515153 0.27278 232 62 162
0.993135 -0.0877716 -0.0752212 254 116 118
-0.54478 -0.785248 0.305408 58 27 166
0.323874 -0.777961 0.554092 169 28 198
0.977532 0.223592 0.04136 252 156 133
-0.462939 0.491362 -0.747213 68 190 32
0.497213 0.856407 -0.194381 191 237 103
-0.681827 -0.70079 -0.232476 41 38 98
-0.880244 -0.202532 0.440278 15 102 184
-0.667226 0.282372 -0.703515 42 164 38
0.449213 -0.462155 0.771559 185 69 226
0.515077 0.5232 0.675562 193 194 214
-0.287352 -0.68984 -0.676127 91 40 41
0.912894 0.365744 0.186817 244 174 151
0.420757 -0.256674 -0.881625 181 95 15
-0.485913 0.796312 0.387706 66 229 177
-0.386249 -0.456931 0.817032 78 69 232
0.821394 -0.00803368 -0.563224 232 126 56
-0.343032 0.908186 -0.262812 84 243 94
-0.142236 -0.318409 0.941211 109 87 248
-0.127639 -0.968397 0.211511 111 4 154
0.897839 0.242446 -0.378814 242 158 79
-0.983939 0.0420278 -0.186507 2 133 104
-0.10821 -0.875982 -0.488003 114 16 65
-0.630283 -0.685278 0.374427 47 40 175
-0.819869 0.447274 -0.373384 23 185 80
0.917789 0.412997 -0.0010103 245 180 127
-0.288311 0.236533 -0.934629 91 158 8
0.237385 -0.115831 0.968608 158 113 251
0.966672 0.17751 0.204458 251 150 154
-0.832956 0.198324 0.526072 21 153 195
-0.590862 -0.351938 0.749205 52 83 223
0.893173 0.325692 0.312377 241 169 167
-0.742185 -0.287236 -0.615295 33 91 49
0.754138 -0.471278 -0.44189 224 67 71
-0.872345 0.0977161 -0.473217 16 140 67
0.796389 -0.608736 -0.0480982 229 50 121
-0.505082 -0.85783 -0.0895889 63 18 116
0.244772 0.801524 -0.55616 159 230 57
-0.235289 0.846593 -0.48545 98 235 66
0.870647 -0.259388 -0.405762 239 94 76
0.615899 -0.77612 0.140339 206 29 145
-0.948949 -0.104609 -0.304258 7 114 89
-0.702018 0.208469 0.693546 38 154 216
0.837844 0.560588 -0.0476994 234 199 121
-0.901014 -0.40946 0.186923 13 75 151
0.552091 -0.73813 0.37841 198 33 176
0.84853 -0.00976822 0.516532 236 126 193
0.912817 0.261657 0.316588 244 161 168
-0.0277793 -0.179668 -0.982142 124 105 2
0.354724 0.0955721 -0.941086 173 140 8
0.843527 -0.527306 0.118312 235 60 143
0.750666 0.136116 0.650701 223 145 210
-0.180222 -0.501373 -0.8509 105 64 19
-0.357222 0.474221 0.803025 82 188 230
-0.52355 -0.552525 -0.66089 61 57 43
-0.4624 0.0940762 0.902202 69 139 243
0.0113767 0.33173 0.934803 129 170 247
0.310608 -0.245072 -0.928112 167 96 9
-0.842662 0.134896 0.531126 20 145 195
0.634816 -0.316782 -0.713296 208 87 37
-0.203286 -0.687394 -0.707185 102 40 37
0.624975 -0.710043 -0.321137 207 37 87
-0.242845 0.884697 -0.405298 97 240 76
0.914842 -0.302089 0.276745 244 89 163
-0.494493 -0.83884 0.23771 64 21 158
0.975275 0.229534 -0.0558086 252 157 120
0.279657 -0.504347 0.818669 163 63 232
0.614165 0.368286 -0.704647 206 174 38
0.640179 0.0384369 0.773573 209 132 226
0.198998 0.698855 -0.692765 153 217 39
0.164233 -0.821263 -0.545292 148 23 58
-0.31629 0.836101 -0.462486 87 234 69
0.154013 -0.832756 0.553382 147 21 198
0.0474585 -0.487273 0.873965 134 65 239
-0.866676 -0.485095 -0.139591 17 66 110
-0.753981 -0.65434 0.00254211 31 44 128
-0.103575 0.894527 0.418411 114 242 181
0.436342 0.229314 0.879746 183 157 240
0.970525 -0.0872195 -0.215904 251 116 100
0.842625 0.0352337 0.525853 235 132 195
-0.120981 0.598537 0.776244 112 204 226
0.986582 0.173741 0.0501023 253 150 134
-0.770516 0.526426 0.383733 29 195 176
-0.178225 0.0679756 -0.984138 105 136 2
0.587017 -0.510635 0.628081 202 62 208
-0.262506 0.658232 -0.712925 94 211 37
-0.376611 0.818771 0.446443 79 232 184
-0.781252 -0.125021 -0.612064 28 112 49
0.520361 0.821247 0.244054 194 232 159
0.593115 -0.418206 -0.688241 203 74 40
-0.622031 0.797442 0.135758 48 229 145
0.671241 -0.373131 0.641921 213 80 209
-0.426958 0.897557 -0.162369 73 242 107
-0.427498 -0.00982891 -0.911375 73 126 11
-0.0973408 0.687393 -0.727864 115 215 35
-0.252611 0.296655 0.914553 95 165 244
-0.933849 -0.284473 -0.206305 8 91 101
0.35444 -0.849826 0.403894 173 19 179
0.198399 -0.899777 0.389672 153 13 177
-0.869325 0.390018 0.329758 17 177 170
0.660903 -0.740292 0.12895 212 33 144
0.159121 -0.591654 -0.792812 148 52 26
-0.942884 0.337898 0.0979497 7 171 140
0.199793 -0.965215 0.0720745 153 4 137
0.302873 0.586009 0.745563 166 202 223
0.972584 -0.183775 -0.154066 252 104 108
-0.591936 -0.298649 -0.760561 52 89 31
-0.0259889 0.0254687 -0.997342 124 131 0
-0.503344 -0.701534 0.528191 63 38 195
-0.412218 -0.686242 0.622674 75 40 207
-0.659149 0.465343 0.599369 43 187 204
-0.457616 -0.166281 0.896777 69 106 242
0.549504 -0.208323 -0.821828 198 101 23
-0.684009 -0.114691 0.752598 40 113 223
0.580381 -0.230392 0.789522 201 98 228
0.673439 0.737085 -0.163065 213 221 107
0.167453 -0.782056 0.612142 149 28 206
-0.868341 -0.402078 0.315706 17 76 168
-0.235321 -0.472985 0.856239 97 67 237
-0.67818 -0.417894 -0.618446 41 74 49
0.258069 -0.893124 0.392562 160 14 178
0.695479 0.712878 -0.1815 216 218 104
0.167814 0.881086 0.440867 149 240 184
-0.759455 0.497995 -0.429271 31 191 73
-0.142629 -0.24618 -0.961815 109 96 5
0.674452 0.654648 0.341009 213 211 171
-0.550454 -0.655104 0.539581 57 44 196
0.556709 0.550495 -0.629338 198 198 47
-0.503433 0.852034 -0.198704 63 236 102
-0.43289 0.253604 0.87704 72 160 239
0.316126 0.137986 0.942852 168 145 248
0.115751 -0.872651 0.498175 142 16 191
-0.849531 -0.21928 -0.478183 19 100 67
0.0700054 0.38189 0.912992 136 176 244
0.490444 0.456481 -0.750607 190 186 32
-0.883334 0.410169 0.26535 15 180 161
-0.991881 0.00696447 -0.133029 1 128 111
-0.216102 0.946561 0.199188 100 248 153
-0.243959 -0.873597 0.430888 96 16 182
0.499177 -0.81246 -0.297406 191 24 90
0.147122 0.981403 0.119229 146 253 143
0.866507 0.317426 0.377994 238 168 176
-0.330622 -0.756012 -0.579489 85 31 54
0.230812 -0.719672 0.672955 157 36 213
0.325522 -0.703787 0.644168 169 38 210
-0.449188 -0.629048 -0.641144 70 47 46
-0.377657 -0.90151 -0.23784 79 13 97
0.0423422 0.872771 -0.499191 133 239 64
0.355023 0.741136 0.576854 173 222 201
0.943922 0.296122 -0.200146 248 165 102
-0.989552 0.0594959 0.171298 1 135 149
-0.0920046 0.796629 -0.613111 116 229 49
-0.426127 -0.810427 0.428352 73 24 182
-0.00946081 0.960678 0.259347 126 250 161
-0.522598 -0.56505 0.661275 61 55 212
-0.736336 0.400956 -0.549353 34 179 57
-0.733598 0.480321 -0.488038 34 189 65
0.488831 0.869993 0.121351 190 238 143
0.864943 -0.36736 0.350332 238 81 172
0.945949 0.143637 0.298665 248 146 166
0.888392 0.423499 0.193323 241 181 152
0.405237 -0.514132 0.761946 179 62 225
-0.15009 -0.76192 0.652104 108 30 211
0.704219 -0.687032 0.211365 217 40 154
0.878046 -0.445907 0.210432 239 71 154
0.823818 -0.551856 0.156768 233 57 147
0.0109082 -0.97192 -0.245779 129 4 96
-0.427332 -0.295144 0.875189 73 90 239
0.289193 -0.931482 0.226575 164 9 156
-0.815727 -0.208253 0.551765 23 101 198
-0.32847 -0.528661 -0.789262 86 60 27
-0.908963 -0.207681 -0.366141 12 101 81
-0.602265 0.664066 -0.468821 51 212 68
-0.38298 0.312635 0.875817 79 167 239
-0.712351 -0.698283 0.0280689 37 38 131
0.121724 -0.159489 -0.979431 143 107 3
-0.96991 0.166337 -0.206861 4 149 101
0.107784 -0.963238 0.249896 141 5 159
0.590959 0.646196 -0.483906 203 210 66
0.951152 -0.288847 -0.120798 249 91 112
-0.258424 -0.323316 -0.91542 95 86 11
-0.762962 0.629003 0.229401 30 208 157
0.249995 0.937995 -0.267802 159 247 93
-0.266896 -0.767421 0.610644 93 30 205
-0.36542 -0.931336 0.0315177 81 9 132
0.207133 0.0385026 0.977806 154 132 252
0.404406 -0.898136 0.159336 179 13 148
0.409721 -0.867948 -0.283395 180 17 91
0.684869 0.547375 0.472059 215 197 188
-0.444369 -0.892737 0.0818689 71 14 138
0.701916 0.726052 -0.0349333 217 220 123
-0.647071 -0.729956 -0.242326 45 34 97
0.871146 -0.489345 0.057163 239 65 135
0.0202228 -0.0437091 0.997333 130 122 255
-0.393774 -0.61769 0.70191 77 49 217
0.602848 0.804544 0.0603547 204 230 135
-0.615981 0.0872662 -0.797971 49 139 26
0.408718 0.923431 0.0135356 180 245 129
0.507233 0.329342 0.803237 192 169 230
0.748901 -0.330801 -0.555519 223 85 57
0.716106 0.394621 0.561908 219 178 199
-0.161137 -0.666058 0.745706 107 43 223
-0.323967 -0.739124 0.616231 86 33 206
-0.00555967 0.424617 -0.909014 127 182 12
0.2348 0.00636972 0.973688 157 128 252
0.00789591 0.990602 0.0954804 129 254 140
-0.391638 0.855474 -0.36451 78 237 81
-0.584463 -0.805574 -0.0608877 53 25 120
-0.263656 -0.938581 0.209071 94 8 154
0.967552 0.0155374 0.253157 251 129 160
0.216551 -0.489599 0.847192 155 65 236
-0.910253 -0.388121 -0.166763 11 78 106
0.435228 -0.843747 -0.315615 183 20 87
-0.347184 -0.235344 -0.915087 83 97 11
0.155687 0.913882 0.371786 147 244 175
-0.710417 -0.239919 -0.671895 37 97 42
0.450635 0.891627 -0.150153 185 241 108
0.0142133 0.250127 -0.971803 129 159 4
-0.369634 0.743461 -0.570456 80 222 55
0.955938 0.261157 -0.185741 249 161 104
-0.63425 -0.762465 0.0723841 47 30 137
-0.427809 0.715012 0.558104 73 219 199
-0.959875 -0.200929 -0.202103 5 102 102
-0.539114 0.649058 0.54398 59 210 197
-0.37208 0.153888 -0.92418 80 147 10
0.554278 -0.542229 0.619185 198 58 206
-0.328305 -0.652099 0.704873 86 44 217
0.85363 0.148318 -0.498093 236 146 64
-0.0141 -0.886834 0.481421 126 14 189
0.165339 -0.956791 -0.249536 149 6 96
-0.0247727 -0.0326117 -0.996637 124 123 0
0.118294 0.929177 -0.368494 143 246 81
0.486917 -0.241846 -0.852206 190 97 19
0.427233 -0.360396 -0.838592 182 82 21
-0.278488 0.923223 -0.27468 92 245 92
-0.00348846 0.196582 -0.983107 127 153 2
-0.483245 -0.78801 0.401552 66 27 179
-0.869126 0.280869 -0.411026 17 163 75
0.299827 -0.000658999 -0.959514 166 127 5
-0.336733 0.0370778 -0.946858 85 132 7
0.318113 -0.927452 -0.200922 168 9 102
-0.0492998 -0.865694 0.518697 121 17 194
-0.514944 0.831925 0.255287 62 234 160
-0.873194 -0.48609 -0.0311766 16 66 124
-0.525917 -0.829154 -0.198558 60 22 102
-0.056959 -0.716878 -0.705001 120 36 38
-0.133892 -0.982162 -0.153312 110 2 108
0.363347 0.111491 0.930483 174 142 246
-0.117978 0.80762 0.561836 112 230 199
-0.21666 0.808581 0.537424 100 231 196
0.861616 0.437885 -0.298941 237 183 89
-0.231827 0.947203 -0.208624 98 248 101
0.510256 0.427525 -0.753233 193 182 31
0.230706 -0.961969 0.134392 157 5 145
0.0839221 -0.573545 -0.817905 138 54 23
0.359149 -0.149682 -0.929144 173 108 9
-0.437493 -0.249059 -0.864237 72 96 17
0.729871 -0.552712 0.407281 221 57 179
-0.750372 -0.369817 -0.548772 32 80 58
0.528598 -0.462531 0.719316 195 69 219
-0.32477 -0.0235657 -0.950149 86 124 6
0.694795 0.517121 -0.509764 216 193 63
0.247069 0.173498 0.954958 159 150 249
0.0717929 -0.932295 0.371344 137 9 175
0.00178415 0.869053 -0.506612 128 238 63
-0.662298 -0.725282 0.184165 43 35 151
0.284987 0.945059 -0.216072 164 248 100
0.115133 0.992686 -0.00277075 142 254 127
-0.443632 0.0563389 -0.9039 71 135 12
-0.522766 -0.820445 0.242036 61 23 158
-0.845568 -0.533031 0.00198906 20 60 128
0.178912 0.233927 -0.960692 150 157 5
-0.528109 -0.530672 0.674106 60 60 213
-0.222494 -0.93987 -0.283556 99 8 91
-0.954778 0.089698 -0.288069 6 139 91
-0.344121 0.331728 -0.883772 84 170 15
0.804332 0.41309 0.416391 230 180 181
-0.150295 0.679325 0.692098 108 214 216
-0.43877 0.885187 0.203671 72 240 153
0.914499 0.416048 0.0663475 244 181 136
-0.141778 0.935192 -0.320689 109 247 87
0.217762 0.363241 -0.908918 155 174 12
0.0847834 -0.776183 -0.636357 138 29 46
-0.148542 -0.930101 0.353367 109 9 173
-0.461312 0.700166 0.551589 69 217 198
0.84076 0.384887 -0.396916 235 177 77
0.152749 -0.459263 -0.877889 147 69 16
0.932624 0.276811 0.248139 246 163 159
-0.180761 -0.0682282 0.987451 104 119 253
-0.170422 -0.0950318 -0.980141 106 115 3
-0.398976 -0.585796 -0.711207 77 53 37
-0.518297 0.697277 0.509211 61 216 192
0.570596 0.17396 0.813322 200 150 231
0.539065 0.840509 0.116079 196 235 142
-0.581836 -0.638134 0.523376 53 46 194
-0.794009 0.575777 0.253106 26 201 160
0.279245 -0.186702 -0.948209 163 104 7
0.861339 -0.496803 0.123388 237 64 143
-0.893873 0.408358 0.189495 14 180 152
-0.867063 0.15593 0.483426 17 147 189
-0.246215 -0.506605 -0.831802 96 63 21
0.394294 0.808867 -0.458929 178 231 69
-0.706193 0.107711 0.726424 37 141 220
0.9525 -0.191048 -0.212325 249 103 100
0.671936 -0.307894 -0.680799 213 88 41
-0.0397236 0.579335 0.798284 122 201 229
-0.483586 0.356045 -0.809834 66 173 24
0.205803 -0.164569 0.958778 154 107 250
-0.171921 0.361511 -0.922375 106 174 10
-0.00395102 -0.181681 0.980246 127 104 252
0.665657 0.622327 0.408221 212 207 180
0.548377 -0.825089 -0.0876125 197 22 116
-0.444175 -0.313782 -0.848802 71 87 19
-0.3548 0.857034 0.39093 82 237 177
-0.781441 -0.144711 0.628298 28 109 208
-0.866125 -0.338938 -0.375314 17 84 80
0.549679 -0.484816 -0.678585 198 66 41
0.189021 0.958111 -0.248023 152 250 96
-0.0206233 -0.259561 -0.966474 125 94 4
0.829614 0.331459 0.437396 233 170 183
-0.595461 0.435665 -0.688022 52 183 40
0.487249 0.840745 -0.269737 190 235 93
0.650404 0.525802 -0.558714 210 195 56
-0.240625 -0.96004 0.0776281 97 5 137
-0.831583 0.53667 0.166583 21 196 149
-0.592269 -0.652298 -0.478234 52 44 67
-0.393915 -0.917491 -0.0921306 77 11 116
-0.471339 -0.861544 -0.20683 67 18 101
-0.861018 0.465034 0.252802 18 187 160
-0.842556 -0.532421 -0.103915 20 60 114
0.907138 0.0950582 0.40282 243 140 179
0.83305 0.140342 0.52712 234 145 195
-0.260866 -0.189508 -0.951905 94 103 6
0.377618 -0.0835367 0.929615 176 117 246
-0.184703 0.973252 -0.0323472 104 252 123
0.897519 0.449564 0.0942862 242 185 140
-0.319154 0.227326 -0.927651 87 156 9
0.497231 0.498394 -0.716979 191 191 36
-0.662961 0.759455 -0.175184 43 224 105
0.950656 -0.14053 0.281122 249 110 163
0.683952 0.705567 0.213891 215 217 155
-0.096547 0.139756 -0.990686 115 145 1
-0.972153 0.158455 0.199451 4 148 153
0.647051 -0.755354 -0.10944 210 31 114
0.60789 0.782585 -0.169769 205 227 106
-0.0147684 -0.696365 -0.724984 126 39 35
0.833403 -0.55511 -0.0508496 234 57 121
-0.487227 -0.588305 -0.650904 65 52 45
-0.432063 -0.900972 -0.0567467 72 13 120
0.572224 0.782257 0.250804 200 227 159
-0.30421 -0.742311 -0.611612 89 33 50
-0.0649044 -0.946735 -0.334646 119 7 85
0.842748 0.110228 -0.525541 235 142 60
0.80574 0.310512 -0.508494 230 167 63
-0.329234 0.501985 -0.805823 86 192 25
0.0230721 -0.310903 0.950987 130 88 249
-0.319477 0.178671 -0.932147 87 150 9
0.316592 0.325026 0.893301 168 169 241
0.831456 -0.43941 -0.329195 234 71 86
-0.109669 -0.195053 0.977015 114 103 252
-0.140466 0.733248 -0.671872 110 221 42
-0.796735 -0.539701 -0.291288 26 59 90
0.247094 0.956638 0.157479 159 249 148
0.320558 0.929097 0.221035 168 246 156
-0.516025 0.0548745 0.879844 62 134 240
0.485924 -0.660085 0.579587 189 43 201
0.268333 -0.948355 0.174004 162 7 150
0.408997 -0.474679 0.786156 180 67 228
0.485767 0.372074 0.795045 189 175 229
0.00977871 -0.527185 0.840106 129 60 235
0.0747136 -0.965173 0.253773 137 4 160
0.5206 -0.540202 0.657064 194 59 211
0.535914 0.642475 -0.556383 196 209 57
-0.873561 -0.344193 0.362801 16 84 174
-0.875516 0.36533 -0.336492 16 174 85
0.803124 -0.599121 -0.0927036 230 51 116
-0.757783 -0.582969 -0.310435 31 53 88
0.944356 -0.218084 -0.252212 248 100 95
0.926932 -0.372145 0.0394456 246 80 133
0.201906 0.94027 -0.306507 153 247 88
-0.20891 -0.956528 -0.235265 101 6 98
0.845911 0.257805 -0.47097 235 160 67
-0.926006 -0.197787 0.340264 9 102 171
0.17078 -0.876097 -0.449814 149 16 70
-0.29489 0.8903 -0.362791 90 241 81
0.839191 -0.278231 -0.453568 234 92 70
-0.522247 0.832119 -0.233661 61 234 98
0.365253 0.0571885 0.934345 174 135 247
0.178317 -0.429105 0.887355 150 73 241
0.924187 0.170665 -0.353354 245 149 82
-0.351364 -0.92552 0.159521 83 9 148
0.81775 0.592407 0.0469291 232 203 133
-0.809039 0.179455 0.562237 24 150 199
-0.659639 0.764609 0.140877 43 225 145
0.404997 0.542485 -0.746 179 197 32
0.456105 0.0136483 -0.898634 186 129 13
-0.487277 -0.407997 -0.781347 65 75 28
-0.256616 -0.138816 -0.959635 95 110 5
-0.0926566 -0.845178 -0.54249 116 20 58
-0.984527 0.148988 0.135077 2 146 145
0.85878 -0.274335 0.429406 237 93 182
-0.972141 -0.16787 0.196653 4 106 153
0.984454 -0.127747 -0.126006 253 111 111
-0.602626 -0.773994 -0.114966 51 29 113
0.733765 -0.405584 -0.529325 221 76 60
-0.0355047 -0.9118 -0.425289 123 11 73
0.597441 0.429035 0.676814 204 182 214
0.821122 -0.177952 0.533074 232 105 195
-0.931261 0.376233 -0.0825539 9 175 117
0.616395 -0.24296 0.755855 206 97 224
0.363289 -0.781401 -0.514752 174 28 62
0.618581 -0.0187679 0.792951 206 125 229
-0.695303 -0.22082 -0.693774 39 99 39
-0.575593 -0.508413 -0.654209 54 63 44
-0.248209 0.729981 0.628407 96 221 208
0.725315 0.660982 0.215532 220 212 155
-0.305144 0.451566 -0.842228 89 185 20
-0.604199 0.814359 -0.0405259 50 231 122
-0.727072 0.291288 -0.628826 35 165 47
0.167231 0.275108 -0.949648 149 163 6
0.786095 -0.311188 -0.521137 228 88 61
-0.00971469 0.852061 -0.53585 126 236 59
0.0653881 0.0785176 0.991948 136 138 254
-0.398715 0.380309 0.839526 77 176 235
-0.658142 0.397046 0.650706 44 178 210
-0.673791 0.695888 -0.305776 42 216 89
0.832854 0.204868 -0.514396 234 154 62
-0.773565 -0.487432 0.423731 29 65 182
0.58009 0.727601 0.362339 201 220 174
0.401553 0.224139 0.897157 179 156 242
0.186909 0.984505 0.0373729 151 253 132
0.178564 0.972608 -0.18154 150 252 104
0.459777 0.507628 -0.73135 186 192 34
0.48169 0.751884 -0.466102 189 223 68
0.870151 0.0904388 -0.481969 238 139 66
0.913394 -0.144964 -0.374396 244 109 80
-0.919877 -0.29772 0.279579 10 90 163
-0.303487 -0.106663 -0.950981 89 114 6
0.208481 -0.311912 0.928159 154 88 246
-0.144006 -0.388529 0.914499 109 78 244
-0.374546 -0.922047 -0.133387 80 10 110
-0.308107 0.606046 0.722475 88 205 220
0.848688 -0.497448 0.217345 236 64 155
0.152249 0.229269 0.959357 147 157 250
-0.0549805 0.175957 0.980242 120 150 252
-0.778389 -0.358869 -0.518207 28 82 61
0.327126 0.356802 -0.879501 169 173 15
-0.243967 0.810951 -0.54219 96 231 58
0.281739 -0.529449 -0.802669 163 60 25
-0.0841752 0.642942 -0.767346 117 209 30
0.533666 -0.171632 0.836495 196 106 234
0.412956 -0.907301 -0.01551 180 12 126
0.699178 -0.294824 0.653331 217 90 211
0.123172 -0.884301 -0.466154 143 15 68
-0.366445 0.685754 0.624226 81 215 207
0.397876 0.910854 -0.188999 178 244 103
0.87791 -0.250818 0.405529 239 96 179
0.877977 0.347605 -0.351449 239 172 83
-0.433355 -0.570022 0.719418 72 55 219
-0.80227 0.412815 -0.438278 25 180 72
-0.500099 0.0441677 -0.874823 64 133 16
0.323477 -0.892977 -0.320403 169 14 87
-0.339227 -0.941383 -0.0746351 84 7 118
-0.591309 -0.56485 0.584599 52 55 202
-0.310888 -0.876029 -0.391461 88 16 78
-0.893955 0.0861907 0.451832 14 138 185
0.923943 0.393072 -0.0712345 245 178 118
-0.898216 -0.365412 0.267536 13 81 162
0.690726 -0.465412 0.552057 216 68 198
0.365387 0.720444 -0.603357 174 219 51
-0.876572 -0.232718 -0.422359 16 98 74
0.495692 0.0577858 -0.878017 191 135 16
-0.822371 0.389475 0.428966 23 177 182
0.699224 0.593432 -0.418777 217 203 74
0.676801 -0.277821 -0.690752 214 92 39
-0.708289 -0.69868 0.102223 37 38 141
0.303014 0.0643155 -0.958527 166 136 5
-0.642965 0.229618 0.7435 46 157 222
-0.813609 -0.38985 -0.438077 24 78 72
-0.410291 0.155044 -0.907427 75 147 12
-0.25536 -0.600773 -0.759995 95 51 31
0.553255 0.423003 0.718319 198 181 219
0.0841826 0.664376 0.724029 138 212 220
-0.810942 0.545652 -0.24364 24 197 96
-0.790764 -0.308531 0.543065 27 88 197
0.0647405 -0.493526 -0.86952 136 65 17
0.587428 0.569466 0.570043 202 200 200
-0.381085 -0.889435 0.278058 79 14 163
0.0515988 0.995801 -0.00140506 134 254 127
0.510792 0.550453 0.657943 193 198 211
0.81118 -0.244874 0.52275 231 96 194
-0.846298 -0.49888 -0.202041 20 64 102
-0.605161 -0.29523 0.765573 50 90 225
0.350554 0.694274 -0.643369 172 216 45
-0.775225 0.222573 0.603253 29 156 204
-0.798163 -0.599469 0.0657048 26 51 136
0.518687 0.0250094 0.862574 194 131 237
0.701864 -0.708845 0.0726069 217 37 137
0.29307 0.0885041 0.954742 165 139 249
0.589869 0.811745 0.0922037 203 231 139
0.907594 0.408874 -0.169583 243 180 106
-0.229094 0.941012 -0.241252 98 247 97
-0.741483 0.319743 0.603082 33 168 204
-0.595752 -0.0159093 -0.812591 52 125 24
0.67556 -0.173733 -0.726289 214 105 35
0.0637207 0.938197 0.326261 136 247 169
0.413995 0.852659 0.331965 180 236 170
-0.426674 0.872681 -0.272295 73 239 93
0.594704 0.493226 -0.635822 203 190 46
0.962997 -0.263179 0.0309617 250 94 131
-0.413138 0.818874 -0.419954 75 232 74
-0.646692 0.17055 0.769453 45 149 226
-0.0981953 0.248268 -0.968441 115 159 4
-0.863546 0.362007 -0.365259 17 174 81
-0.396313 -0.859581 -0.343179 77 18 84
0.00758194 0.956531 -0.301736 128 249 89
-0.246186 -0.892026 -0.387678 96 14 78
-0.384954 0.291477 -0.882314 78 165 15
0.046847 0.748816 0.641892 133 223 209
0.777665 0.00684865 0.625228 227 128 207
-0.0639631 -0.104439 0.995324 119 114 254
-0.447053 -0.455367 -0.778237 71 69 28
-0.762428 0.419903 -0.497999 30 181 64
-0.0120038 0.569707 -0.82303 126 200 23
-0.188776 -0.810564 -0.568817 103 24 55
-0.314902 -0.794552 -0.53575 87 26 59
0.338016 -0.683424 -0.65164 171 40 44
0.913803 0.334902 0.247511 244 170 159
0.359614 0.303947 -0.887389 173 166 14
0.099577 -0.664542 -0.743085 140 43 33
-0.0302431 0.980406 -0.193722 124 253 103
0.741556 0.35269 0.551815 222 172 198
0.620764 0.695428 0.364702 207 216 174
0.526497 -0.269204 -0.810535 195 93 24
-0.416025 -0.751676 0.537509 74 32 196
0.06899 -0.0168572 0.995516 136 125 254
0.463737 0.435061 0.772325 187 183 226
0.931128 -0.084984 -0.354052 246 117 82
-0.794278 -0.556447 -0.264997 26 57 94
0.0083124 -0.971143 0.236004 129 4 158
-0.230003 0.923485 -0.304028 98 245 89
-0.0693483 -0.420424 0.907452 119 74 243
0.631568 -0.663046 0.404765 208 43 179
-0.0881877 0.75529 -0.664465 116 224 43
0.8094 0.587026 -0.153264 231 202 108
0.293466 -0.953997 -0.00766588 165 6 127
0.23356 -0.148502 -0.964209 157 109 5
-0.0263407 -0.212415 -0.976964 124 100 3
0.00603284 -0.329637 -0.944774 128 85 7
0.902182 -0.428649 0.0551304 243 73 135
0.793516 0.298367 0.520146 229 166 194
0.587871 -0.406973 0.705029 202 76 217
0.966538 -0.143327 0.225604 251 109 156
0.784999 -0.343215 0.510067 228 84 193
0.931522 -0.350537 -0.114165 246 83 113
-0.557691 -0.823948 0.0703719 56 22 136
0.465226 0.836532 0.299483 187 234 166
-0.367564 0.932138 0.00292446 81 246 128
-0.192761 -0.976067 0.0430212 103 3 133
0.173854 -0.944885 0.28746 150 7 164
0.921503 -0.00360018 0.383926 245 127 176
-0.302845 0.939547 -0.164798 89 247 106
0.995344 0.108537 -0.0271491 254 141 124
0.541025 0.200231 -0.826969 196 153 22
-0.376528 0.0909716 0.936419 79 139 247
0.588073 0.818886 -0.0256112 202 232 124
-0.576381 -0.716502 0.406282 54 36 179
0.428382 0.431345 0.793706 182 182 229
-0.172402 0.69275 -0.702433 106 216 38
-0.534081 -0.0526833 -0.853014 59 121 19
-0.594692 -0.455219 -0.676163 52 69 41
-0.361593 -0.605302 -0.702936 81 50 38
0.786862 -0.263593 -0.544222 228 94 58
-0.656377 -0.477162 -0.599494 44 67 51
-0.590749 0.81587 0.115632 52 232 142
-0.0407112 -0.359785 -0.933307 122 82 9
0.779491 -0.620006 0.106923 227 48 141
0.579974 0.679438 -0.456645 201 214 69
-0.881935 0.492003 -0.0444614 15 190 122
-0.664264 -0.375237 -0.658444 43 80 44
-0.761962 0.577061 -0.325351 30 201 86
0.00923462 -0.995938 -0.0410482 129 1 122
0.585003 0.790113 -0.226724 202 228 99
0.0837658 0.42926 -0.902359 138 182 12
-0.297099 -0.011894 -0.95849 90 126 5
-0.636446 -0.634973 -0.451544 46 47 70
-0.820385 0.491589 0.3234 23 190 169
0.793721 -0.0793373 0.583195 229 117 202
-0.604118 0.404578 0.698089 50 179 217
0.43749 0.818236 0.3839 183 232 176
0.220522 -0.431135 -0.87901 156 73 15
0.625668 0.781503 0.0682489 207 227 136
-0.910613 -0.309715 -0.286946 11 88 91
-0.243444 -0.775916 -0.599357 96 29 51
0.584486 0.698359 0.405489 202 217 179
0.817908 -0.498749 0.30749 232 64 167
0.954787 0.286119 0.148809 249 164 146
-0.648742 0.534823 -0.552472 45 196 57
0.927557 -0.369614 -0.0622901 246 80 120
0.764373 -0.264667 0.581794 225 94 202
-0.0971056 -0.225436 0.972782 115 99 252
-0.581733 -0.680212 -0.458343 53 41 69
0.982148 -0.166319 0.0790893 253 106 138
0.935542 -0.148578 -0.320513 247 109 87
0.170069 0.532718 -0.822871 149 195 23
0.859063 0.508934 -0.154266 237 192 108
-0.739957 0.0691741 -0.679368 33 136 41
-0.891449 -0.369004 -0.278785 14 80 92
0.507566 0.20028 0.849112 192 153 236
-0.277053 0.68667 0.662103 92 215 212
-0.142636 0.378991 0.908604 109 176 243
-0.340609 0.938928 0.0602933 84 247 135
0.18118 0.897794 0.402385 151 242 179
0.0879885 0.982976 0.141494 139 253 146
0.615311 0.102457 0.788735 206 141 228
0.388043 0.358887 -0.853349 177 173 19
-0.463295 0.879618 -0.168132 68 240 106
0.403086 0.748008 0.536714 179 223 196
0.496767 0.295588 -0.822022 191 165 23
-0.734158 -0.486752 0.493603 34 65 190
0.173899 0.40623 0.890471 150 179 241
0.214871 0.414484 0.878435 155 180 240
-0.66291 -0.61924 -0.433801 43 49 72
-0.678941 -0.652826 0.351646 41 44 172
0.293293 -0.0543854 -0.959096 165 121 5
0.908014 -0.419122 -0.025401 243 74 124
-0.797777 -0.0135341 0.622098 26 126 207
-0.20058 0.923195 0.286922 102 245 164
0.89289 0.069619 0.435036 241 136 183
0.665552 -0.718956 0.21321 212 36 155
-0.841517 0.48994 -0.242429 20 190 97
-0.0538543 0.49191 -0.874691 121 190 16
0.551217 0.844289 -0.00423289 198 235 127
-0.948252 -0.168743 0.292464 7 106 165
-0.0615569 -0.967067 -0.264654 120 4 94
0.299393 -0.950371 -0.0685334 166 6 119
-0.723062 -0.380112 -0.583752 35 79 53
-0.244746 0.96104 -0.057682 96 250 120
-0.600325 0.360974 0.728343 51 174 220
0.566754 0.443823 0.693612 200 184 216
0.257019 0.749407 -0.629481 160 223 47
-0.469633 -0.747997 0.493007 68 32 190
-0.506837 0.571219 0.648408 63 200 210
-0.159463 0.524903 -0.834356 107 194 21
-0.865911 -0.443503 0.222409 17 71 156
-0.293924 0.910894 -0.304219 90 244 89
0.943769 -0.0415 -0.331734 248 122 85
0.887813 -0.194021 -0.40741 241 103 76
0.0243209 -0.357888 -0.934727 131 82 8
-0.258465 0.0431982 0.972385 95 133 251
0.807929 0.602647 -0.0605778 231 204 120
0.940195 0.0457234 0.338242 247 133 171
-0.317815 -0.950547 -0.028461 87 6 124
-0.158687 0.824853 -0.547103 107 233 58
0.945274 0.17588 -0.296807 248 150 90
-0.6404 -0.518803 -0.578753 46 61 54
0.474362 0.597419 0.644837 188 204 210
-0.329421 -0.926971 0.199907 85 9 153
-0.0206132 -0.996271 -0.0302367 125 0 124
0.573015 -0.803508 0.12166 201 25 143
0.836579 -0.352393 -0.404646 234 83 76
-0.653065 -0.362919 0.689064 44 81 215
0.632312 0.766383 0.167751 208 225 149
0.989034 0.108911 0.131186 254 141 144
-0.759237 -0.493596 -0.43432 31 65 72
-0.354239 0.549895 -0.754436 82 198 31
-0.479757 -0.467437 -0.751954 66 68 32
-0.989783 0.101456 -0.113742 1 140 113
0.800939 0.560175 -0.267906 230 199 93
-0.194741 -0.688012 0.709715 103 40 218
0.55888 0.617482 -0.560529 199 206 56
0.171044 -0.137275 -0.976088 149 110 3
0.233356 -0.0459839 0.973747 157 122 252
-0.477368 -0.877264 -0.0175317 67 16 125
-0.396547 -0.879254 -0.286739 77 15 91
-0.468676 0.304715 -0.838702 68 166 21
-0.50749 -0.729691 0.481335 63 34 189
-0.606408 -0.408078 0.706527 50 75 218
-0.783268 -0.0389016 -0.61959 28 123 49
-0.0639904 -0.307721 -0.947397 119 88 7
-0.862914 0.257661 0.446944 17 160 184
-0.762535 -0.595158 -0.27401 30 52 93
-0.731884 0.230068 -0.654427 34 157 44
-0.348109 0.853295 -0.408025 83 236 75
-0.317232 0.396584 0.862592 87 178 237
-0.07313 0.984165 -0.148405 118 253 109
-0.928862 -0.247158 0.298832 9 96 166
-0.741047 -0.040119 -0.675224 33 122 41
-0.462018 0.893486 -0.0419702 69 241 122
0.662947 -0.569207 0.485669 212 55 189
-0.768211 0.036084 -0.642497 30 132 46
0.71884 -0.699641 -0.0287756 219 38 124
0.988687 0.165809 0.0120736 254 149 129
-0.203962 -0.897445 -0.412208 101 13 75
0.776035 0.132225 -0.617703 226 144 49
0.67685 -0.488351 -0.531291 214 65 60
-0.785967 0.304156 -0.536469 27 166 59
-0.547548 -0.624361 -0.56992 58 48 55
0.311334 0.0268041 0.953693 167 131 249
-0.603376 0.781398 0.250093 51 227 159
0.725067 -0.593636 0.359124 220 52 173
-0.976507 -0.0896244 -0.203497 3 116 102
-0.949826 0.158834 0.298154 6 148 166
-0.0193946 0.836202 -0.560959 125 234 56
-0.201342 -0.747114 -0.641828 102 32 46
0.999649 0.0172541 0.0325299 255 130 132
0.608368 -0.282146 0.748444 205 92 223
-0.810603 -0.0955661 -0.56833 24 115 55
0.789194 -0.433072 -0.419299 228 72 74
0.732717 -0.430018 0.524103 221 73 194
-0.124371 -0.299573 -0.943439 112 89 7
0.980979 -0.175764 -0.0724573 253 105 118
0.393787 -0.866376 0.313595 178 17 167
-0.680893 -0.635569 0.380801 41 46 176
-0.0218423 -0.98263 -0.192818 125 2 103
0.297981 0.874244 0.399125 165 239 178
-0.574353 0.705372 -0.433987 54 217 72
-0.84955 -0.460556 0.285143 19 69 164
-0.224878 0.899921 -0.373184 99 242 80
-0.521693 0.392628 -0.768367 61 178 30
0.840356 -0.307997 -0.431729 235 88 72
-0.584058 0.801261 -0.211012 53 230 101
-0.17767 0.37858 0.903923 105 176 243
0.952712 -0.288744 0.0942987 249 91 140
-0.980801 -0.0994409 0.197942 2 115 153
-0.862499 0.449809 -0.266834 18 185 93
0.860835 0.456599 0.244062 237 186 159
-0.419765 0.0414987 0.925681 74 133 246
-0.519181 -0.591875 -0.616905 61 52 49
0.585183 0.601186 0.522975 202 204 194
0.540711 0.228733 0.815831 196 157 232
0.794859 -0.579887 0.21716 229 54 155
-0.2971 0.358641 0.886603 90 173 241
0.585156 0.323489 0.748857 202 169 223
-0.0775453 -0.683598 -0.735137 118 40 34
0.850674 -0.461951 0.269981 236 69 162
-0.797049 -0.203598 0.577051 26 102 201
0.322144 -0.10155 -0.947291 169 115 7
0.0870362 -0.885183 -0.471223 139 15 67
-0.246471 0.464323 -0.854512 96 187 19
-0.786742 -0.612211 -0.109367 27 49 114
0.798506 -0.418171 0.433846 229 74 183
0.0310964 0.987266 0.124776 131 253 143
0.417412 0.68748 0.601178 181 215 204
-0.358698 0.912687 0.226691 82 244 156
0.538176 0.779401 -0.341991 196 227 84
-0.700357 -0.0730145 0.749085 38 118 223
0.119242 0.959526 0.246049 143 250 159
-0.480557 0.315723 0.831663 66 168 234
-0.771828 0.102587 -0.631395 29 141 47
0.361114 -0.924313 0.0942207 174 10 140
-0.580952 0.528209 0.627718 53 195 208
0.10057 -0.048589 -0.991914 140 121 1
0.567166 0.124277 0.822325 200 143 232
-0.263013 0.959466 0.00585923 94 250 128
-0.367975 -0.842633 0.422352 81 20 181
-0.798967 0.483383 0.380159 26 189 176
0.0508 -0.386078 0.922116 134 78 245
0.555085 -0.618566 0.552863 198 49 198
-0.589676 0.31644 -0.756604 52 168 31
-0.0826906 -0.30932 0.949744 117 88 249
0.379872 0.933898 -0.0891051 176 247 116
-0.217118 0.422857 0.875539 100 181 239
0.888908 -0.45987 -0.0110089 241 69 126
-0.656724 0.217766 -0.739035 44 155 33
0.112331 0.905246 0.399677 142 243 178
0.287552 -0.711484 0.655387 164 37 211
-0.0695837 0.479806 0.863015 119 189 238
-0.874428 0.397346 -0.306917 16 178 88
-0.266261 -0.459371 -0.852547 94 69 19
0.905476 -0.292728 -0.303684 243 90 89
0.272502 0.830734 -0.507508 162 233 63
0.317639 -0.313087 0.898564 168 88 242
-0.280999 -0.959084 -0.0682483 92 5 119
0.366848 0.461354 0.805826 174 186 230
0.165544 -0.364152 -0.920657 149 81 10
0.0555959 -0.17539 0.977357 135 105 252
0.643782 -0.487602 0.592215 210 65 203
0.0505988 0.560182 0.812428 134 199 231
0.373473 -0.875402 -0.311964 175 16 88
0.675423 0.434508 0.591513 214 183 203
-0.125512 -0.990865 -0.0520126 111 1 121
-0.254221 0.778751 -0.585681 95 227 53
0.013885 -0.863277 0.525257 129 17 194
-0.848173 -0.203936 0.50034 19 101 191
0.415815 0.648419 0.642166 181 210 209
-0.599215 -0.748589 -0.270777 51 32 93
-0.431348 -0.290104 -0.86367 73 91 17
0.696564 0.633549 0.333149 216 208 170
0.114157 0.115392 -0.991414 142 142 1
0.137992 0.622151 0.741605 145 207 222
0.711038 -0.374963 -0.590709 218 80 52
-0.991612 -0.0574448 -0.117134 1 120 113
0.0153289 0.979569 -0.204402 129 252 101
-0.17961 -0.666392 -0.726206 105 43 35
-0.670184 0.569748 0.490673 42 200 190
0.479951 0.161479 -0.872823 189 148 16
-0.504131 0.871855 0.0294807 63 239 131
-0.743127 0.426752 -0.520927 33 182 61
0.686952 -0.727187 0.02474 215 35 131
-0.192215 -0.13869 0.978245 103 110 252
0.111157 -0.987316 -0.087392 142 2 116
-0.259595 0.805656 0.528459 94 230 195
0.781755 -0.230927 0.57307 227 98 201
-0.228959 0.479972 0.840658 98 189 235
0.636574 0.75158 -0.200971 209 223 102
0.228652 -0.34018 -0.918637 157 84 10
-0.811415 -0.582922 -0.0375591 24 53 123
0.446011 0.674017 -0.602151 184 213 51
0.357716 0.575725 -0.74837 173 201 32
-0.713767 -0.150841 -0.691567 36 108 39
-0.258525 -0.418596 0.879549 95 74 240
-0.769099 -0.421335 -0.487042 29 74 65
-0.409339 0.914574 -0.080256 75 244 117
0.894905 0.35256 -0.307225 242 172 88
-0.885869 0.36206 0.317135 15 174 168
0.455323 0.877846 -0.206241 186 239 101
0.166653 0.95595 0.242616 149 249 158
0.252044 -0.281981 0.927962 160 92 246
-0.110919 0.297123 0.931718 113 165 246
-0.750762 -0.644045 -0.160872 32 45 107
0.298713 0.416646 -0.86353 166 181 17
0.883758 0.482607 -0.0402361 240 189 122
0.284494 -0.228152 0.935264 164 98 247
-0.776545 0.609608 -0.224768 28 205 99
0.0259998 0.618623 -0.789943 131 206 27
0.543439 0.847865 0.0313786 197 236 132
0.767415 -0.21767 -0.595526 225 100 52
0.349126 -0.0265189 0.942222 172 124 248
-0.79569 -0.102232 0.588176 26 114 202
-0.358716 -0.348569 0.880726 82 83 240
0.522486 0.734861 -0.446197 194 221 71
0.0360532 0.920976 0.373574 132 245 175
0.694286 -0.214687 -0.696225 216 100 39
0.168565 0.966269 -0.222689 149 251 99
-0.818823 0.596774 -0.050832 23 204 121
-0.213841 -0.961356 -0.204913 100 5 101
-0.0536583 -0.812355 -0.594315 121 24 52
-0.476757 -0.554357 -0.69278 67 57 39
-0.995305 -0.08729 0.0568521 1 116 135
0.905163 0.0341469 0.415735 243 132 181
0.204395 0.518555 0.820591 154 194 232
-0.243928 0.0984706 0.970779 96 140 251
0.331251 -0.612822 -0.717527 170 49 36
0.683523 -0.534872 -0.48495 215 59 66
-0.0557305 -0.151206 -0.984882 120 108 2
0.997893 -0.0436602 0.036637 255 122 132
-0.618769 0.393841 -0.69186 49 178 39
-0.918793 0.414886 -0.0138365 10 180 126
-0.904684 -0.423918 -0.0437768 12 73 122
0.884675 0.138009 0.434888 240 145 183
0.410965 -0.894029 -0.175384 180 14 105
-0.0986631 -0.693766 0.728845 115 39 220
0.0674667 0.838282 0.524837 136 234 194
-0.69504 0.490948 -0.53292 39 190 60
-0.793204 -0.162839 0.586534 26 107 202
0.385598 -0.193019 0.909647 177 103 243
-0.288257 -0.844463 -0.471262 91 20 67
0.0719382 -0.977234 0.191829 137 3 152
-0.101619 0.468015 0.867682 115 187 238
-0.192473 -0.707769 -0.687036 103 37 40
-0.230672 -0.157278 0.959578 98 107 250
-0.673637 -0.0753369 -0.744079 42 118 33
0.143643 0.192278 0.968357 146 152 251
-0.873026 0.506049 -0.0712449 16 192 118
0.899509 0.0507121 -0.431788 242 134 72
0.212654 0.843701 -0.511036 155 235 62
-0.215329 0.607916 -0.771053 100 205 29
0.986844 -0.151163 -0.0211187 253 108 125
0.410522 -0.261813 0.880646 180 94 240
-0.765107 -0.548513 -0.351083 30 58 83
0.325079 0.427563 0.840655 169 182 235
0.0559132 0.986132 -0.158934 135 253 107
-0.988589 -0.0496242 -0.147583 1 121 109
-0.20907 0.0830153 0.978228 101 138 252
0.286974 0.936962 -0.25081 164 247 96
0.0167555 0.943927 0.314482 130 248 168
0.459472 -0.0422978 0.894394 186 122 242
-0.800101 -0.592678 0.116918 25 52 142
-0.570267 0.240664 0.802142 55 158 230
-0.314788 0.808948 -0.509912 87 231 62
0.71697 -0.110747 0.689075 219 113 215
0.401014 0.674034 0.62603 179 213 207
0.469779 -0.854119 0.210948 187 19 154
0.355184 -0.112843 0.935156 173 113 247
0.125445 -0.417245 -0.902595 143 74 12
0.00164303 -0.556431 0.832535 128 57 234
-0.0271927 0.13093 0.98792 124 144 253
-0.349027 -0.119066 -0.935433 83 112 8
-0.868177 0.307648 -0.396297 17 167 77
-0.0857718 -0.992834 0.05039 117 1 134
0.0380276 0.724735 0.667918 132 220 213
0.245283 0.727848 0.643805 159 220 210
-0.50606 -0.663102 -0.566414 63 43 55
-0.552251 -0.702751 0.468993 57 38 187
-0.912948 0.411659 -0.1283 11 180 111
0.642658 0.205859 -0.746031 209 154 32
-0.962278 0.28345 0.0415479 5 164 133
0.300748 0.777274 0.560634 166 227 199
-0.391706 0.715986 0.579237 78 219 201
-0.318198 0.935321 0.165899 87 247 149
0.60044 -0.645189 -0.471544 204 45 67
-0.892681 -0.020806 -0.445912 14 125 71
0.752732 -0.513419 0.416387 223 62 181
-0.662097 0.473593 -0.590451 43 188 52
0.383503 0.62904 0.673386 176 208 213
-0.746983 0.683195 0.107409 32 215 141
0.762305 0.52251 -0.402375 225 194 76
0.357949 -0.2921 0.891996 173 90 241
-0.357767 -0.813982 -0.47379 82 24 67
-0.493336 -0.178266 -0.862303 65 105 18
-0.0478614 -0.196704 0.980309 121 102 252
0.406363 -0.555856 0.727953 179 57 220
-0.358375 0.815303 -0.471083 82 231 67
-0.774684 0.381162 0.514095 29 176 193
0.173207 -0.901759 -0.398222 150 13 77
-0.664826 0.0996621 0.76763 43 140 225
0.735311 -0.282584 -0.621312 221 91 48
0.638187 0.441072 0.627639 209 184 208
-0.791643 0.421428 0.455104 27 181 186
-0.0502972 0.72079 -0.701365 121 219 38
0.374234 0.905756 -0.251969 175 243 95
0.68369 0.707707 -0.215508 215 218 100
-0.893506 -0.114718 -0.431871 14 113 72
0.379696 0.93708 -0.0259249 176 247 124
0.162771 0.901636 -0.420437 148 242 74
-0.0384921 -0.994771 -0.0908008 123 1 116
0.394928 -0.879821 0.266546 178 15 161
0.0488398 0.658653 0.72993 134 211 221
0.83947 0.502802 -0.246846 235 192 96
-0.224929 0.280583 0.930023 99 163 246
0.656543 -0.247901 -0.710781 211 96 37
-0.122965 -0.777362 0.638012 112 28 209
0.693102 0.563661 -0.463946 216 199 68
-0.780115 0.348885 0.528089 28 172 195
-0.848928 0.550957 -0.0425138 19 198 122
-0.999825 0.0180956 0.017047 0 130 130
0.458464 0.737879 0.502896 186 222 192
0.572243 -0.702742 -0.419583 200 38 74
0.939726 0.016102 -0.346307 247 130 83
0.143975 -0.24508 0.959553 146 96 250
-0.304601 0.639346 0.689059 89 209 215
0.728721 0.562181 -0.411163 220 199 75
0.826054 -0.514312 -0.2367 233 62 97
-0.640722 -0.288722 -0.722797 46 91 35
-0.565056 0.814982 0.172835 55 231 150
0.630066 0.277759 0.732654 208 163 221
-0.469724 0.790638 -0.415597 68 228 75
0.435761 0.79295 -0.445764 183 229 71
0.743615 -0.665802 0.0745329 222 43 137
-0.856194 0.34644 0.399001 18 172 178
0.0618232 -0.327833 -0.94336 135 86 7
-0.0340641 0.971589 0.212116 123 251 155
0.963428 0.269749 -0.0947888 250 162 115
-0.815224 0.341389 0.478435 24 171 189
0.856363 -0.0554565 0.50143 237 120 191
0.577987 0.212834 -0.796783 201 155 26
-0.66779 0.762731 0.0972488 42 225 140
0.704623 0.067567 -0.716905 217 136 36
-0.941532 0.265863 0.219399 7 161 155
0.0681734 0.995267 -0.0274884 136 254 124
0.494511 0.834907 0.252553 191 234 160
-0.78443 -0.61822 -0.049219 27 49 121
-0.6096 0.60549 -0.526747 50 205 60
0.138353 0.971714 0.184702 145 251 151
0.560812 0.81884 -0.184951 199 232 104
-0.624001 0.214321 0.77475 48 155 226
0.509308 0.654287 0.56312 192 211 199
-0.0846047 -0.755576 -0.662473 117 31 43
-0.113861 0.0325341 0.993391 113 132 254
0.175662 0.926939 0.332776 150 246 170
-0.454013 -0.737053 0.525057 70 34 194
-0.0120281 0.729252 0.6631 126 220 212
-0.0482094 0.230211 -0.976222 121 157 3
0.305614 -0.807478 -0.514197 166 25 62
0.340299 0.305972 0.892659 171 167 241
-0.646707 -0.349255 -0.689268 45 83 40
-0.102902 -0.993213 -0.00767503 114 1 127
-0.183483 0.972921 0.0237127 104 252 131
-0.303574 -0.406141 0.873078 89 76 239
0.683097 0.142238 0.723571 215 146 220
-0.630109 -0.617343 0.486679 47 49 190
-0.051638 0.434334 0.889484 121 183 241
0.260103 0.383108 -0.889792 161 176 14
0.456379 0.880932 0.161723 186 240 148
0.840582 -0.524844 -0.150308 235 61 108
0.275853 -0.882313 -0.393372 163 15 77
-0.654423 -0.427171 0.645749 44 73 210
0.301292 0.818035 -0.514086 166 232 62
0.893308 0.263915 0.3602 241 161 173
0.84527 0.0653437 0.519259 235 136 194
0.645414 -0.138703 0.748428 210 110 223
0.88559 -0.359947 0.308088 240 82 167
-0.116354 -0.626373 0.783003 113 48 227
0.0941114 -0.216245 -0.973127 139 100 3
0.250223 -0.845804 0.49597 159 20 191
0.21867 0.900092 0.37498 155 242 175
-0.866341 0.522438 -0.00952483 17 194 126
0.765848 -0.0969985 -0.637661 225 115 46
0.797755 -0.538315 -0.270488 229 59 93
0.100027 -0.62616 -0.766341 140 48 30
-0.130186 0.410043 -0.907959 111 180 12
-0.563796 0.277288 0.795539 56 163 229
0.402535 -0.717685 0.579121 179 36 201
0.32854 0.260803 -0.913659 169 161 11
0.465749 0.0514162 0.889818 187 134 241
-0.508993 -0.832975 -0.232249 63 21 98
0.153025 -0.0121983 -0.988157 147 126 2
0.306062 0.964761 0.0172847 167 251 130
-0.991515 0.0452558 -0.130794 1 133 111
0.88671 -0.389019 -0.252671 241 78 95
-0.163029 0.739092 -0.651953 107 222 44
0.963265 0.110896 0.255321 250 142 160
0.858309 0.358089 0.361807 237 173 174
0.614369 0.444405 0.649902 206 184 210
0.577685 -0.565046 0.586832 201 55 202
0.387559 0.928249 0.0821409 177 246 138
-0.252066 0.954128 -0.138704 95 249 110
-0.470361 0.642177 0.600303 68 209 204
0.180428 -0.365414 0.914102 151 81 244
0.0663025 0.857568 -0.523347 136 237 61
-0.954252 0.0596258 -0.296812 6 135 90
-0.609172 0.677452 -0.442519 50 214 71
0.461883 0.697274 -0.562019 186 216 56
0.40149 0.897206 -0.238911 179 242 97
0.914588 -0.385372 0.140079 244 78 145
0.203223 0.0136715 -0.981236 153 129 2
0.660408 -0.403094 0.632971 212 76 208
0.263834 0.916317 -0.314252 161 244 87
-0.525498 -0.19308 0.85877 60 103 237
-0.413789 -0.026275 0.930588 75 124 246
0.233466 -0.848287 -0.489261 157 19 65
-0.538071 -0.737577 0.426435 59 33 182
-0.540662 -0.819337 0.192568 59 23 152
-0.0561804 0.781014 -0.635737 120 227 46
0.00778858 -0.378843 0.926713 128 79 246
-0.674158 -0.0301552 0.773165 42 124 226
-0.978561 0.21459 -0.0285403 3 155 124
-0.434977 -0.0588852 -0.906206 72 120 12
0.023104 -0.98067 -0.200132 130 2 102
0.852085 -0.178902 0.481885 236 105 189
-0.992879 0.114352 0.0801857 1 142 138
-0.96086 -0.253409 0.147301 5 95 146
0.879934 0.200319 -0.434704 240 153 72
0.0129217 -0.917617 -0.412283 129 11 75
0.109333 -0.0822191 0.991514 141 117 254
0.55546 -0.516716 -0.647477 198 62 45
-0.57201 -0.219588 0.820959 55 100 232
-0.420022 0.739331 0.533607 74 222 196
-0.620458 -0.374632 -0.700929 48 80 38
0.793912 0.188554 0.56255 229 152 199
-0.225011 0.0406827 0.979018 99 133 252
-0.104348 -0.817867 -0.58104 114 23 53
0.733123 -0.686281 -0.0624352 221 40 120
0.79801 -0.605175 0.00899375 229 50 129
-0.157109 -0.95718 0.248142 107 5 159
-0.929013 -0.0211554 0.386134 9 125 177
0.444355 -0.849928 0.285003 184 19 164
-0.719934 0.634084 0.327333 36 208 169
0.461118 -0.677294 0.581331 186 41 202
0.392874 -0.204263 -0.907061 178 101 12
0.0869794 0.926614 0.35378 139 246 173
0.848012 -0.096173 -0.513621 236 115 62
-0.0599431 -0.410712 -0.910716 120 75 11
0.216606 0.175717 -0.963439 155 150 5
-0.19884 -0.317139 0.9334 102 87 247
0.556748 0.369272 0.747818 198 175 223
0.919262 -0.362399 0.179518 245 81 150
0.975664 -0.150778 -0.173864 252 108 105
0.579269 0.370771 -0.732182 201 175 34
0.173513 -0.968179 -0.182482 150 4 104
-0.284168 -0.519002 -0.812339 91 61 24
0.75632 0.42223 -0.50683 224 181 63
0.924878 -0.113087 0.36132 245 113 174
0.532525 -0.400569 -0.7517 195 76 32
0.846964 -0.14711 -0.502399 235 109 63
-0.152397 0.435089 0.880038 108 183 240
0.712164 0.611054 -0.372569 218 205 80
0.432763 -0.0317977 -0.90971 183 123 12
0.0936961 0.46971 0.866706 139 187 238
-0.454512 -0.0726032 0.913761 70 118 244
0.963011 -0.199075 0.202612 250 102 153
-0.531607 0.789206 0.343475 60 228 171
-0.21646 -0.922331 -0.343938 100 10 84
0.625662 -0.771148 -0.0917914 207 29 116
0.935227 -0.317896 0.176032 247 87 150
