ply
format ascii 1.0
comment Created by Open3D
element vertex 1218
property double x
property double y
property double z
property uchar red
property uchar green
property uchar blue
end_header
0.749467 0.622539 -0.280456 223 207 92
-0.189085 -0.774811 -0.611103 103 29 50
-0.138001 -0.60836 -0.785403 110 50 27
-0.365797 0.202173 0.920832 81 153 245
0.178361 -0.0859904 0.982383 150 117 253
0.270437 0.50454 -0.824244 162 192 22
0.518079 -0.836389 -0.164102 194 21 107
0.536797 -0.124135 0.843281 196 112 235
-0.940245 0.146738 -0.314774 8 146 87
-0.660013 -0.0131499 0.78527 43 126 228
-0.154303 -0.875572 -0.477412 108 16 67
0.642156 0.778377 -0.0375601 209 227 123
-0.930067 -0.365778 0.0376813 9 81 132
-0.0763853 0.810155 -0.595608 118 231 52
0.699634 -0.663562 0.286891 217 43 164
0.0985949 0.622318 0.745124 140 207 223
0.354269 -0.0371742 -0.941147 173 123 8
-0.677475 -0.297095 -0.683311 41 90 40
-0.19489 -0.378435 -0.907399 103 79 12
0.0685145 -0.38777 0.920297 136 78 245
0.218654 -0.954022 -0.207368 155 6 101
0.998251 -0.0298161 0.0439273 255 124 133
0.524245 -0.225516 -0.833365 194 99 21
-0.549693 0.762167 -0.359596 57 225 82
0.281792 -0.892012 -0.365183 163 14 81
0.355023 0.741136 0.576854 173 222 201
-0.330678 -0.384156 0.874762 85 79 239
0.418804 -0.849589 0.326487 181 19 169
0.771925 0.449011 -0.460664 226 185 69
-0.813609 -0.38985 -0.438077 24 78 72
-0.0583254 0.908453 -0.421195 120 243 74
0.526423 0.79874 -0.315209 195 229 87
0.652117 -0.497894 -0.558866 211 64 56
-0.71823 0.109832 0.712998 36 142 218
0.83127 0.462168 0.309677 233 186 167
0.703722 0.566783 0.419142 217 200 181
-0.358676 0.247691 0.909897 82 159 244
-0.896876 -0.0230643 0.453571 13 125 185
0.696259 -0.0809129 -0.720775 216 117 36
-0.268307 -0.671608 -0.701525 93 42 38
0.19783 0.441236 0.86804 153 184 238
-0.813646 0.599703 -0.0965046 24 204 115
0.557675 0.653924 0.514729 199 211 193
0.162626 -0.963614 0.206527 148 5 154
0.612682 -0.584941 0.533645 206 53 196
0.642525 -0.269174 0.722462 209 93 220
-0.108604 -0.161333 0.977066 114 107 252
-0.42871 0.675403 0.599837 73 214 204
0.35505 -0.254791 0.905555 173 95 243
0.980243 0.172261 -0.134332 252 149 110
0.0196266 0.110235 -0.997133 130 142 0
0.567166 0.124277 0.822325 200 143 232
-0.0809855 -0.931829 -0.373119 117 9 80
-0.184066 0.445068 0.869911 104 184 238
-0.675187 -0.346642 0.674713 41 83 214
0.534777 0.775068 0.341057 196 226 171
-0.0972936 -0.387976 0.919435 115 78 245
-0.0478816 0.135382 -0.994649 121 145 1
-0.195993 0.952322 0.15195 103 249 147
0.749438 -0.564639 0.358197 223 56 173
0.845957 -0.533755 -0.0706754 235 59 118
-0.533436 0.736926 -0.432869 59 221 72
0.589966 0.588382 0.527969 203 203 195
-0.23182 0.581367 0.768254 98 202 225
-0.791361 -0.567127 -0.250244 27 55 96
0.721144 0.669888 -0.214694 219 213 100
-0.477774 -0.208359 0.880487 67 101 240
-0.639378 0.786439 -0.0982096 46 228 115
-0.621997 0.109517 0.802231 48 141 230
-0.374546 -0.922047 -0.133387 80 10 110
0.777517 -0.629648 0.0401311 227 47 133
-0.620185 0.349684 0.718063 48 172 219
0.209897 -0.921757 0.32865 154 10 169
0.994985 0.0144521 0.112133 254 129 142
-0.96208 -0.019244 -0.243738 5 125 96
0.765696 -0.309428 0.55884 225 88 199
0.770983 0.573154 -0.317466 226 201 87
0.58786 0.525558 -0.61606 202 195 49
0.82357 0.3916 -0.422842 233 177 74
-0.283921 -0.430423 0.866929 91 73 238
-0.638842 0.304051 0.725912 46 166 220
-0.358047 0.879969 0.334485 82 240 170
0.740445 -0.251559 0.616951 222 95 206
0.31255 -0.941426 -0.122269 167 7 112
0.738947 -0.313501 -0.595539 222 88 52
0.747886 0.645099 0.192409 223 210 152
0.134311 0.37606 -0.919162 145 175 10
-0.0698495 -0.0331857 0.9966 119 123 255
0.92561 0.0169427 0.374664 246 130 175
-0.463623 -0.726986 -0.522149 68 35 61
0.610374 0.769039 0.196505 205 226 153
-0.0678364 0.100877 -0.995869 119 140 1
-0.198611 0.875444 0.418528 102 239 181
-0.285051 0.139077 0.955963 91 145 249
-0.606981 -0.534189 -0.605557 50 59 50
0.880794 0.281811 -0.392309 240 163 77
-0.0438717 0.896607 0.423905 122 242 182
0.455209 -0.816539 -0.35385 186 23 82
0.714885 0.506658 0.471224 219 192 188
-0.590598 0.515202 0.629093 52 193 208
0.926282 -0.362726 -0.124089 246 81 112
-0.0988347 -0.830072 -0.564679 115 22 56
-0.452905 0.778326 -0.454394 70 227 70
-0.542154 0.458962 -0.714602 58 186 36
0.521249 -0.623703 0.591172 194 48 203
-0.32018 -0.914723 0.273611 87 11 162
0.588061 -0.381123 0.719486 202 79 219
-0.108364 0.875986 0.453407 114 239 185
-0.822201 -0.514352 -0.266485 23 62 94
0.0419459 -0.994782 -0.0115667 133 1 126
0.102915 0.965408 -0.255869 141 251 95
0.59438 -0.771559 0.211187 203 29 154
0.234676 -0.968652 -0.0710302 157 4 118
-0.73453 0.466889 -0.499046 34 187 64
-0.927424 -0.136176 0.365461 9 110 174
0.628383 0.754752 -0.226242 208 224 99
-0.311597 -0.489531 0.825484 88 65 233
0.00937738 -0.4219 -0.907715 129 74 12
-0.0389637 0.974436 0.19606 123 252 152
-0.682786 -0.554271 0.497514 40 57 191
-0.658509 0.551225 -0.523254 44 198 61
0.855715 -0.23831 -0.447019 237 97 71
-0.618976 0.521591 -0.597715 49 194 51
-0.377056 0.41197 0.832051 79 180 234
-0.676165 0.172141 -0.732693 41 149 34
-0.313716 -0.211637 0.939943 88 101 247
0.553255 0.423003 0.718319 198 181 219
0.64618 0.63768 -0.442489 210 209 71
0.260941 0.442774 -0.863033 161 184 17
-0.731685 -0.181355 -0.657404 34 104 44
0.125503 0.0366759 0.989835 144 132 254
0.996373 0.0937195 0.0340087 255 139 132
-0.142236 -0.318409 0.941211 109 87 248
0.110084 -0.850491 0.537785 142 19 196
0.690726 -0.465412 0.552057 216 68 198
0.800339 -0.0220576 -0.58369 230 125 53
-0.843801 0.331629 0.434505 20 170 183
-0.659178 -0.373186 0.677018 43 80 214
0.924987 0.326 0.19512 245 169 152
0.185065 -0.0652806 -0.981122 151 119 2
-0.8656 -0.243649 0.448867 17 96 185
-0.77889 0.650001 -0.059962 28 210 120
0.0013556 -0.988519 0.102977 128 1 141
-0.765969 -0.134854 -0.634682 30 110 47
-0.643267 -0.517477 0.58526 45 62 202
-0.697995 -0.372022 0.627234 39 80 207
0.827926 0.28387 -0.487301 233 164 65
-0.0980527 0.392145 -0.91902 115 177 10
0.27401 -0.573668 -0.773861 162 54 29
-0.0620043 -0.345908 0.938319 120 83 247
-0.168865 0.631199 -0.761708 106 208 30
-0.202699 0.942869 -0.220863 102 248 99
0.0980583 -0.935643 -0.353268 140 8 82
-0.532934 -0.822209 0.204923 60 23 154
-0.888729 0.389559 -0.273216 14 177 93
-0.474918 -0.877082 -0.072509 67 16 118
0.522454 -0.292768 -0.809385 194 90 24
-0.125231 -0.955847 0.271265 112 6 162
0.503542 -0.564347 0.660446 192 56 212
-0.874428 0.397346 -0.306917 16 178 88
0.0895681 0.940848 -0.342707 139 247 84
0.412186 0.777958 -0.49358 180 227 65
-0.269128 -0.324323 0.91645 93 86 244
0.779445 -0.432239 0.453622 227 72 185
0.5165 0.0922822 0.859513 193 139 237
0.873746 0.136281 -0.466236 239 145 68
0.371667 -0.907589 -0.196056 175 12 103
0.414932 0.385249 0.826558 180 177 233
0.62505 0.728514 0.291925 207 220 165
-0.327981 -0.611896 -0.714283 86 49 36
0.96067 0.133448 -0.249004 250 145 96
-0.441631 -0.444054 0.798517 71 71 229
0.524107 0.624349 0.578815 194 207 201
0.774832 0.64918 0.0190979 226 210 130
-0.37096 -0.430268 0.838157 80 73 234
0.660892 0.692607 -0.330053 212 216 85
-0.396639 -0.910774 -0.144717 77 11 109
0.0805368 0.985671 -0.155077 138 253 108
0.946981 0.310446 -0.144965 248 167 109
0.154062 0.24531 0.954873 147 159 249
-0.417218 -0.0623402 -0.91381 74 120 11
0.645403 0.71956 0.274389 210 219 162
-0.134718 -0.975186 0.166324 110 3 149
-0.235609 -0.912017 0.343756 97 11 171
0.173854 -0.944885 0.28746 150 7 164
-0.0751308 -0.655055 0.76384 118 44 225
0.203215 -0.0793032 0.978415 153 117 252
-0.738904 -0.637167 0.224513 33 46 156
-0.652186 -0.434428 -0.635141 44 72 47
0.392181 0.509807 0.762945 178 193 225
-0.73561 -0.276902 -0.628262 34 92 47
0.144448 -0.188294 -0.972371 146 103 4
-0.657469 -0.680568 0.337446 44 41 171
-0.38918 -0.6387 0.685387 78 46 215
-0.16631 0.971261 0.12462 106 251 143
-0.426531 0.245629 -0.879599 73 159 15
-0.646757 -0.729072 0.193803 45 35 152
0.422643 -0.867932 -0.262111 181 17 94
-0.94447 0.278458 -0.216346 7 163 100
-0.992968 0.100156 -0.0774373 1 140 118
0.991172 -0.00854972 -0.150514 254 126 108
-0.379981 -0.568047 0.747829 79 55 223
-0.190191 -0.875911 0.469488 103 16 187
0.329534 0.0643695 0.946224 170 136 248
0.52164 -0.461037 -0.7198 194 69 36
-0.339919 0.828422 -0.460993 84 233 69
-0.524979 -0.848663 0.00355828 61 19 128
-0.292482 0.187326 0.945261 90 151 248
-0.136524 -0.078108 -0.985875 110 118 2
-0.557957 -0.313608 -0.779769 56 88 28
0.378773 -0.815463 -0.444679 176 24 71
-0.983846 0.177276 -0.067834 2 150 119
-0.617219 0.76591 -0.270009 49 225 93
-0.213668 0.490568 0.837376 100 190 234
-0.8707 0.263682 0.427995 16 161 182
0.252011 -0.868521 0.452225 160 17 185
0.438343 -0.883821 0.145935 183 15 146
0.711956 0.709097 -0.102382 218 218 114
-0.659178 -0.695795 0.297825 43 39 165
-0.561829 0.82397 -0.121581 56 233 112
0.711669 -0.403988 -0.563296 218 76 56
-0.718057 -0.627699 -0.31752 36 47 87
0.393148 0.0638456 -0.927697 178 136 9
-0.531541 0.193399 -0.837838 60 152 21
0.541803 -0.636012 -0.533838 197 46 59
0.185562 -0.287703 -0.940318 151 91 8
0.872682 -0.00911657 0.476181 239 126 188
-0.331908 -0.94524 -0.0359598 85 7 123
-0.550681 0.816738 -0.215559 57 232 100
0.44379 0.90565 0.0154537 184 243 129
-0.957561 0.110044 0.295161 5 142 165
-0.719298 0.256025 0.667501 36 160 213
0.585556 0.815638 -0.0892448 202 231 116
0.153187 -0.783521 0.620007 147 28 207
0.130412 -0.467448 0.876853 144 68 239
0.353294 0.875673 0.341098 173 239 171
-0.872471 0.151079 -0.460013 16 147 69
0.587871 -0.406973 0.705029 202 76 217
0.338658 -0.917541 -0.212638 171 11 100
0.334207 0.371988 -0.87054 170 175 17
-0.223601 -0.301207 -0.928957 99 89 9
-0.168853 -0.98139 -0.112193 106 2 113
0.825083 0.216102 0.512089 233 155 193
0.446765 -0.226311 -0.877615 184 99 16
0.910567 0.428879 0.00472422 244 182 128
0.638992 0.110404 0.767666 209 142 225
-0.935016 0.0343813 0.371476 8 132 175
0.107052 -0.777566 0.639586 141 28 209
0.902879 0.43657 0.110322 243 183 142
-0.589676 0.31644 -0.756604 52 168 31
-0.72317 -0.679736 0.149294 35 41 147
0.429496 -0.880381 0.192022 182 15 152
0.206727 0.101419 0.973025 154 140 252
0.625229 -0.378851 0.686333 207 79 215
-0.49271 -0.0679695 0.896237 65 119 242
-0.214249 -0.518664 -0.833146 100 61 21
-0.497003 -0.427051 0.776792 64 73 227
-0.611833 0.787939 -0.213239 49 228 100
-0.296883 -0.718261 0.653827 90 36 211
-0.249664 0.934929 -0.254862 96 247 95
0.745677 0.0358139 -0.677722 223 132 41
0.321258 -0.603688 -0.730832 168 51 34
0.176702 0.217673 -0.965731 150 155 4
-0.0246819 0.788924 0.593257 124 228 203
0.454375 -0.853799 0.251377 185 19 160
0.75556 -0.0655893 -0.655629 224 119 44
0.0360542 -0.977771 0.197768 132 3 153
-0.568735 -0.717703 -0.415309 55 36 75
0.623745 0.268415 -0.741571 207 162 33
0.753231 -0.657083 -0.113414 224 44 113
0.760666 0.626034 0.20253 224 207 153
0.567992 -0.693528 -0.437746 200 39 72
0.426804 0.718715 -0.564217 182 219 56
-0.62895 0.621772 0.485961 47 207 189
-0.569204 -0.75265 -0.346197 55 32 83
0.0686829 0.995311 -0.000966227 136 254 127
0.415898 -0.883925 -0.212522 181 15 100
-0.0512103 0.970216 -0.240888 121 251 97
-0.784769 0.188031 0.58998 27 151 203
0.95164 0.0869224 0.302059 249 139 166
0.685417 -0.549812 0.476969 215 57 188
-0.178239 0.492797 0.842895 105 190 235
-0.133657 0.212604 -0.973139 110 155 3
0.460219 -0.665285 -0.591664 186 43 52
0.751842 0.522718 -0.419806 223 194 74
0.557052 -0.676026 -0.470306 199 41 68
-0.838891 -0.493415 0.221287 21 65 156
-0.105511 -0.986059 -0.143229 114 2 109
0.539065 0.840509 0.116079 196 235 142
0.235886 -0.787168 -0.581851 158 27 53
-0.612611 -0.0466647 -0.798835 49 122 26
-0.874701 0.488804 -0.146967 16 190 109
-0.829474 -0.312758 -0.465332 22 88 68
0.110639 -0.203621 0.973235 142 102 252
0.24541 0.774848 -0.59732 159 226 51
-0.134343 0.266503 -0.959648 110 161 5
-0.681155 0.456754 -0.580556 41 186 53
0.23215 0.810558 0.542733 157 231 197
-0.717037 -0.666216 -0.229104 36 43 98
-0.0537291 0.992208 0.0440374 121 254 133
-0.575675 0.190905 -0.810451 54 152 24
-0.0431537 0.664231 -0.753083 122 212 31
-0.45335 0.36402 0.822074 70 174 232
-0.75062 -0.388607 0.551402 32 78 198
-0.0282526 0.819479 -0.586083 124 232 53
-0.560615 0.688737 0.470561 56 215 187
-0.367931 -0.0239673 0.946466 81 124 248
0.106483 0.967673 0.215835 141 251 155
0.148359 0.915205 -0.393916 146 244 77
0.292776 0.734141 -0.631856 165 221 47
0.106743 -0.112339 0.990019 141 113 254
-0.68701 -0.58146 -0.447015 40 53 71
0.375297 -0.788169 -0.495169 175 27 64
0.224072 0.789554 0.574251 156 228 201
0.0329497 -0.414026 -0.910839 132 75 11
-0.332241 -0.320531 -0.894184 85 87 13
-0.971636 0.00863652 0.230307 4 129 157
-0.793058 -0.605726 -0.0888457 26 50 116
-0.813821 -0.325657 -0.483713 24 86 66
-0.529423 -0.802467 -0.289571 60 25 91
0.295619 0.614317 0.717716 165 206 219
-0.211689 0.732496 -0.656729 101 221 44
0.924044 -0.361054 0.141941 245 81 146
0.0823971 0.517443 0.838737 138 193 234
0.448928 0.529951 0.716216 185 195 219
0.773015 0.245376 -0.585401 226 159 53
-0.773404 -0.565038 0.308653 29 55 167
0.750616 0.667641 -0.104673 223 213 114
-0.88331 0.27014 0.398696 15 162 178
-0.912057 0.329504 -0.247028 11 170 96
0.613401 -0.792249 -0.0377745 206 26 123
0.698633 -0.509788 0.50089 217 63 191
-0.744148 -0.311046 -0.599256 33 88 51
0.501811 0.696689 0.519026 191 216 194
-0.200534 0.95573 0.104489 102 249 141
-0.0355999 0.927397 -0.381377 123 246 79
0.516947 0.703026 0.493868 193 217 190
0.167631 0.939646 0.298705 149 247 166
-0.77789 -0.585802 0.247072 28 53 159
-0.0640692 -0.586747 0.813387 119 53 231
0.0942849 0.547958 0.818181 140 197 232
-0.996308 0.0817675 -0.0413208 0 138 122
-0.724557 -0.64796 0.252343 35 45 160
0.946534 -0.271317 0.196324 248 93 153
-0.703102 0.731734 -0.105682 38 221 114
-0.669347 -0.672391 -0.334648 42 42 85
0.189254 -0.389697 -0.905367 152 78 12
-0.803969 0.0780829 0.587835 25 137 202
-0.589721 0.603532 -0.550603 52 204 57
-0.0858202 -0.424418 0.904514 117 73 243
0.474563 0.284358 0.841604 188 164 235
-0.0834645 0.464524 0.870879 117 187 239
0.602157 0.576999 -0.545556 204 201 58
0.93043 0.363776 -0.128795 246 174 111
-0.285647 0.259356 -0.928042 91 161 9
-0.0160595 0.521105 -0.847142 125 194 19
0.619279 -0.477384 0.615385 206 67 206
-0.68617 -0.717131 0.139892 40 36 145
-0.0509234 0.605795 -0.797958 121 205 26
-0.677057 -0.465233 -0.579431 41 68 54
-0.772483 0.316282 0.552559 29 168 198
0.179053 -0.288526 0.941148 150 91 247
0.491484 0.616403 -0.624837 190 206 48
-0.856323 -0.232561 -0.4607 18 98 69
-0.436617 0.736326 -0.532039 72 221 60
-0.876273 -0.176373 -0.44682 16 105 71
-0.355131 0.542665 0.756277 82 197 224
0.358406 -0.292968 -0.887582 173 90 14
0.223785 -0.903333 -0.380377 156 12 79
0.460579 0.852271 -0.282519 186 236 91
0.968207 -0.053215 -0.224301 251 121 99
-0.700707 0.398479 -0.594332 38 178 52
-0.764846 -0.417276 0.508518 30 74 192
0.316915 0.471068 -0.831627 168 188 21
-0.179605 0.496092 -0.854944 105 191 18
0.482042 -0.870371 0.0379914 189 17 132
-0.867063 0.15593 0.483426 17 147 189
-0.900308 0.409834 -0.210623 13 180 101
0.205755 0.923212 0.330179 154 245 170
-0.632968 -0.353411 -0.700129 47 82 38
0.521286 0.141275 0.850795 194 146 236
-0.993637 -0.0329851 -0.109898 1 123 113
-0.567418 -0.0901564 -0.828925 55 116 22
-0.987475 -0.153447 0.043043 2 108 133
0.978652 0.210267 -0.0707984 252 154 118
-0.966162 -0.255601 0.0127313 4 95 129
0.172794 -0.739027 0.659459 150 33 212
0.353859 -0.525899 0.7714 173 60 226
0.618488 0.488291 0.6113 206 190 205
-0.370677 0.912629 -0.202646 80 244 102
0.349911 0.849717 -0.419778 172 236 74
0.678903 0.748085 -0.0388666 214 223 123
-0.0706355 -0.833239 -0.563342 118 21 56
-0.798393 0.553525 -0.280877 26 198 92
0.14242 0.934197 -0.348147 146 247 83
0.965011 0.199267 -0.208944 251 153 101
-0.873377 -0.360219 0.348353 16 82 172
0.914749 -0.281031 0.301412 244 92 166
-0.567367 0.749892 0.360323 55 223 173
-0.824295 0.20826 0.535261 22 154 196
-0.687394 -0.420287 0.601512 40 74 204
0.383224 -0.0398545 -0.930462 176 122 9
0.668093 0.190191 -0.728072 213 152 35
-0.208047 0.176612 -0.960353 101 150 5
0.264409 -0.897593 0.37658 161 13 176
0.0494207 0.793108 -0.619968 134 229 48
-0.826306 0.342565 0.458822 22 171 186
-0.689288 0.745206 0.0920797 40 223 139
-0.306175 -0.841777 -0.463384 88 20 68
0.100268 -0.247751 -0.966465 140 96 4
0.675248 -0.0657144 0.741292 214 119 222
0.760693 0.639933 -0.195534 224 209 103
-0.326363 0.793937 -0.526465 86 229 60
0.910024 -0.231088 -0.338542 244 98 84
0.68313 0.674275 -0.322199 215 213 86
-0.592346 0.819116 -0.0822663 52 232 117
-0.914635 0.423015 -0.0423218 11 181 122
0.922072 -0.25764 0.299002 245 95 166
-0.313469 -0.923834 -0.2495 88 10 96
0.140213 0.0977299 0.983245 145 140 253
-0.189733 0.0689237 0.982429 103 136 253
0.441048 0.575751 -0.699044 184 201 38
-0.0732864 0.650588 0.732295 118 210 221
0.458603 -0.39681 -0.801334 186 77 25
-0.861034 0.484954 0.206691 18 189 154
0.993173 -0.0938299 0.0547652 254 116 134
0.283771 -0.7656 0.594638 164 30 203
-0.743776 -0.200011 0.665113 33 102 212
0.0493192 0.714246 0.678389 134 219 214
-0.846577 0.546716 -0.110477 20 197 113
0.550642 -0.184066 -0.825592 198 104 22
-0.561016 0.259024 -0.799932 56 161 26
-0.0486916 0.855913 -0.526332 121 237 60
0.113111 0.947971 -0.315682 142 248 87
-0.61975 -0.0701102 -0.791796 48 119 27
0.346965 -0.857356 -0.3875 172 18 78
-0.961911 0.0199648 -0.271701 5 130 93
-0.592269 -0.652298 -0.478234 52 44 67
0.662227 -0.73538 0.159433 212 34 148
0.203442 0.133962 -0.975665 153 145 3
0.704836 -0.676361 -0.216643 217 41 100
-0.0482094 0.230211 -0.976222 121 157 3
0.354353 -0.684421 0.648586 173 40 210
0.80732 -0.588727 0.0649392 230 52 136
-0.829957 0.463955 0.337621 22 187 171
0.119051 0.989753 0.0622493 143 254 135
0.0326849 0.488074 -0.876741 132 190 16
0.342498 -0.918542 0.190969 171 10 152
-0.441253 0.897318 0.117977 71 242 143
-0.212682 -0.911816 0.373182 100 11 175
-0.296071 -0.357553 -0.891012 90 82 14
-0.726795 0.264086 -0.644817 35 161 45
-0.80901 -0.52349 -0.287523 24 61 91
0.846622 0.179973 -0.500779 235 150 64
0.87987 -0.476248 0.00487329 240 67 128
0.946732 0.159411 0.289116 248 148 164
-0.946928 0.0733498 0.335684 7 137 170
0.387686 0.298355 -0.877848 177 166 16
0.071784 -0.745959 0.680115 137 32 214
0.507218 -0.290305 0.818016 192 90 232
-0.141717 0.369469 -0.923819 109 175 10
-0.713282 0.64441 -0.318271 37 210 87
0.246169 -0.317697 -0.920443 159 87 10
-0.605161 -0.29523 0.765573 50 90 225
-0.535814 0.760229 0.396119 59 224 178
0.0375718 -0.814513 -0.590527 132 24 52
-0.594838 -0.590765 0.551193 52 52 198
-0.308435 0.00105373 -0.955478 88 128 6
0.926289 -0.0683689 -0.36854 246 119 81
0.642193 -0.46153 0.608496 209 69 205
-0.881347 -0.267213 -0.394681 15 93 77
-0.862746 0.314634 0.410655 17 168 180
-0.982394 -0.181933 -0.0143607 2 104 126
0.996106 -0.0530732 -0.0713868 255 121 118
0.56604 0.824953 0.109578 200 233 141
-0.700292 0.70354 0.225901 38 217 156
0.664795 0.550011 0.499087 212 198 191
-0.447711 -0.348945 -0.831805 70 83 21
-0.840021 0.565996 0.020387 20 200 130
-0.0430482 -0.951803 0.310657 122 6 167
-0.488522 0.848778 0.249309 65 236 159
-0.978404 0.209691 0.0728134 3 154 137
-0.408894 0.64703 -0.654924 75 210 44
0.0477508 0.394262 -0.920704 134 178 10
0.54366 -0.70008 0.464557 197 38 187
-0.0755057 0.926224 -0.37461 118 246 80
0.202008 0.963529 0.191733 153 250 152
0.484279 -0.160974 -0.870404 189 107 17
0.761638 -0.19589 0.601225 225 103 204
-0.443632 0.0563389 -0.9039 71 135 12
-0.558571 0.432879 0.715892 56 183 219
-0.330984 0.692467 0.634965 85 216 208
0.00246366 0.475145 -0.884756 128 188 15
-0.0280172 -0.0807803 -0.993708 124 117 1
-0.972141 -0.16787 0.196653 4 106 153
0.541828 -0.446362 0.71935 197 71 219
0.593811 -0.678605 0.435937 203 41 183
0.780276 -0.309324 0.537813 227 88 196
0.418341 0.444363 -0.79776 181 184 26
0.497989 0.76945 0.406707 191 226 179
-0.604703 0.427336 0.681905 50 182 214
0.831946 0.555057 -0.148554 234 198 109
0.636541 -0.437939 -0.630266 209 72 47
0.575048 0.498996 -0.649218 201 191 45
-0.784784 0.370417 -0.499818 27 175 64
0.65311 -0.700981 0.301308 211 38 166
0.114847 -0.536673 0.82941 142 59 233
-0.238133 0.43321 -0.873035 97 183 16
0.707297 -0.230426 0.670677 218 98 213
0.0244543 0.152216 0.984413 131 147 253
-0.991881 0.00696447 -0.133029 1 128 111
-0.686459 -0.372314 -0.636743 40 80 46
0.788299 0.249456 -0.565132 228 159 55
-0.339858 -0.670848 0.681705 84 42 214
0.387667 0.792285 0.481735 177 229 189
0.4986 -0.801799 -0.32739 191 25 86
-0.348597 0.938165 -0.019407 83 247 125
-0.852813 -0.467037 0.229143 19 68 157
-0.852358 0.00633207 0.533803 19 128 196
-0.552818 -0.73991 0.400069 57 33 179
0.777156 -0.576755 0.27748 227 54 163
-0.444369 -0.892737 0.0818689 71 14 138
0.00164303 -0.556431 0.832535 128 57 234
-0.0867587 -0.991073 -0.110721 116 1 113
0.806948 0.37323 -0.465806 230 175 68
0.151015 -0.953657 -0.274107 147 6 93
-0.852544 0.175609 0.501933 19 150 191
-0.232142 -0.600892 -0.767818 98 51 30
0.507113 0.832632 0.234026 192 234 157
0.98077 0.208125 0.0370216 253 154 132
-0.88757 0.462022 -0.150029 14 186 108
-0.686352 -0.558754 -0.475574 40 56 67
0.987498 0.153204 -0.0836911 253 147 117
-0.498942 -0.740709 -0.466047 64 33 68
0.654459 -0.674106 0.349338 211 42 172
-0.115624 0.337529 -0.939095 113 171 8
0.955915 0.245795 -0.207164 249 159 101
0.903008 0.297882 -0.332923 243 165 85
0.0288943 0.966511 -0.264943 131 251 94
-0.295115 0.896205 -0.34658 90 242 83
-0.388283 -0.0720747 0.939316 78 118 247
-0.711066 -0.0472544 -0.708523 37 121 37
-0.13759 0.0672026 -0.990019 110 136 1
0.917789 0.398686 0.127889 245 178 144
0.651343 0.123246 -0.757445 211 143 31
-0.0494932 -0.795784 -0.616825 121 26 49
0.826732 -0.461577 -0.313256 233 69 88
0.374151 0.600487 0.704589 175 204 217
-0.694726 0.0868022 -0.727569 39 139 35
0.788909 0.412028 0.444349 228 180 184
-0.910673 0.0363026 0.424989 11 132 182
-0.841997 0.187898 -0.500175 20 151 64
-0.868771 -0.10892 0.494429 17 114 191
0.940517 -0.328554 -0.0907085 247 86 116
-0.640424 0.569619 -0.527166 46 200 60
0.771908 0.231076 0.584167 226 157 202
0.214911 0.510698 -0.831416 155 193 21
0.490444 0.456481 -0.750607 190 186 32
0.409607 -0.90259 -0.121669 180 12 112
0.59683 0.74128 -0.321035 204 222 87
0.362909 -0.0205673 0.9375 174 125 247
-0.187211 -0.767395 0.635131 104 30 208
-0.687127 -0.713832 -0.140615 40 36 110
-0.19839 -0.0124051 -0.980812 102 126 2
-0.477517 0.252584 -0.851706 67 160 19
0.109995 0.893471 -0.450423 142 241 70
0.527284 0.839347 -0.188398 195 235 103
-0.80549 0.467413 0.385523 25 187 177
0.594557 0.380067 -0.715623 203 176 36
-0.550734 -0.831508 -0.0257528 57 21 124
-0.246656 0.865864 0.432832 96 238 183
0.0412043 0.555419 -0.831089 133 198 22
0.782833 -0.574324 0.246863 227 54 159
0.892334 0.416465 -0.222564 241 181 99
0.988722 0.058116 -0.163839 254 135 107
-0.881183 -0.4089 0.259019 15 75 161
-0.503539 0.622468 -0.614495 63 207 49
0.0137815 0.336073 -0.944965 129 170 7
0.760513 -0.301 -0.553192 224 89 57
-0.461219 -0.773048 0.459656 69 29 186
-0.758823 -0.648959 -0.0589939 31 45 120
-0.281957 0.757565 -0.600044 92 224 51
0.278381 -0.737616 0.631712 163 33 208
0.533761 -0.835478 0.111128 196 21 142
-0.543266 0.194036 0.840269 58 152 235
0.233759 0.941878 -0.278441 157 248 92
-0.569404 -0.387042 -0.736527 55 78 34
0.564052 -0.788586 0.198839 199 27 153
-0.87083 -0.490758 0.0264888 16 65 131
-0.34132 -0.89339 0.321127 84 14 168
0.660692 0.421038 0.61852 212 181 206
0.456813 0.228145 -0.868263 186 157 17
0.443613 0.855871 0.279303 184 237 163
-0.418131 0.182743 -0.895583 74 151 13
0.0365788 -0.545764 -0.839897 132 58 20
-0.765831 -0.641191 -0.0254081 30 46 124
-0.328951 -0.460081 0.836838 86 69 234
0.340764 -0.416211 -0.848275 171 74 19
-0.655497 0.501029 0.570362 44 191 200
-0.394573 -0.473774 0.803875 77 67 230
-0.784727 -0.0952487 0.64122 27 115 209
0.167899 -0.917364 0.381403 149 11 176
0.171155 0.945223 -0.304879 149 248 89
0.0200677 -0.790647 0.631193 130 27 208
-0.147437 0.811486 -0.577928 109 231 54
-0.449067 -0.680533 0.602214 70 41 204
0.554098 -0.814924 0.112163 198 24 142
-0.542871 -0.361327 -0.768936 58 81 29
0.701348 -0.133305 -0.706994 217 111 37
0.17527 0.308058 0.928715 150 167 246
-0.734227 0.545559 0.425095 34 197 182
-0.323007 -0.942628 0.100554 86 7 140
0.299737 0.521552 0.792335 166 194 229
-0.291422 0.515628 0.799886 90 193 229
0.356609 0.225348 0.91436 173 156 244
-0.312245 -0.173357 0.944135 88 105 248
-0.66643 0.721031 0.267623 43 219 162
-0.29191 -0.941033 0.181302 90 8 151
0.18467 -0.515299 0.835073 151 62 234
0.376186 0.0207192 0.931986 175 130 246
-0.353627 0.75557 0.553476 82 224 198
0.631633 -0.540081 0.557619 208 59 199
0.00954836 -0.582234 0.818147 129 53 232
-0.247617 -0.727872 0.664222 96 35 212
0.900686 0.0759986 -0.426808 242 137 73
0.438853 0.112587 -0.902176 183 142 12
0.474785 -0.435675 -0.767407 188 72 30
-0.885616 -0.352936 0.324759 15 83 169
0.0544524 0.979144 0.1745 134 252 150
0.0121292 0.168745 -0.981788 129 149 2
-0.243384 -0.685171 -0.698408 96 40 38
0.0598815 -0.890568 0.472875 135 14 188
0.539402 -0.000340585 -0.852596 196 127 19
0.853783 0.439576 -0.31593 236 184 87
-0.727418 0.67854 0.214014 35 214 155
-0.169101 0.125694 0.97915 106 144 252
-0.202925 -0.727422 -0.665814 102 35 43
0.428382 0.431345 0.793706 182 182 229
0.111724 0.545043 -0.831264 142 197 22
-0.0325118 -0.499744 0.866517 123 64 238
-0.856457 -0.512202 -0.0803374 18 62 117
0.585823 -0.233396 -0.788847 202 98 27
-0.0303129 0.751585 -0.671152 124 223 42
0.743342 -0.0331921 0.669429 222 123 213
-0.514671 -0.349007 0.806391 62 83 230
0.384108 0.920079 0.148267 176 245 146
0.415192 -0.727812 0.556334 180 35 198
0.567635 -0.120367 -0.824432 200 112 22
0.718234 0.154948 0.685271 219 147 215
0.71679 0.45957 -0.531335 219 186 60
0.548913 -0.167888 0.827331 197 106 233
0.131317 -0.932805 -0.351148 144 9 83
0.312175 -0.466364 -0.831371 167 68 22
0.0657564 -0.921785 -0.396517 136 10 77
0.0530941 -0.961865 0.271877 134 5 162
0.942854 0.224719 -0.241906 248 156 97
0.577852 0.617787 -0.538404 201 206 59
0.695921 -0.288997 -0.665235 216 91 43
-0.00807309 0.996026 -0.0160735 126 254 125
-0.336112 -0.942372 0.0386572 85 7 132
0.596735 -0.756454 -0.272831 204 31 93
0.656543 -0.247901 -0.710781 211 96 37
0.348652 -0.0919958 -0.939432 172 116 8
-0.232557 0.487476 -0.846193 98 190 20
-0.744189 -0.508709 -0.44314 33 63 71
-0.976394 -0.171561 0.165573 3 106 149
0.278955 0.187834 -0.948998 163 151 7
0.0721866 -0.62223 0.790791 137 48 228
-0.294808 0.820467 -0.502369 90 232 63
-0.82944 0.580912 0.0369916 22 202 132
0.0987458 0.993891 0.00236113 140 254 128
0.518593 -0.499863 0.702173 194 64 217
0.0148359 0.387269 -0.92533 129 177 10
0.753381 -0.460284 0.468481 224 69 187
-0.933581 -0.324486 -0.17242 8 86 106
-0.210848 -0.508683 0.836642 101 63 234
0.864642 0.416236 0.287475 238 181 164
0.734461 -0.404746 0.540802 221 76 196
0.731727 0.392823 0.542011 221 178 197
0.241735 0.50478 -0.831761 158 192 21
-0.928881 -0.0453216 0.384154 9 122 176
0.168033 0.265374 0.945746 149 161 248
-0.129322 0.322981 0.930337 111 169 246
0.329808 -0.071656 -0.947081 170 118 7
0.154473 -0.81331 0.581491 147 24 202
0.267522 0.525105 -0.810762 162 194 24
-0.0413988 0.0511012 -0.996823 122 134 0
0.0606522 0.92751 0.354797 135 246 173
-0.94852 0.23263 0.246258 7 157 159
0.572799 0.347835 -0.748714 201 172 32
0.432555 0.251383 0.870468 183 160 238
-0.510909 0.858457 -0.143848 62 237 109
-0.119704 0.906359 0.390325 112 243 177
0.999644 0.0330022 -0.0172652 255 132 125
-0.487529 -0.786212 -0.396764 65 27 77
0.941985 0.232194 -0.265421 248 157 94
0.812662 -0.278281 0.504496 231 92 192
0.202757 -0.966248 0.0330472 153 4 132
-0.0769665 0.153098 0.983164 118 147 253
0.853478 -0.421047 -0.300248 236 74 89
-0.477142 0.779546 0.427641 67 227 182
-0.387001 0.694962 -0.618165 78 216 49
0.664414 -0.0145922 -0.757059 212 126 31
0.585699 0.302298 -0.758878 202 166 31
-0.941584 0.220915 -0.254097 7 156 95
-0.787017 0.61175 0.173563 27 205 150
0.00473095 0.892436 0.434574 128 241 183
-0.524861 0.847056 0.165016 61 235 149
-0.698566 0.34158 0.643162 38 171 210
0.373331 -0.679283 -0.63655 175 41 46
-0.435858 -0.390838 -0.818482 72 78 23
-0.102567 -0.960518 -0.280869 114 5 92
0.835587 -0.537319 0.138897 234 59 145
0.058459 0.231024 -0.975402 135 157 3
0.0167555 0.943927 0.314482 130 248 168
-0.349669 -0.907879 -0.258097 83 12 95
0.481269 -0.00748565 0.884141 189 127 240
-0.152839 -0.214277 0.969951 108 100 251
0.412216 -0.650853 0.64753 180 45 210
-0.525382 0.590586 0.617069 61 203 206
-0.355909 -0.906743 0.251778 82 12 160
0.427212 0.147236 0.899676 182 146 242
-0.10419 -0.22331 -0.97097 114 99 4
-0.726423 0.362576 -0.585179 35 174 53
-0.368896 -0.483178 0.808715 80 66 231
-0.717145 0.374305 0.598365 36 175 204
-0.984718 0.167543 0.0973926 2 149 140
0.552639 -0.533465 -0.635413 198 59 46
0.179112 0.707363 -0.695911 150 218 39
0.975159 -0.208946 -0.0569018 252 101 120
0.0397195 -0.781839 -0.632778 133 28 47
0.289458 0.953154 -0.173549 164 249 105
-0.666737 -0.543407 -0.521161 42 58 61
-0.407481 0.455249 0.792463 76 186 229
0.923745 0.0429418 -0.382455 245 133 79
0.881727 -0.0523772 -0.462203 240 121 69
0.0783159 -0.92137 0.400561 137 10 179
-0.192513 0.685133 0.687883 103 215 215
-0.0569822 0.00886832 -0.996229 120 129 0
0.129135 0.530502 0.825925 144 195 233
-0.487661 0.459952 -0.751742 65 186 32
0.645795 0.608392 0.459267 210 205 186
-0.0921469 -0.993908 -0.0416467 116 1 122
0.0455536 0.505057 0.848713 133 192 236
0.584602 0.735389 -0.357413 202 221 82
-0.58379 0.341653 -0.749579 53 171 32
-0.789872 -0.352524 0.517609 27 83 193
0.0468273 0.388544 0.911384 133 177 244
0.943345 0.330735 -0.11716 248 170 113
0.358166 0.777862 0.524801 173 227 194
-0.281582 0.952682 0.0809872 92 249 138
-0.805142 0.255998 -0.530348 25 160 60
-0.599653 -0.431205 -0.687353 51 73 40
-0.811975 0.483535 -0.348636 24 189 83
0.802759 0.592771 -0.169253 230 203 106
-0.849057 -0.376956 -0.379797 19 79 79
0.963194 -0.243333 0.115246 250 96 142
0.462606 0.825186 0.3343 186 233 170
0.584753 -0.793508 -0.17489 202 26 105
-0.0207239 -0.235645 -0.97276 125 97 3
0.703481 0.188236 -0.693796 217 152 39
-0.591337 0.100206 -0.815844 52 140 23
0.00178415 0.869053 -0.506612 128 238 63
0.985155 -0.162464 0.0289008 253 107 131
-0.155258 0.224902 -0.967942 108 156 4
-0.199159 -0.977291 -0.0239923 102 3 124
-0.806154 -0.373866 0.473899 25 80 188
-0.443642 0.902158 0.0167277 71 243 130
0.43804 0.147391 -0.893518 183 146 14
-0.227641 -0.967397 -0.120268 98 4 112
0.292545 0.750381 0.599392 165 223 204
0.967431 0.0278915 -0.232505 251 131 98
0.658155 -0.411249 -0.626363 211 75 48
-0.61004 0.0560685 -0.802512 50 135 25
0.170301 -0.809557 -0.566219 149 24 55
0.905163 0.0341469 0.415735 243 132 181
0.706923 0.588978 0.384474 218 203 177
0.393541 -0.887958 0.23716 178 14 158
-0.912948 0.411659 -0.1283 11 180 111
-0.283128 0.0131113 -0.962525 91 129 5
0.143193 -0.962686 -0.241979 146 5 97
-0.502625 -0.338958 -0.805207 63 84 25
0.86411 0.505266 -0.13287 238 192 111
0.277971 0.966401 -0.0623334 163 251 120
0.341351 -0.155023 0.927065 171 108 246
0.720599 -0.0311298 0.695423 219 124 216
-0.0298369 0.355679 -0.937868 124 173 8
-0.170044 -0.374944 0.916612 106 80 244
0.592724 0.123417 -0.801901 203 143 25
0.663732 -0.21324 -0.72881 212 100 35
0.708473 0.497258 -0.509915 218 191 62
0.437756 -0.310515 -0.853409 183 88 19
0.432154 -0.254081 0.873311 183 95 239
-0.567101 -0.793136 -0.231357 55 26 98
-0.733649 0.629867 0.304749 34 208 166
-0.660386 -0.335326 -0.683039 43 85 40
-0.11228 0.346706 0.924875 113 172 245
-0.684174 -0.45804 0.585796 40 69 202
-0.45664 0.581922 0.672799 69 202 213
0.205913 -0.56078 0.806743 154 56 230
0.16401 -0.783767 -0.603452 148 28 51
-0.526707 0.491439 -0.705033 60 190 38
0.732729 0.0189384 0.68106 221 130 214
-0.0622135 0.742294 -0.679915 120 222 41
-0.538861 -0.803972 -0.263868 59 25 94
0.0176876 -0.0641116 -0.994737 130 119 1
0.233036 -0.70018 0.691784 157 38 216
0.110764 -0.553734 -0.828087 142 57 22
-0.575704 0.00604069 -0.827441 54 128 22
0.829251 0.388507 0.392283 233 177 178
-0.794874 -0.41767 0.456959 26 74 186
-0.993711 0.119826 0.032246 1 143 132
-0.809793 0.135335 -0.565996 24 145 55
-0.145541 0.979753 0.0821814 109 252 138
-0.940306 0.152463 0.328642 8 147 169
0.304835 -0.894696 0.342272 166 13 171
-0.840801 0.557205 0.0995532 20 199 140
0.24609 0.852597 0.468327 159 236 187
0.958621 -0.267713 -0.0977802 250 93 115
0.159525 -0.497065 -0.855494 148 64 18
-0.267566 0.0376642 -0.966546 93 132 4
-0.485302 0.8262 0.322824 66 233 169
-0.236685 0.926866 -0.290276 97 246 90
-0.598713 -0.773195 0.167323 51 29 149
-0.45757 -0.829188 0.344192 69 22 171
0.719952 0.14378 -0.688779 219 146 40
-0.204519 -0.84614 0.516816 101 20 193
0.436321 0.103937 0.900427 183 141 242
-0.322214 0.152221 -0.942998 86 147 7
0.746113 0.0668966 0.661964 223 136 212
0.393212 0.154735 -0.913728 178 147 11
0.787921 -0.0420892 -0.615452 228 122 49
0.283777 0.96857 -0.0145727 164 251 126
-0.262521 0.605705 0.738434 94 205 222
-0.627897 0.631383 -0.472549 47 208 67
-0.818874 0.180302 -0.539177 23 150 59
-0.753167 0.401038 0.529061 31 179 195
-0.760582 0.669591 0.0929449 31 213 139
0.694286 -0.214687 -0.696225 216 100 39
0.543861 0.847966 -0.0414341 197 236 122
-0.0960012 -0.980342 -0.190291 115 3 103
-0.448818 0.630756 -0.645755 70 208 45
-0.409686 0.565032 -0.720751 75 200 36
-0.913485 0.356197 0.201825 11 173 153
0.389161 0.706871 0.597212 177 218 204
-0.0614139 0.961061 0.250392 120 250 159
0.711593 0.594902 -0.396602 218 203 77
-0.168065 0.911987 -0.366453 106 244 81
0.615311 0.102457 0.788735 206 141 228
0.438307 -0.573746 -0.692063 183 54 39
0.664859 -0.744403 -0.0903727 212 33 116
-0.998226 -0.0461036 -0.0172356 0 122 125
-0.504382 -0.76417 0.423523 63 30 181
-0.116797 -0.0632023 0.9936 113 119 254
0.422828 0.21258 0.890482 181 155 241
-0.0825238 0.991314 -0.0303909 117 254 124
0.62523 -0.101811 0.781943 207 115 227
-0.713159 0.601552 -0.383032 37 204 79
-0.540102 0.289128 -0.802446 59 164 25
-0.963378 0.274371 -0.0716271 5 162 118
-0.382902 -0.321493 -0.874217 79 87 16
-0.302545 0.159981 0.948004 89 148 248
0.850984 0.519347 -0.170704 236 194 106
0.0775437 -0.878413 0.494385 137 16 191
0.176023 -0.680637 -0.720727 150 41 36
-0.0545769 0.378559 -0.928068 121 176 9
-0.504541 0.826957 0.290652 63 233 165
-0.481806 0.860806 -0.212791 66 237 100
0.965459 -0.198468 -0.181959 251 102 104
0.840783 -0.285199 0.455063 235 91 186
-0.638437 -0.72156 0.275866 46 36 163
0.498704 0.107282 -0.870054 191 141 17
-0.998376 0.0521542 -0.0282674 0 134 124
0.10057 -0.048589 -0.991914 140 121 1
-0.558628 0.120832 0.845613 56 143 235
-0.681199 0.685466 0.312878 41 215 167
-0.5474 -0.0926895 -0.84195 58 116 20
0.432047 0.602307 0.669172 183 204 213
-0.856565 -0.199582 0.487036 18 102 190
0.89309 0.461515 0.0761289 241 186 137
-0.628815 0.610247 -0.496505 47 205 64
-0.0421932 0.200773 0.975467 122 153 252
0.676564 -0.730802 0.087052 214 34 139
0.615389 0.125151 -0.786351 206 143 27
-0.945033 -0.301089 -0.144955 7 89 109
0.434552 0.28242 0.862563 183 164 237
-0.241517 0.699237 0.662187 97 217 212
0.610798 -0.609558 -0.501297 205 50 64
0.337362 0.56576 0.747081 171 200 223
0.119657 0.801198 -0.600019 143 230 51
-0.0208031 0.171505 -0.981697 125 149 2
-0.276573 0.8874 0.372933 92 241 175
-0.251727 -0.918775 0.297221 95 10 165
-0.800799 0.297817 -0.517324 25 165 62
-0.414832 -0.700527 -0.593638 75 38 52
-0.750503 0.137674 -0.648906 32 145 45
0.263264 -0.828834 0.515517 161 22 193
0.193171 0.984804 -0.0282603 152 253 124
-0.858321 -0.348696 0.392102 18 83 177
-0.937937 -0.229785 -0.271537 8 98 93
0.930606 -0.306317 0.224332 246 88 156
0.151816 0.724978 -0.684823 147 220 40
0.506378 -0.830041 -0.224299 192 22 99
-0.932638 -0.35763 -0.0397342 9 82 122
-0.970662 -0.143808 -0.20027 4 109 102
-0.62972 -0.0359157 0.810454 47 123 231
0.988226 0.150891 0.0827477 253 147 138
0.769234 -0.360019 0.522978 226 82 194
-0.505082 -0.85783 -0.0895889 63 18 116
-0.448183 0.844599 -0.324781 70 235 86
0.639081 -0.692748 0.342095 209 39 171
-0.308417 -0.625407 0.736328 88 48 221
-0.626614 -0.396098 -0.683479 48 77 40
0.00373945 -0.875364 0.504338 128 16 192
-0.952531 0.189444 -0.239385 6 152 97
-0.0121619 -0.31792 0.949287 126 87 249
-0.862772 0.381868 0.353415 17 176 173
0.0253831 0.844862 -0.547881 131 235 58
0.666749 -0.187825 0.727388 213 104 220
-0.788868 -0.424706 -0.451906 27 73 70
0.258993 -0.814303 -0.530859 161 24 60
-0.764193 -0.554388 0.349317 30 57 172
-0.564026 -0.77258 0.298864 56 29 166
-0.258149 -0.392167 -0.887 95 77 14
0.976291 0.144425 -0.198094 252 146 102
0.420215 -0.192642 -0.897108 181 103 13
0.516082 -0.0614172 0.863312 193 120 238
-0.67036 -0.736114 -0.0825302 42 34 117
0.0367204 -0.951801 0.314296 132 6 168
-0.828472 0.557822 -0.19296 22 199 103
-0.264689 -0.6118 0.763851 94 49 225
0.276453 -0.453799 -0.851049 163 70 19
0.731665 -0.680997 0.0501981 221 41 134
0.718254 0.279127 -0.64553 219 163 45
0.990234 0.0211754 0.160465 254 130 148
-0.139918 0.758674 -0.65037 110 224 45
0.641853 -0.598751 -0.471634 209 51 67
0.949305 -0.155579 0.275577 249 108 163
0.0886379 0.678937 0.711799 139 214 218
-0.986218 -0.0645255 -0.160031 2 119 107
0.724684 0.707287 0.0352695 220 218 132
-0.542317 -0.427861 -0.734498 58 73 34
0.80758 0.166938 -0.566451 230 149 55
-0.970644 0.249334 0.0513666 4 159 134
-0.323266 -0.809105 -0.507987 86 24 63
-0.361427 0.922507 0.169744 81 245 149
0.260198 -0.929608 -0.27612 161 9 92
0.0908101 0.0490473 -0.994531 139 134 1
-0.699133 -0.710566 0.0513875 38 37 134
-0.915338 0.414457 0.0894906 11 180 139
0.448115 -0.873421 0.178713 185 16 150
-0.994605 -0.0568002 0.114394 1 120 142
0.626806 0.291066 -0.729937 207 165 34
-0.440204 0.20271 -0.884857 71 153 15
-0.298995 0.479147 0.821636 89 189 232
0.0061347 0.97674 -0.219234 128 252 100
-0.032665 0.818004 0.55455 123 232 198
-0.995067 0.102916 0.0522377 1 141 134
-0.886453 0.348244 0.329528 14 172 170
-0.34633 -0.923479 0.182805 83 10 151
-0.90882 0.23551 0.363773 12 158 174
-0.0103021 -0.976211 0.211407 126 3 154
-0.202651 0.542911 0.804455 102 197 230
-0.375159 -0.871451 0.343232 80 16 171
0.490347 0.186929 -0.861098 190 151 18
0.0539307 -0.200504 0.978176 134 102 252
0.166206 0.983508 -0.109879 149 253 113
-0.152656 -0.79902 -0.598614 108 26 51
0.677389 0.529636 -0.521003 214 195 61
-0.55697 -0.227036 -0.802613 56 99 25
0.722841 0.0678453 0.689303 220 136 215
-0.724086 0.666617 -0.256064 35 212 95
0.187174 -0.800533 -0.581489 151 25 53
0.68135 0.0450202 0.734679 214 133 221
0.446922 -0.482751 -0.756282 184 66 31
-0.0187432 0.0748992 0.993954 125 137 254
-0.730832 -0.539493 -0.429146 34 59 73
0.600109 0.20516 0.781995 204 154 227
-0.955673 -0.246772 0.196026 6 96 152
0.704753 0.537223 -0.475374 217 196 67
0.323816 -0.547252 -0.77359 169 58 29
-0.367605 0.354064 -0.866172 81 173 17
0.958437 -0.281661 0.00331594 250 92 128
0.857793 0.0172724 0.501148 237 130 191
-0.0375137 -0.444025 -0.896881 123 71 13
0.207292 0.727258 -0.659705 154 220 43
-0.133368 -0.0237427 0.992954 110 124 254
-0.649377 -0.498837 -0.588272 45 64 52
-0.522856 -0.786204 0.345833 61 27 172
-0.391195 -0.752252 0.556515 78 32 198
-0.252819 -0.200904 0.956294 95 102 249
0.156449 0.0266359 -0.988271 147 131 1
-0.276193 -0.850123 0.478154 92 19 188
-0.0921894 0.69808 0.691725 116 217 216
0.515914 0.835211 0.205471 193 234 154
0.405984 -0.359951 -0.849447 179 82 19
-0.427248 -0.105814 -0.905696 73 114 12
-0.542581 0.770918 0.366238 58 226 174
0.263522 0.856149 -0.461531 161 237 69
0.84504 -0.536778 -0.000991064 235 59 127
-0.117646 0.98092 -0.136195 113 253 110
-0.953806 -0.10799 0.30374 6 114 166
-0.791499 -0.121135 -0.579749 27 112 54
0.999086 -0.0213666 -0.0201003 255 125 125
0.413073 0.316995 -0.859277 180 168 18
-0.624943 -0.364142 0.715424 48 81 219
0.47899 -0.328181 -0.823805 189 86 22
0.0560772 0.821373 -0.581205 135 232 53
-0.361155 0.113701 -0.936311 81 142 8
-0.172233 -0.98277 -0.0170057 106 2 125
0.715864 -0.570203 0.407963 219 55 180
0.479349 -0.736274 -0.481817 189 34 66
0.0117474 -0.966095 0.259052 129 4 161
-0.127519 -0.0456097 -0.988968 111 122 1
0.892982 -0.427328 0.165488 241 73 149
-0.277111 -0.935661 0.226753 92 8 156
-0.427653 0.0822334 -0.910426 73 138 11
-0.247597 0.164604 -0.958994 96 148 5
0.316156 0.954614 0.101343 168 249 140
-0.012386 0.930152 0.351813 126 246 172
-0.739438 -0.148728 -0.663397 33 109 43
0.150639 -0.908682 -0.404592 147 12 76
0.354086 -0.370252 0.863131 173 80 238
-0.919155 0.0475089 -0.389496 10 134 78
-0.218581 -0.846066 -0.490563 100 20 65
-0.219026 -0.868363 0.465373 100 17 187
0.187932 0.244213 0.951005 151 159 249
0.412968 -0.361519 0.84153 180 81 235
0.986509 0.0556474 0.18482 253 135 151
0.874176 0.465943 -0.204655 239 187 101
-0.348259 0.794336 -0.512139 83 229 62
-0.196004 0.801811 0.549136 103 230 198
-0.632393 0.244777 -0.751062 47 159 32
0.89593 0.242168 0.368169 242 158 174
0.637533 0.17847 -0.75949 209 150 31
0.69146 0.16403 0.711885 216 148 218
0.62101 -0.421505 -0.658535 207 74 44
0.435322 0.334929 -0.841205 183 170 20
-0.00193335 -0.978224 -0.216986 127 3 100
-0.474233 0.697353 -0.551951 67 216 57
-0.962493 -0.0056499 0.296756 5 127 165
0.7113 -0.68936 -0.117372 218 40 113
-0.131649 0.846518 -0.522746 111 235 61
-0.430163 -0.662104 -0.624921 73 43 48
0.0619614 0.828344 0.540065 135 233 196
-0.664256 0.436121 0.616018 43 183 206
-0.281988 0.7709 0.567644 92 226 200
0.101203 0.842626 0.516204 140 235 193
-0.879424 0.333178 0.360113 15 170 173
-0.00445291 0.493986 0.856424 127 190 237
-0.696153 -0.185426 -0.691717 39 104 39
-0.947293 -0.253806 -0.20045 7 95 102
0.289043 -0.441725 0.851995 164 71 236
0.294889 -0.918485 -0.273685 165 10 93
0.09673 0.450718 0.877046 140 185 239
0.738265 0.24274 -0.636101 222 158 46
0.643345 -0.220499 -0.745393 210 99 32
-0.903922 -0.39706 0.19835 12 77 153
0.862128 -0.490069 -0.151034 237 65 108
-0.442031 0.893574 0.144367 71 241 146
-0.26761 0.064526 0.968815 93 136 251
-0.358375 0.815303 -0.471083 82 231 67
-0.340658 -0.54366 0.776309 84 58 226
0.177255 0.86984 0.459573 150 238 186
-0.647981 0.781895 -0.010036 45 227 126
-0.238054 -0.443485 0.871694 97 71 239
-0.494618 -0.0507654 -0.876211 64 121 16
0.161426 0.678936 0.697296 148 214 216
0.806373 0.327984 -0.496715 230 169 64
-0.449769 0.439545 0.781036 70 184 227
-0.00483434 0.937926 -0.357204 127 247 82
-0.879995 -0.457203 -0.150791 15 69 108
0.454197 -0.642551 0.626108 185 46 207
0.0383539 0.344023 -0.941284 132 171 7
0.676915 0.75357 0.0129552 214 224 129
0.774271 0.64653 -0.0466365 226 210 122
0.187819 0.951299 0.251751 151 249 160
-0.84514 -0.251066 -0.471763 20 95 67
0.055412 0.643371 -0.770472 135 210 29
-0.0719273 -0.736342 -0.684606 118 34 40
-0.758892 -0.156666 0.661778 31 108 212
-0.15959 0.450126 -0.884326 107 185 15
0.139518 -0.892906 -0.444108 145 14 71
0.785952 0.304565 -0.541163 228 166 59
-0.322797 -0.344428 -0.887743 86 84 14
-0.395092 -0.427814 0.829389 77 73 233
0.235816 0.13872 0.962604 158 145 250
-0.798761 -0.512053 -0.331521 26 62 85
0.463737 0.435061 0.772325 187 183 226
-0.406983 -0.871086 -0.296719 76 16 90
-0.404707 -0.337253 0.867782 76 85 238
-0.0510243 0.103289 0.991051 121 141 254
-0.417035 0.545955 0.724439 74 197 220
-0.879893 0.101618 0.475367 15 140 188
0.525883 0.402269 0.751221 195 179 223
0.837483 -0.500876 -0.227868 234 64 98
0.263834 0.916317 -0.314252 161 244 87
0.954892 0.288106 -0.131364 249 164 111
-0.191829 -0.675278 -0.719064 103 41 36
0.994407 -0.0482396 0.0986202 254 121 140
0.852881 0.127764 0.494808 236 144 191
0.931285 0.202283 0.308573 246 153 167
-0.45206 0.560506 -0.697295 70 199 39
-0.1151 -0.60567 -0.791064 113 50 27
-0.928871 0.207944 0.330704 9 154 170
0.929142 -0.268179 -0.259552 246 93 94
0.00917383 0.566933 0.808535 129 200 231
0.389086 -0.874738 -0.292954 177 16 90
-0.143326 0.969043 -0.202606 109 251 102
-0.182126 -0.544831 -0.824021 104 58 22
0.711247 0.355831 0.605091 218 173 205
-0.376894 -0.782277 -0.511504 79 28 62
0.479739 -0.632618 0.61572 189 47 206
-0.409339 0.914574 -0.080256 75 244 117
0.507206 -0.817475 -0.266577 192 23 94
0.949341 -0.119827 -0.295965 249 112 90
-0.0760334 -0.729086 0.696778 118 35 216
0.49527 -0.540699 0.676061 191 59 214
-0.170422 -0.0950318 -0.980141 106 115 3
0.769333 0.360608 0.51655 226 173 193
-0.48636 0.878312 -0.089286 65 239 116
0.907701 -0.363421 -0.202042 243 81 102
-0.462603 -0.233844 0.88016 69 98 240
-0.0160289 -0.486136 -0.876077 125 66 16
0.0555102 0.264792 -0.965931 135 161 4
-0.139233 -0.270095 0.956531 110 93 249
-0.0598991 0.209421 -0.979849 120 154 3
-0.324925 -0.947253 0.0157241 86 7 130
0.806995 0.266209 0.516781 230 161 193
-0.928384 0.390918 0.0143077 9 177 129
-0.229924 -0.969201 -0.0275469 98 4 124
-0.526876 -0.395675 0.774265 60 77 226
-0.532041 -0.192818 -0.835968 60 103 21
-0.453317 0.0459083 0.911396 70 133 244
0.386287 -0.135216 -0.920728 177 110 10
-0.507448 0.133432 -0.865718 63 145 17
-0.866341 0.522438 -0.00952483 17 194 126
0.249592 -0.942237 0.236006 159 7 158
-0.0803823 0.315192 -0.949866 117 168 6
0.369226 -0.545727 -0.753787 175 58 31
-0.845285 0.224733 0.494661 20 156 191
-0.501411 -0.671945 0.568269 64 42 200
0.505841 -0.48798 0.718953 192 65 219
0.465941 -0.42202 0.784385 187 74 228
-0.402598 -0.557564 0.74358 76 56 222
-0.918793 0.414886 -0.0138365 10 180 126
0.651015 0.761853 0.126292 211 225 144
0.493414 -0.152855 0.858645 190 108 237
-0.0545057 -0.951572 -0.32095 121 6 87
-0.420008 -0.210038 0.905515 74 101 243
0.676407 0.509663 0.521598 214 192 194
0.381618 0.557862 0.733073 176 199 221
0.170788 0.140883 -0.979543 149 145 3
-0.311498 0.941923 0.126518 88 248 144
-0.234308 0.0191571 0.978492 98 130 252
0.0547728 -0.0950337 0.995127 134 115 254
-0.400841 0.905981 0.180329 76 243 150
-0.422541 -0.215466 -0.889108 74 100 14
0.861202 -0.3843 -0.323508 237 79 86
-0.806811 0.481322 0.36642 25 189 174
0.00344885 -0.401519 0.917661 128 76 245
-0.36389 0.570511 -0.741318 81 200 33
-0.570228 0.780057 0.287498 55 227 164
0.758578 -0.236265 0.59312 224 97 203
-0.94781 0.00614397 -0.322294 7 128 86
-0.474694 -0.316404 -0.831257 67 87 22
-0.292685 0.846541 -0.457085 90 235 69
-0.208312 -0.120732 -0.97135 101 112 4
0.44529 0.747777 -0.508942 184 223 63
-0.647222 -0.739149 -0.204455 45 33 101
-0.652189 0.138802 0.771391 44 145 226
-0.408651 -0.909994 -0.0979971 75 11 115
-0.426674 0.872681 -0.272295 73 239 93
0.273422 -0.953188 -0.137038 162 6 110
0.79542 0.282145 -0.538933 229 163 59
-0.45271 -0.843442 -0.30849 70 20 88
-0.557901 0.547205 -0.619582 56 197 49
-0.999203 -0.0258238 0.0478258 0 124 134
0.0853579 -0.373533 -0.925642 138 80 9
-0.265889 0.601288 -0.760114 94 204 31
-0.683419 -0.210236 -0.706986 40 101 37
-0.155473 0.610114 0.757531 108 205 224
0.527736 -0.815635 0.23744 195 24 158
-0.162924 -0.47772 -0.867308 107 67 17
0.981188 0.177639 0.122884 253 150 143
-0.222652 0.770448 -0.610259 99 226 50
-0.0678717 -0.986041 -0.161005 119 2 107
0.763675 0.0116911 0.643838 225 129 210
0.198535 -0.442232 0.87653 153 71 239
0.604689 -0.758609 0.254183 205 31 160
0.902329 -0.416068 0.129308 243 74 144
-0.164774 -0.107033 0.987546 106 114 253
-0.949788 -0.188095 -0.256711 6 104 95
-0.397085 -0.200476 -0.904709 77 102 12
-0.93939 0.00684358 -0.34448 8 128 84
0.851435 -0.466287 -0.244169 236 68 96
0.20362 -0.222558 0.955288 153 99 249
-0.154417 0.325779 -0.938639 108 169 8
-0.0911823 0.867543 -0.495809 116 238 64
0.0905896 -0.921623 -0.392178 139 10 77
-0.307947 -0.599465 -0.740749 88 51 33
-0.222223 -0.210955 0.960287 99 101 250
0.101127 0.868184 0.473814 140 238 188
0.952186 -0.0767097 -0.302536 249 118 89
0.279754 -0.910266 -0.317276 163 11 87
0.87084 0.369918 0.323204 239 175 169
0.393551 0.271678 -0.884438 178 162 15
0.430644 -0.319869 0.850443 182 87 236
-0.793075 0.438023 -0.431809 26 183 72
-0.840288 0.086348 -0.529694 20 139 60
0.838703 -0.545024 -0.0940911 234 58 116
0.549679 -0.484816 -0.678585 198 66 41
0.0245873 -0.0907184 0.996301 131 116 255
0.845018 0.282701 0.442292 235 164 184
-0.854117 0.245686 -0.456531 19 159 69
-0.353973 -0.895964 0.295129 82 13 165
0.601157 -0.202199 -0.78602 204 102 27
-0.38658 0.120694 0.929478 78 143 246
