ply
format ascii 1.0
comment Created by Open3D
element vertex 1212
property double x
property double y
property double z
property uchar red
property uchar green
property uchar blue
end_header
-0.995897 0.0726358 -0.0478472 1 137 121
0.0388074 -0.971859 0.00298629 132 4 128
0.922701 -0.0433097 0.339165 245 122 171
0.136246 0.990664 -0.0922685 145 254 116
0.559963 -0.763642 -0.226109 199 30 99
0.969731 0.0941764 0.185012 251 140 151
-0.0388678 -0.955389 0.322892 123 6 169
-0.558367 0.804551 -0.111875 56 230 113
-0.361446 -0.888636 -0.182681 81 14 104
-0.134596 0.947573 -0.0926648 110 248 116
-0.588433 -0.618597 -0.229572 52 49 98
0.63214 -0.77461 -0.271915 208 29 93
-0.582006 0.792983 0.112185 53 229 142
0.926707 0.342415 -0.239388 246 171 97
0.786575 -0.607552 0.249708 228 50 159
-0.538035 0.654726 -0.101804 59 211 115
0.694899 0.71906 0.0718213 216 219 137
0.136791 0.976621 0.335448 145 252 170
0.00674963 0.845888 -0.0183537 128 235 125
-0.614077 0.727457 -0.292134 49 220 90
-0.0285811 -0.871468 -0.256568 124 16 95
-0.747281 0.624827 -0.00853198 32 207 126
-0.657761 -0.749921 -0.19495 44 32 103
-0.44945 -0.779476 0.322892 70 28 169
-0.696808 0.686075 -0.0851059 39 215 117
-0.0169006 0.967127 -0.12064 125 251 112
-0.904442 0.281414 -0.282739 12 163 91
0.12367 -0.975841 -0.053555 143 3 121
-0.954359 -0.0736464 0.292885 6 118 165
0.956662 0.216758 0.119963 249 155 143
0.656845 -0.749641 0.0566044 211 32 135
0.655743 -0.731173 -0.295702 211 34 90
0.654279 0.746893 -0.330347 211 223 85
0.965976 0.0249417 0.239716 251 131 158
-0.961035 -0.20996 0.0875608 5 101 139
0.141131 -0.966741 0.2724 145 4 162
-0.0636624 0.945337 -0.221346 119 248 99
0.286423 -0.816981 -0.154697 164 23 108
-0.0184768 -0.862978 -0.0826046 125 17 117
-0.317 -0.784966 -0.0724035 87 27 118
-0.935715 0.344964 -0.323432 8 171 86
0.0713331 0.98448 0.186251 137 253 151
0.189643 0.923058 0.169304 152 245 149
-0.936553 -0.210365 -0.339165 8 101 84
0.747232 0.619282 0.242431 223 206 158
0.476313 -0.879198 -0.102005 188 15 114
-0.845861 0.176194 0.112353 20 150 142
-0.656633 -0.579167 -0.338366 44 54 84
0.322307 0.913573 -0.0644742 169 244 119
0.103181 0.9889 0.0239313 141 254 131
0.872718 -0.0796393 0.309339 239 117 167
0.919029 0.308919 0.136313 245 167 145
-0.408869 0.879675 -0.2126 75 240 100
-0.828568 0.496894 -0.268495 22 191 93
0.87361 0.390942 -0.292762 239 177 90
0.331218 -0.778498 -0.0396375 170 28 122
-0.613404 0.749728 0.120578 49 223 143
0.387322 -0.890254 -0.25823 177 14 95
0.250977 0.951131 -0.00658397 159 249 127
-0.889006 0.397762 -0.293185 14 178 90
0.775527 -0.627416 -0.22776 226 48 98
0.700576 -0.524654 0.298609 217 61 166
-0.0230602 0.942008 -0.17231 125 248 106
-0.0932035 -0.869506 -0.337486 116 17 84
0.0835055 -0.861393 0.148564 138 18 146
0.48632 -0.861164 0.333598 190 18 170
-0.959724 -0.0242221 0.120578 5 124 143
-0.700939 0.653857 0.0802004 38 211 138
-0.855179 -0.171315 0.33588 18 106 170
0.798086 0.580109 0.0264979 229 201 131
-0.664747 0.555434 0.165401 43 198 149
-0.941407 0.254207 0.293246 7 160 165
-0.21972 0.838184 0.170667 99 234 149
-0.0366588 0.991225 -0.188393 123 254 103
-0.764132 0.461178 0.339165 30 186 171
0.489237 -0.716539 -0.19298 190 36 103
-0.0115827 -0.859802 0.308918 126 18 167
-0.791928 -0.474995 -0.339165 27 67 84
-0.864608 0.432369 -0.293185 17 183 90
0.950397 -0.310979 -0.0178406 249 88 125
0.826789 0.213273 0.231109 233 155 157
0.843721 0.53639 -0.295515 235 196 90
-0.687385 -0.554621 -0.0447138 40 57 122
0.99728 -0.0624831 0.286992 255 120 164
0.969381 0.167169 -0.00968779 251 149 126
0.529625 -0.686045 -0.174088 195 40 105
0.775934 0.589512 -0.2126 226 203 100
0.775311 -0.465505 0.339165 226 68 171
0.76275 0.417356 0.220593 225 181 156
0.964119 -0.262896 0.12866 250 94 144
-0.240271 0.970354 -0.0287491 97 251 124
0.937313 0.100898 0.127465 247 140 144
-0.0562018 0.998397 -0.243291 120 255 96
0.707373 -0.59369 -0.339165 218 52 84
0.326746 0.923712 0.338263 169 245 171
0.404233 0.743552 0.0594234 179 222 135
0.690718 0.687186 -0.258818 216 215 95
0.675581 0.713013 0.315519 214 218 168
-0.21485 0.937672 0.322892 100 247 169
0.945957 0.220652 -0.20158 248 156 102
0.845997 -0.0263704 0.0646852 235 124 136
0.18769 -0.860394 0.321051 151 18 168
-0.697131 -0.68094 0.271969 39 41 162
-0.0908538 -0.986063 -0.0636567 116 2 119
0.956992 -0.110265 0.00717551 250 113 128
0.846454 0.414027 0.142269 235 180 146
0.374249 -0.927233 0.0807784 175 9 138
0.490696 0.689509 -0.0587651 190 215 120
-0.944206 0.238711 -0.00879907 7 158 126
-0.771127 -0.385827 0.321898 29 78 169
0.973559 0.140276 0.311932 252 145 167
0.320238 0.785569 -0.131626 168 228 111
0.86927 -0.0601672 0.247713 238 120 159
-0.760833 -0.64657 0.130906 30 45 144
-0.126755 0.986781 0.0231482 111 253 130
-0.55804 0.715263 0.322892 56 219 169
-0.558693 0.820779 0.224985 56 232 156
-0.918055 0.275672 -0.0114899 10 163 126
-0.710739 -0.680106 0.304366 37 41 166
-0.505624 0.681218 0.133098 63 214 144
0.947761 0.143742 0.0514706 248 146 134
0.511668 0.744264 -0.322892 193 222 86
-0.578633 0.622995 0.171394 54 207 149
-0.855704 -0.0561685 0.281708 18 120 163
0.778955 0.538392 -0.272669 227 196 93
-0.0361953 -0.866793 -0.191229 123 17 103
0.853912 0.446348 0.0592504 236 184 135
0.348554 0.784407 -0.291602 172 228 90
-0.951901 0.214004 -0.12064 6 155 112
0.307487 0.806258 0.323358 167 230 169
0.252218 0.964713 -0.0669521 160 251 119
-0.736627 -0.628856 -0.185012 34 47 104
-0.881864 0.471311 0.0802752 15 188 138
0.801904 -0.555289 -0.237993 230 57 97
0.756654 -0.378247 0.0150687 224 79 129
-0.208603 -0.837026 -0.0418971 101 21 122
-0.0223712 -0.999744 0.0492391 125 0 134
-0.855126 0.0437058 0.265124 18 133 161
0.605807 -0.795596 0.0477175 205 26 134
-0.422857 0.880223 0.136851 74 240 145
0.787551 -0.423885 0.322892 228 73 169
0.825883 -0.258904 -0.150638 233 94 108
0.0196506 -0.946711 -0.22758 130 7 98
-0.679302 0.676322 0.15518 41 214 147
-0.961411 0.208267 0.105212 5 154 141
-0.441649 -0.730443 0.227237 71 34 156
-0.518929 -0.784807 -0.339165 61 27 84
0.798173 -0.337605 0.173185 229 84 150
0.987682 0.0658256 -0.0636577 253 136 119
-0.101978 0.938939 0.197399 114 247 153
-0.101165 0.862355 -0.332448 115 237 85
-0.103727 0.861947 -0.202477 114 237 102
0.976741 0.0048805 0.263997 252 128 161
-0.359646 -0.787225 -0.149983 82 27 108
-0.381043 0.894338 0.229033 79 242 157
-0.415319 -0.874468 -0.2126 75 16 100
0.146291 -0.89869 0.322892 146 13 169
-0.925782 -0.294539 0.243346 9 90 159
-0.669959 -0.527098 -0.210782 42 60 101
-0.572891 0.74812 -0.171932 54 223 106
-0.74188 -0.592839 -0.201225 33 52 102
-0.0774025 0.866341 0.225547 118 238 156
-0.357658 -0.871777 0.180623 82 16 151
0.634688 -0.696489 0.0340449 208 39 132
0.964762 -0.00563578 0.00292524 251 127 128
-0.475679 -0.809079 -0.322892 67 24 86
0.946543 -0.0258867 0.233831 248 124 157
0.122102 -0.858319 0.179481 143 18 150
0.216087 -0.955687 -0.258548 155 6 95
0.700248 -0.508685 0.329424 217 63 170
0.967581 -0.211398 0.332263 251 101 170
-0.850352 -0.0290419 -0.183507 19 124 104
0.599548 0.596846 -0.0188007 204 204 125
-0.0667705 -0.965531 -0.322873 119 4 86
0.243774 -0.941814 -0.240503 159 7 97
-0.309381 0.817087 0.279563 88 232 163
0.365181 0.775336 0.27536 174 226 163
-0.980625 0.193562 0.293312 2 152 165
0.784746 -0.609422 -0.329688 228 50 85
0.636268 -0.726724 0.322892 209 35 169
-0.312304 -0.920653 0.20158 88 10 153
0.0224201 -0.86476 0.328325 130 17 169
0.154114 -0.873194 -0.339165 147 16 84
-0.77336 -0.342973 -0.0272296 29 84 124
0.446402 0.894771 -0.0857391 184 242 117
0.402243 0.767196 0.164886 179 225 149
0.613983 -0.714831 0.179513 206 36 150
-0.0970442 0.859423 -0.13844 115 237 110
-0.858969 0.273522 -0.322892 18 162 86
-0.983301 -0.0279184 0.0370326 2 124 132
0.349736 -0.799497 0.26597 172 26 161
0.64983 0.712305 -0.106352 210 218 114
-0.753803 -0.632012 -0.108157 31 47 114
-0.843094 -0.102146 0.151216 20 114 147
0.60075 -0.613716 0.0151099 204 49 129
-0.0974558 -0.850812 -0.266368 115 19 94
-0.842446 -0.0815277 0.063221 20 117 136
-0.0911269 -0.988611 -0.136828 116 1 110
-0.672011 -0.689275 -0.293185 42 40 90
-0.866338 -0.465975 0.0874504 17 68 139
-0.78291 -0.324877 0.108559 28 86 141
0.794983 0.546878 -0.20158 229 197 102
-0.50756 0.677037 0.0441525 63 214 133
-0.720791 -0.661231 -0.0357553 36 43 123
0.988084 0.058892 0.136851 253 135 145
-0.527199 0.781009 0.0533985 60 227 134
-0.0557101 0.869224 -0.243226 120 238 96
0.838313 0.270011 -0.319989 234 162 87
0.561603 -0.669772 -0.0537006 199 42 121
-0.943414 -0.192474 0.0647236 7 103 136
0.785835 -0.590579 -0.0912999 228 52 116
-0.814507 0.245284 -0.17857 24 159 105
0.269217 0.930676 0.244173 162 246 159
-0.901013 -0.357069 0.0863443 13 82 139
0.730977 0.611166 0.0287296 221 205 131
-0.199316 -0.957125 -0.185041 102 5 104
-0.834805 -0.446788 -0.0580978 21 71 120
-0.66263 -0.552039 0.0518241 43 57 134
-0.20066 -0.824138 -0.127475 102 22 111
0.872799 -0.367252 0.231942 239 81 157
0.691022 -0.488373 -0.0455272 216 65 122
0.594412 0.75504 -0.322892 203 224 86
-0.240804 -0.943363 0.267198 97 7 162
0.963915 0.0572358 -0.322892 250 135 86
-0.50486 -0.795629 0.142055 63 26 146
-0.143484 -0.969604 -0.274435 109 4 93
0.850111 -0.448352 0.120578 236 70 143
0.518425 0.852603 0.218238 194 236 155
0.193004 -0.974157 -0.0644485 152 3 119
-0.770227 -0.406058 0.238784 29 76 158
0.152201 0.952305 0.00362922 147 249 128
-0.949948 0.200747 0.136851 6 153 145
0.722074 0.652213 -0.231026 220 211 98
0.964661 -0.0862214 0.20158 250 117 153
-0.236785 -0.922049 -0.213974 97 10 100
-0.969027 -0.109155 0.136851 4 114 145
0.663896 -0.69148 0.163598 212 39 148
0.458387 -0.86209 0.0196247 186 18 130
-0.97652 -0.109996 0.185318 3 113 151
-0.715996 -0.661897 0.245722 36 43 159
-0.376401 0.757815 -0.0383696 80 224 123
-0.889334 0.342751 0.259834 14 171 161
0.105922 -0.962437 0.0890748 141 5 139
-0.640593 -0.71576 0.322892 46 36 169
0.483912 0.84484 0.0264979 189 235 131
0.377843 -0.763712 -0.20536 176 30 101
-0.434314 0.747992 0.139155 72 223 145
0.0599186 -0.940353 0.16921 135 8 149
0.92487 -0.379149 0.212442 245 79 155
0.341851 -0.778602 -0.173231 171 28 105
-0.513776 0.819664 0.263198 62 232 161
-0.999005 -0.0467915 0.249019 0 122 159
0.825587 -0.468834 -0.255539 233 68 95
-0.205214 -0.972504 0.235503 101 4 158
0.492863 0.854065 0.18592 190 236 151
-0.96388 0.0610334 -0.293185 5 135 90
0.956101 -0.179882 -0.212595 249 105 100
-0.951303 -0.306224 0.222385 6 88 156
-0.869909 -0.317657 -0.322892 17 87 86
-0.592382 0.623458 0.309965 52 207 167
-0.971201 -0.101109 -0.268757 4 115 93
-0.996972 -0.0770033 -0.264498 0 118 94
-0.0125569 0.999186 0.23754 126 255 158
-0.940513 -0.339702 -0.044556 8 84 122
0.309994 -0.809537 0.177172 167 24 150
-0.882362 0.397773 0.2126 15 178 155
-0.75393 0.645087 0.230488 31 210 157
-0.135614 -0.835815 -0.0183017 110 21 125
-0.813257 0.476648 0.129009 24 188 144
0.354405 0.873125 -0.0545446 173 239 121
-0.860647 0.0772345 -0.115583 18 137 113
-0.721654 -0.606195 -0.0281733 35 50 124
-0.943465 -0.0957801 -0.339165 7 115 84
-0.0491823 -0.950168 -0.259332 121 6 94
0.596739 -0.800904 -0.0405879 204 25 122
-0.844928 0.49373 0.0265078 20 190 131
0.836919 0.490376 -0.244429 234 190 96
-0.787469 0.312278 -0.0918588 27 167 116
-0.855337 -0.0766275 -0.296529 18 118 90
-0.551902 0.655864 0.276976 57 211 163
-0.464233 0.844435 -0.0194825 68 235 125
-0.998246 -0.0590976 0.0866714 0 120 139
0.5208 -0.741264 0.339165 194 33 171
0.767548 -0.574199 -0.159799 225 54 107
0.381911 0.887008 -0.293185 176 241 90
-0.586797 -0.70278 0.322892 53 38 169
0.429581 0.752865 -0.175587 182 223 105
0.470956 -0.718793 -0.30374 188 36 89
0.843804 -0.477778 -0.0945875 235 67 115
0.344697 -0.882384 0.227624 171 15 157
0.773811 0.631183 0.221019 226 208 156
-0.261545 -0.964904 0.24166 94 4 158
-0.862502 -0.506008 -0.068297 18 63 119
-0.689863 0.708677 0.186414 40 218 151
-0.584535 -0.637147 0.132557 53 46 144
-0.733322 0.655674 -0.100073 34 211 115
-0.089952 0.849657 -0.238697 116 236 97
0.837705 -0.256471 0.307353 234 95 167
-0.939971 0.290005 -0.106642 8 164 114
0.938114 0.132906 0.285273 247 144 164
0.455585 -0.73242 0.0574984 186 34 135
0.839922 -0.145695 -0.211291 235 109 101
0.844348 -0.098972 0.168769 235 115 149
-0.951545 -0.131558 0.0594712 6 111 135
0.942076 0.095098 -0.238978 248 140 97
-0.963831 -0.0663484 -0.293185 5 119 90
-0.092245 -0.937782 -0.135899 116 8 110
0.124517 0.95585 0.137084 143 249 145
-0.763776 -0.61957 0.0974658 30 49 140
0.961949 -0.0775143 0.137913 250 118 145
0.842452 0.432373 0.245758 235 183 159
-0.197182 -0.822815 0.000634647 102 23 128
-0.996426 0.0260479 0.13491 0 131 145
-0.582799 -0.812046 -0.228862 53 24 98
-0.260953 0.815818 0.268802 94 232 162
-0.48449 0.842252 -0.293185 66 235 90
-0.820274 0.276714 -0.15416 23 163 108
0.520393 -0.81956 0.240998 194 23 158
-0.502533 -0.706421 -0.178817 63 37 105
-0.0596789 0.970846 0.2126 120 251 155
-0.549537 -0.8024 0.228873 57 25 157
0.845265 0.0440083 0.0649173 235 133 136
-0.502985 -0.86265 -0.320257 63 18 87
-0.974947 0.118509 0.136851 3 143 145
0.560299 -0.638143 0.150309 199 46 147
0.80568 0.54799 -0.259523 230 197 94
-0.346159 -0.93787 -0.314427 83 8 87
-0.460907 -0.886967 0.105272 69 14 141
-0.00214208 0.862275 0.026484 127 237 131
-0.847561 -0.465711 -0.26911 19 68 93
-0.378254 0.757818 -0.0848428 79 224 117
0.296933 -0.924495 -0.239517 165 10 97
-0.911236 0.284426 0.252469 11 164 160
-0.555402 -0.638685 0.0667216 57 46 136
0.853182 0.34743 -0.339165 236 172 84
0.834421 0.500074 -0.185012 234 191 104
0.531615 -0.67202 0.272956 195 42 162
0.936951 0.20245 0.168966 247 153 149
-0.865603 -0.500764 -0.312753 17 64 88
0.85418 0.216364 0.338972 236 155 171
0.918749 -0.209389 0.177717 245 101 150
-0.930173 -0.150585 0.128367 9 108 144
0.854408 0.518853 -0.200539 236 194 102
-0.0545371 -0.941842 0.193578 121 7 152
0.96568 0.114395 -0.12064 251 142 112
-0.0354179 0.941595 0.18865 123 248 152
-0.958395 -0.0171542 -0.142845 5 125 109
-0.6611 0.553446 0.0203804 43 198 130
0.340075 -0.884373 0.28474 171 15 164
0.764187 0.6052 0.136851 225 205 145
-0.299362 -0.954082 -0.0619506 89 6 120
-0.46191 -0.731035 0.134855 69 34 145
0.749425 -0.607981 0.0210341 223 50 130
-0.514136 -0.707931 -0.337993 62 37 84
-0.49085 0.834423 -0.246761 65 234 96
0.970789 0.0712608 -0.255275 251 137 95
0.120857 0.862069 0.235574 143 237 158
0.899823 -0.146793 -0.339165 242 109 84
0.637809 0.592421 0.23593 209 203 158
0.352868 -0.777551 0.231352 172 28 157
0.779278 -0.574141 -0.201584 227 54 102
0.670622 0.580626 0.322892 213 202 169
-0.570518 -0.624901 -0.0513953 55 48 121
0.606663 -0.721013 -0.149423 205 36 108
-0.315555 0.786338 0.0973267 87 228 140
0.712885 0.501449 -0.250957 218 191 96
-0.84845 0.473245 0.322837 19 188 169
0.21369 0.877158 0.322892 155 239 169
0.755965 -0.562478 -0.0290686 224 56 124
0.765705 0.641859 -0.228663 225 209 98
0.848187 -0.414684 -0.195792 236 75 103
0.317991 0.889224 -0.00670046 168 241 127
0.63997 0.554225 -0.0744251 209 198 118
-0.496572 0.847298 0.315382 64 236 168
-0.753719 0.609936 -0.339165 31 205 84
0.645443 -0.751631 0.232764 210 32 157
-0.546185 -0.78717 0.339165 58 27 171
0.137958 -0.948577 0.171249 145 7 149
-0.811666 -0.532198 0.104366 24 60 141
0.767693 0.374913 -0.23805 225 175 97
0.885933 0.397387 -0.0425981 240 178 122
-0.951645 0.192103 0.0457365 6 152 133
0.591 -0.754695 0.16203 203 31 148
-0.383554 -0.88654 -0.070061 79 14 119
-0.612954 -0.671764 0.339165 49 42 171
-0.878983 -0.339603 0.0290454 15 84 131
0.845665 -0.167341 -0.00345763 235 106 127
0.68264 0.500404 0.0649191 215 191 136
-0.832781 0.553416 0.206257 21 198 154
-0.917386 0.143556 -0.339165 11 146 84
-0.71149 -0.494314 -0.167113 37 64 106
0.623878 0.727783 -0.162996 207 220 107
-0.348079 -0.771193 -0.0389494 83 29 123
0.853747 0.0672664 -0.266929 236 136 93
0.500516 -0.831905 0.0574283 191 21 135
-0.915882 -0.260198 -0.292159 11 94 90
0.461857 -0.858413 -0.136912 186 18 110
-0.880524 -0.473239 -0.265463 15 67 94
0.821907 0.496773 0.086334 232 191 139
-0.818787 -0.272935 0.323776 23 93 169
-0.762157 -0.407236 -0.11512 30 76 113
0.0659215 -0.981555 0.255002 136 2 160
0.771322 -0.610512 0.107103 226 50 141
-0.948507 -0.138412 0.0205093 7 110 130
0.926021 -0.174235 -0.00197664 246 105 127
-0.10098 -0.840619 0.0752669 115 20 137
0.593405 -0.636295 0.0407795 203 46 133
-0.450217 -0.728195 -0.263429 70 35 94
0.311043 0.894368 0.230263 167 242 157
0.43817 0.754758 -0.266923 183 224 93
0.36234 0.930625 -0.197417 174 246 102
-0.527357 -0.798894 0.120578 60 26 143
-0.745729 0.602302 0.150171 32 204 147
0.65742 -0.748619 0.285054 211 32 164
-0.762527 0.608707 -0.12064 30 205 112
-0.963246 0.13999 -0.2126 5 145 100
-0.386105 -0.891633 0.249805 78 14 159
-0.572262 -0.799476 -0.0508847 55 26 121
-0.574841 0.621904 0.0830668 54 207 138
-0.978898 -0.0971074 0.057233 3 115 135
-0.932272 -0.0403723 -0.322892 9 122 86
-0.176654 0.930953 0.220807 105 246 156
0.433936 -0.867501 -0.12064 183 17 112
0.578063 -0.687694 0.322892 201 40 169
0.647921 -0.556451 0.233538 210 57 157
-0.197537 -0.98027 0.012912 102 3 129
0.171454 0.901907 0.339165 149 242 171
0.380966 -0.777478 0.156143 176 28 147
-0.147147 0.888778 -0.322892 109 241 86
0.676253 -0.672893 -0.0300257 214 42 124
-0.797696 -0.573382 -0.205911 26 54 101
0.636485 -0.594108 -0.0453589 209 52 122
-0.686655 0.57711 -0.322892 40 201 86
0.79472 0.327242 -0.305254 229 169 89
-0.576724 -0.633217 -0.267799 54 47 93
0.514364 0.826002 -0.0262848 193 233 124
-0.218192 -0.825089 -0.225234 100 22 99
-0.878903 0.339738 -0.181875 15 171 104
-0.995641 0.0934068 -0.094856 1 139 115
-0.766569 0.379852 -0.254638 30 176 95
-0.228778 -0.919482 -0.284649 98 10 91
0.358489 -0.878469 -0.239562 173 15 97
0.392884 -0.890912 -0.0357553 178 14 123
0.296587 -0.928338 -0.136912 165 9 110
-0.416827 0.75689 0.114173 74 224 142
-0.422222 0.873414 -0.255135 74 239 95
-0.31561 0.931655 0.0294402 87 246 131
-0.342148 -0.883779 -0.269692 84 15 93
-0.464506 -0.828642 0.266355 68 22 161
-0.251892 0.824867 0.0441981 95 233 133
-0.94631 0.0340595 0.225417 7 132 156
0.53926 0.822726 -0.0966733 196 232 115
-0.914631 -0.226604 -0.158546 11 99 107
-0.559771 -0.826655 0.321441 56 22 168
0.913234 -0.250471 0.229246 244 96 157
-0.222953 0.91553 -0.0886369 99 244 116
-0.831923 -0.521892 -0.337541 21 61 84
0.978872 -0.0974551 0.031074 252 115 131
0.135232 -0.848071 0.29685 145 19 165
-0.909072 0.265092 -0.22518 12 161 99
0.21894 0.947527 0.229646 155 248 157
-0.798048 0.453478 0.339165 26 185 171
0.994787 0.10197 -0.0789015 254 141 117
0.367469 0.782576 0.128906 174 227 144
-0.104447 -0.994352 0.295564 114 1 165
-0.932625 0.351733 0.192956 9 172 152
0.935455 -0.111854 0.322892 247 113 169
-0.927557 -0.316545 -0.318158 9 87 87
-0.329463 -0.944145 -0.125975 85 7 111
0.867219 -0.000894004 0.184237 238 127 151
0.361021 -0.874138 -0.0837036 174 16 117
0.43256 0.825283 -0.322892 183 233 86
0.946338 -0.0386249 -0.251253 248 123 95
0.819996 -0.308392 0.338249 232 88 171
-0.418134 -0.907895 0.199478 74 12 153
0.742989 -0.442705 0.136819 222 71 145
-0.682756 0.653278 -0.0813329 40 211 117
0.859095 -0.400312 -0.28767 237 76 91
-0.939811 0.33734 0.287842 8 171 164
0.956436 -0.245036 -0.334944 249 96 85
0.675296 0.657834 0.0373038 214 211 132
-0.368336 0.872575 -0.256492 81 239 95
0.146888 0.981404 -0.330937 146 253 85
0.979268 -0.202413 0.0716524 252 102 137
0.82713 0.186664 0.118068 233 151 143
-0.690509 0.72316 -0.205686 39 220 101
0.455454 0.890236 0.000789207 186 241 128
-0.529458 0.828962 -0.113141 60 233 113
0.446311 -0.861957 0.264898 184 18 161
0.778416 -0.385348 -0.208194 227 78 101
-0.156179 0.98771 0.309891 108 253 167
0.286599 0.898498 0.193729 164 242 152
-0.725798 -0.516987 -0.339165 35 62 84
0.811921 -0.551849 -0.185101 231 57 104
0.422966 -0.752701 -0.0908778 181 32 116
-0.712423 -0.522783 0.339164 37 61 171
0.114027 0.838292 -0.0305473 142 234 124
-0.452444 -0.788853 -0.322892 70 27 86
-0.462807 0.741147 -0.280174 68 222 92
-0.937876 0.237974 -0.0863339 8 158 116
0.906747 -0.243204 -0.339165 243 96 84
-0.842759 -0.421596 -0.0767901 20 74 118
-0.698943 0.677429 0.2126 38 214 155
-0.337159 0.914023 0.266571 85 244 161
0.00430782 0.967187 -0.26481 128 251 94
-0.0122408 0.847354 0.10247 126 236 141
-0.69191 -0.542999 -0.321045 39 58 87
0.0721776 -0.955848 0.111622 137 6 142
-0.766547 -0.416334 -0.261705 30 74 94
0.726565 -0.636073 -0.0194825 220 46 125
-0.716685 0.672793 0.337234 36 213 170
0.941947 0.0383615 0.0372695 248 132 132
-0.901932 -0.29266 0.0110998 13 90 129
-0.133964 0.847626 -0.288916 110 236 91
-0.196152 -0.980546 0.0786738 102 2 138
-0.377888 -0.924408 -0.231356 79 10 98
-0.689755 -0.641978 -0.189653 40 46 103
0.947878 0.200194 0.272621 248 153 162
0.406096 -0.887296 -0.293185 179 14 90
0.702178 0.513792 -0.33453 217 193 85
-0.183941 -0.957923 -0.0859272 104 5 117
0.917598 0.313556 0.339122 244 167 171
-0.480192 0.713982 0.313503 66 219 167
0.484572 -0.808186 0.0360873 189 24 132
-0.980948 -0.194025 -0.125387 2 103 112
0.824551 -0.269995 0.192293 233 93 152
-0.285265 0.941274 -0.185241 91 248 104
0.206039 -0.84239 0.184532 154 20 151
0.584858 0.810408 -0.225519 202 231 99
-0.522822 -0.809964 -0.260309 61 24 94
0.397894 0.764237 -0.319503 178 225 87
0.839022 0.115808 -0.0868444 234 142 116
0.112452 0.923066 -0.322892 142 245 86
0.118972 0.838102 0.0706948 143 234 137
0.842748 0.206612 -0.194218 235 154 103
-0.814387 0.345174 -0.322564 24 172 86
0.950283 0.000516864 -0.201054 249 128 102
0.986662 -0.102968 0.279101 253 114 163
-0.931953 0.34673 -0.225766 9 172 99
0.52383 0.827456 -0.238043 194 233 97
-0.732495 0.651525 -0.261506 34 211 94
-0.871437 -0.40033 0.247246 16 76 159
0.799 -0.301894 0.235048 229 89 157
0.972055 0.0845616 0.266003 251 138 161
-0.981373 -0.00184996 -0.263522 2 127 94
0.57382 0.798649 0.112274 201 229 142
-0.780149 0.381361 0.205496 28 176 154
0.361003 0.927095 0.190474 174 246 152
-0.65835 -0.674129 -0.150286 44 42 108
-0.696506 0.658955 -0.293185 39 212 90
-0.754285 0.564766 -0.0610191 31 200 120
-0.323836 -0.844108 0.322892 86 20 169
-0.347628 -0.908318 -0.212384 83 12 100
0.981402 0.191638 0.0877861 253 152 139
0.91933 0.206816 -0.187062 245 154 104
-0.533141 -0.712768 0.0482149 60 37 134
0.291416 0.821764 -0.33571 165 232 85
0.468484 0.817568 0.154001 187 232 147
0.97493 0.222351 -0.121392 252 156 112
-0.386196 -0.754972 0.120672 78 31 143
0.923455 0.35707 -0.136912 245 173 110
-0.371432 0.927892 -0.226543 80 246 99
0.0564229 0.998345 0.100233 135 255 140
0.924782 -0.293463 0.086334 245 90 139
-0.284508 0.816075 0.119848 91 232 143
-0.420526 -0.785327 -0.322892 74 27 86
0.786633 0.547853 0.0612466 228 197 135
0.21374 0.917747 -0.0605201 155 245 120
-0.812628 -0.292791 0.103407 24 90 141
0.931508 0.363682 -0.0529428 246 174 121
0.395676 0.855788 -0.192474 178 237 103
-0.936099 -0.142517 -0.253744 8 109 95
-0.820128 0.523625 -0.20158 23 194 102
0.733186 0.4572 -0.11304 221 186 113
0.623533 0.744486 -0.293185 207 222 90
0.468571 0.730416 0.195882 187 221 152
-0.935639 0.307318 0.0176372 8 167 130
-0.349214 -0.902152 -0.070061 83 12 119
0.195069 0.833388 -0.260353 152 234 94
0.305956 -0.92958 -0.185012 167 9 104
0.386894 -0.908595 0.136811 177 12 145
-0.776523 0.62007 0.233073 28 207 157
-0.424788 -0.878626 0.136851 73 15 145
-0.968182 0.161752 0.238426 4 148 158
-0.501601 0.804665 -0.0302068 64 230 124
-0.882562 -0.392659 0.20158 15 77 153
-0.980259 0.197353 0.0136732 3 153 129
0.669381 0.742874 -0.0538044 213 222 121
-0.483443 -0.8357 -0.273444 66 21 93
-0.843957 -0.489218 0.267776 20 65 162
-0.0358305 -0.999342 -0.301841 123 0 89
0.653054 -0.707079 0.086334 211 37 139
-0.56769 0.649203 0.0417094 55 210 133
-0.500468 -0.846855 -0.0966757 64 20 115
0.818898 0.215682 0.0817918 232 155 138
0.48186 0.857565 0.102022 189 237 141
-0.999691 0.0235841 0.313132 0 131 167
0.257903 0.82307 -0.0535184 160 232 121
-0.923727 0.366253 0.136316 10 174 145
-0.438053 -0.899026 -0.253504 72 13 95
-0.18505 -0.842358 0.0438449 104 20 133
0.793889 -0.308805 0.201774 229 88 153
0.562797 0.65333 0.0316069 199 211 132
-0.992654 -0.115091 0.291356 1 113 165
0.31229 0.812427 -0.233823 167 231 98
0.178435 0.843382 -0.00563309 150 235 127
0.491497 -0.838547 -0.070061 190 21 119
-0.30948 -0.806663 0.111199 88 25 142
0.352854 -0.912742 -0.0357553 172 11 123
0.251188 -0.961769 0.0158472 160 5 130
0.0805035 0.968039 -0.271568 138 251 93
-0.649641 -0.704918 0.175835 45 38 150
-0.276164 -0.831483 -0.307766 92 21 88
-0.645629 -0.575626 -0.140072 45 54 110
0.21208 -0.81922 0.0539522 155 23 134
-0.34811 0.893133 -0.156088 83 241 108
0.965211 -0.180169 0.0185794 251 105 130
-0.791202 0.584474 -0.304675 27 202 89
-0.192938 -0.937311 0.212956 103 8 155
0.3221 -0.890461 -0.322892 169 14 86
-0.621219 -0.730037 -0.160659 48 34 107
-0.464183 -0.72885 -0.114928 68 35 113
0.853374 0.489301 0.0997101 236 190 140
-0.834423 -0.4718 -0.16892 21 67 106
0.608268 0.708087 -0.322892 205 218 86
-0.853301 0.330357 -0.339165 19 170 84
-0.734742 0.460331 -0.331507 34 186 85
0.467258 -0.851575 -0.269009 187 19 93
-0.216261 -0.865742 -0.00813938 100 17 126
-0.865821 -0.411295 -0.151061 17 75 108
-0.943422 0.240411 0.2126 7 158 155
-0.264262 -0.932679 0.185012 94 9 151
0.537413 0.662433 -0.218794 196 212 100
-0.215556 -0.950327 -0.245674 100 6 96
-0.967574 0.0102541 0.256086 4 129 160
-0.117388 -0.935623 -0.192753 113 8 103
-0.832858 0.260924 0.268208 21 161 162
-0.619974 0.584824 0.208943 48 202 154
-0.443168 0.831562 -0.188066 71 234 104
0.934996 0.283093 -0.321544 247 164 87
-0.679723 0.635663 0.322892 41 209 169
0.0896882 -0.866205 -0.240173 139 17 97
0.74717 0.516584 -0.339165 223 193 84
-0.693866 0.485576 0.0847051 39 189 138
-0.944927 0.180337 -0.339165 7 150 84
-0.914934 -0.306597 0.2126 11 88 155
-0.0312261 0.995689 0.000139582 124 254 128
0.744723 0.577333 0.172397 222 201 149
0.332507 -0.796563 -0.324022 170 26 86
-0.30939 0.950777 -0.0430262 88 249 122
0.576522 0.654425 0.259156 201 211 161
0.156014 -0.987746 -0.0552422 147 2 120
-0.557978 0.779444 -0.0520054 56 227 121
-0.931286 -0.246047 0.010225 9 96 129
-0.810903 0.283468 0.300026 24 164 166
0.860318 -0.0909289 -0.142613 237 116 109
-0.967794 0.0656098 -0.2126 4 136 100
0.780138 -0.578816 -0.25139 227 54 95
0.985905 -0.166916 0.311361 253 106 167
0.91052 0.0613127 -0.339165 244 135 84
0.558598 0.635147 -0.0118672 199 208 126
0.194699 -0.823395 -0.0480002 152 23 121
0.519522 0.81433 -0.184983 194 231 104
-0.881266 -0.472528 -0.0273035 15 67 124
0.459405 0.855202 0.185012 186 237 151
-0.0715627 -0.955904 0.0415411 118 6 133
-0.81411 -0.31255 0.257703 24 88 160
0.301422 -0.892797 0.151378 166 14 147
0.152613 0.957888 -0.101549 147 250 115
0.745616 -0.623992 0.293246 223 48 165
-0.237936 0.954481 0.068364 97 249 136
0.860635 -0.0490317 -0.00190925 237 121 127
0.945411 0.198482 -0.0194825 248 153 125
0.917315 0.278152 0.153485 244 163 147
-0.721442 -0.648153 0.136851 36 45 145
0.0983404 -0.857562 -0.32427 140 18 86
0.518442 0.704217 0.289019 194 217 164
0.857284 0.419562 0.0310343 237 181 131
0.790574 0.526813 0.0104793 228 195 129
0.954064 0.209424 -0.228873 249 154 98
-0.639241 -0.76898 -0.231982 46 29 98
-0.454665 -0.736205 -0.146102 70 34 109
0.133746 0.932765 0.0241682 145 246 131
0.995146 -0.0984686 -0.11351 254 115 113
0.793004 -0.538503 -0.0134161 229 59 126
-0.963349 0.13093 0.0264979 5 144 131
-0.0771592 -0.859398 0.0730344 118 18 137
0.888448 0.422103 -0.310598 241 181 88
-0.539333 0.805512 -0.0815581 59 230 117
0.133926 0.846626 -0.276546 145 235 92
0.344365 -0.938702 -0.110043 171 8 113
-0.280331 -0.905089 0.262714 92 12 161
0.76051 0.617051 -0.070061 224 206 119
0.640844 0.577022 0.0320316 209 201 132
-0.90972 0.374244 0.0414957 12 175 133
-0.213983 0.972547 -0.283655 100 251 91
-0.122005 0.854838 -0.0946275 112 236 115
0.0682183 0.997616 0.23807 136 255 158
-0.744258 0.658536 -0.329449 33 211 85
0.913232 0.352602 0.211416 244 172 154
-0.229778 -0.963895 0.136851 98 5 145
0.869659 0.0644631 0.257733 238 136 160
0.189886 0.828881 0.172883 152 233 150
-0.401035 -0.900233 0.136844 76 13 145
0.413416 -0.764319 0.332815 180 30 170
0.7612 -0.378275 -0.165879 225 79 106
-0.798245 -0.28957 0.148655 26 91 146
0.932361 0.308219 -0.295035 246 167 90
-0.745772 0.451284 -0.252336 32 185 95
-0.837153 0.441501 0.322892 21 184 169
0.834065 -0.498006 -0.262161 234 64 94
0.340416 -0.852036 -0.339165 171 19 84
-0.921899 0.262622 0.0158107 10 161 130
-0.931262 -0.241396 0.212603 9 97 155
0.815093 0.447015 -0.322892 231 184 86
-0.767422 0.591672 0.2126 30 203 155
-0.0906414 -0.846215 0.0286809 116 20 131
0.204977 -0.822253 -0.100067 154 23 115
-0.260471 -0.836503 0.307786 94 21 167
0.522478 0.688851 0.130917 194 215 144
-0.105697 -0.9603 0.0582653 114 5 135
0.128033 0.947657 0.0863244 144 248 139
0.654046 0.729592 0.22898 211 221 157
0.946301 -0.323086 0.254934 248 86 160
0.904982 0.411 0.189819 243 180 152
0.964994 0.143469 0.0264979 251 146 131
0.905328 0.423684 -0.200068 243 182 102
-0.551163 0.660785 0.313807 57 212 168
0.838598 -0.472156 -0.13034 234 67 111
0.162895 -0.844013 -0.306323 148 20 88
0.838828 0.111764 -0.052281 234 142 121
0.0371139 0.94241 0.0903839 132 248 139
0.014926 0.942144 -0.0147109 129 248 126
0.533872 0.806511 0.322885 196 230 169
-0.480164 0.711359 -0.290075 66 218 91
-0.258786 -0.906073 0.0402565 95 12 133
0.535448 -0.715641 -0.00697861 196 36 127
-0.0304547 -0.941776 0.0254562 124 7 131
-0.914198 -0.349943 0.211775 11 83 155
0.955127 0.152436 -0.260483 249 147 94
0.212169 0.825312 -0.206825 155 233 101
-0.423759 -0.859829 0.168069 73 18 149
0.759633 -0.416985 -0.171459 224 74 106
0.683406 -0.656023 0.222034 215 44 156
-0.176597 0.829591 -0.126865 105 233 111
-0.755081 0.569531 0.0829753 31 200 138
-0.743703 0.60462 -0.246529 33 205 96
-0.603826 -0.797069 -0.300424 51 26 89
0.765727 -0.643217 -0.256212 225 45 95
0.00839048 0.975599 0.321861 129 252 169
-0.338375 0.79173 0.316468 84 228 168
0.579347 -0.787838 -0.2452 201 27 96
0.192833 -0.98049 -0.290849 152 2 90
0.290675 -0.91047 -0.339165 165 11 84
-0.62832 -0.569437 0.119406 47 55 143
-0.401702 0.914155 0.0492646 76 244 134
-0.420464 -0.905914 -0.220366 74 12 99
0.908029 -0.268497 0.267187 243 93 162
0.478116 0.817372 -0.22455 188 232 99
-0.603572 -0.761042 0.293246 51 30 165
-0.791676 -0.57089 0.293246 27 55 165
0.396274 -0.750672 -0.142736 178 32 109
0.929769 -0.232018 -0.12064 246 98 112
0.43233 -0.85554 -0.165136 183 18 106
0.875199 0.449046 0.0806427 239 185 138
0.490329 0.711053 0.102701 190 218 141
-0.646983 -0.599429 -0.0788871 45 51 117
0.531086 0.796335 -0.292907 195 229 90
-0.60617 0.592566 0.111234 50 203 142
-0.902396 -0.295841 0.27089 12 90 162
-0.104492 -0.841374 0.115464 114 20 142
-0.357094 0.911277 0.211804 82 244 155
-0.715824 0.629147 -0.0863339 36 208 116
-0.0245878 0.961962 0.0748795 124 250 137
-0.811822 -0.250291 -0.156436 24 96 108
-0.0674956 0.97233 -0.185012 119 251 104
-0.966365 0.190714 -0.185581 4 152 104
-0.065663 -0.956321 -0.0496282 119 6 121
-0.971013 0.12717 0.320047 4 144 168
0.637863 -0.584987 -0.149618 209 53 108
0.171453 0.956626 -0.293185 149 249 90
0.772864 0.382488 -0.0299632 226 176 124
0.847064 0.51983 0.0725079 236 194 137
0.543378 -0.648953 -0.00896036 197 45 126
0.821489 -0.436018 -0.339165 232 72 84
0.285698 -0.79662 -0.0214934 164 26 125
0.243301 0.817517 0.218112 159 232 155
0.90072 0.434337 0.0733448 242 183 137
0.0580322 0.872191 0.337405 135 239 171
-0.912937 0.368069 0.336505 11 174 170
-0.720941 0.442756 -0.0321158 36 184 123
-0.704902 0.625297 0.0623644 38 207 135
0.142764 -0.931445 -0.113945 146 9 113
0.430042 0.8443 -0.0206774 182 235 125
-0.42571 -0.824945 -0.322892 73 22 86
-0.775495 -0.347953 0.165396 29 83 149
-0.0536606 -0.975038 0.293732 121 3 165
-0.490513 0.860111 0.0264856 65 237 131
0.816386 -0.25454 0.249332 232 95 159
-0.910842 -0.40965 -0.216654 11 75 100
-0.852884 -0.119411 0.317352 19 112 168
0.643379 0.737234 0.338475 210 221 171
-0.280787 -0.942698 -0.312081 92 7 88
-0.85667 0.096872 0.0145362 18 140 129
0.763017 -0.4023 0.0548602 225 76 134
-0.495132 0.862958 0.223145 64 238 156
-0.929006 0.295366 0.2126 9 165 155
-0.501955 -0.685043 -0.151695 64 40 108
0.942221 0.00826344 -0.0836029 248 129 117
0.0910509 -0.953534 0.212754 139 6 155
-0.815211 -0.280115 -0.321302 24 92 87
-0.720514 -0.61581 0.220126 36 49 156
0.936225 0.106531 0.177153 247 141 150
0.75941 -0.616232 0.0512502 224 49 134
0.782577 -0.5745 0.00270229 227 54 128
0.0621746 -0.989454 -0.33184 135 1 85
0.995712 -0.091752 0.118965 254 116 143
-0.495062 -0.868541 -0.203132 64 17 102
-0.824758 0.455725 0.0152077 22 186 129
0.560022 0.769259 0.120616 199 226 143
-0.563371 -0.761837 -0.220742 56 30 99
-0.816059 0.471131 0.165505 23 188 149
0.198461 -0.980171 0.251407 153 3 160
-0.185909 0.826088 -0.07866 104 233 117
-0.419378 0.763515 -0.244502 74 225 96
-0.267283 -0.828028 -0.230076 93 22 98
-0.38898 0.863143 0.00266849 78 238 128
0.810622 0.251739 -0.142228 231 160 109
-0.652886 -0.70192 0.265218 44 38 161
-0.664031 0.555058 -0.14966 43 198 108
-0.220961 0.942891 -0.00495358 99 248 127
-0.373939 -0.926962 0.0766917 80 9 137
-0.445666 -0.885648 -0.13662 71 15 110
-0.86026 0.469581 0.136851 18 187 145
0.971467 -0.0889728 -0.136912 251 116 110
-0.384217 -0.785888 0.0479993 79 27 134
0.592937 -0.731828 0.322892 203 34 169
-0.842548 0.183036 0.0186923 20 151 130
-0.893614 -0.394666 0.0615099 14 77 135
0.931518 0.191005 0.322892 246 152 169
0.933928 0.252828 0.0398882 247 160 133
-0.842819 -0.184122 -0.0668575 20 104 119
-0.596771 0.782006 0.0658788 51 227 136
0.361312 -0.765231 0.0537658 174 30 134
-0.0967911 0.900587 0.339165 115 242 171
-0.651124 -0.722529 -0.21249 44 35 100
0.394806 -0.901017 0.101366 178 13 140
0.713082 0.508596 -0.305989 218 192 88
0.726642 -0.641828 0.2126 220 46 155
-0.369981 -0.768714 -0.220332 80 29 99
-0.308839 0.90168 0.322892 88 242 169
0.974623 0.223786 0.00277517 252 156 128
-0.835655 -0.133675 -0.0557818 21 110 120
0.0910651 -0.937891 0.132749 139 8 144
-0.609733 -0.727689 0.290072 50 35 164
0.624972 0.71651 -0.0598748 207 219 120
0.824515 -0.253181 -0.0479917 233 95 121
-0.799065 0.511714 -0.0231362 26 193 125
0.391608 -0.756267 0.198791 177 31 153
-0.172683 0.945863 -0.245672 105 248 96
0.733106 -0.592016 0.154433 221 52 147
0.503038 -0.700615 -0.0244777 192 38 124
-0.910802 0.412743 0.0848935 11 180 138
0.79062 -0.521223 -0.239752 228 61 97
0.972383 0.0306458 -0.185012 251 131 104
-0.700793 -0.473718 0.0145338 38 67 129
0.540722 -0.655792 0.164875 196 44 149
0.364252 -0.766241 -0.133375 174 30 110
0.690942 -0.668783 0.120578 216 42 143
0.848967 0.01502 0.14809 236 129 146
0.514633 -0.823793 0.0849945 193 22 138
0.839704 -0.182564 -0.303443 235 104 89
0.794787 -0.573662 0.319045 229 54 168
-0.972045 -0.163361 0.268478 4 107 162
0.716119 0.470791 -0.274772 219 188 92
0.928948 -0.297449 0.241537 246 90 158
0.074797 0.971686 0.0647013 137 251 136
0.713436 -0.539515 0.339165 218 59 171
0.386769 -0.921902 0.203193 177 10 153
0.521471 0.821135 0.120578 194 232 143
0.386547 -0.859347 0.188768 177 18 152
0.800547 0.545135 0.184992 230 197 151
0.42889 0.731129 0.108948 182 221 141
-0.620111 -0.575097 -0.00525063 48 54 127
-0.117356 -0.967211 0.212479 113 4 155
-0.103733 0.921897 -0.322892 114 245 86
-0.674194 -0.549062 0.221226 42 57 156
-0.174031 -0.953242 -0.0269291 105 6 124
0.497089 0.708093 -0.328772 191 218 86
0.314817 0.810195 0.217099 168 231 155
-0.451413 -0.715576 0.0320834 70 36 132
0.949873 0.250775 -0.0906542 249 159 116
0.869042 -0.382818 0.0691858 238 79 136
0.801294 0.344549 -0.260482 230 171 94
-0.679883 -0.530047 0.00627232 41 60 128
-0.816925 -0.427926 -0.322892 23 73 86
-0.94077 0.0534053 -0.164057 8 134 107
0.640789 0.559788 0.183518 209 199 151
-0.843442 0.238211 -0.310129 20 158 88
-0.0437855 0.968247 -0.0185485 122 251 125
-0.58455 0.650702 0.292115 53 210 165
0.0559795 -0.875501 0.313972 135 16 168
0.722229 -0.472764 0.0845824 220 67 138
-0.0362487 0.870891 -0.335624 123 239 85
0.745626 0.666337 -0.11521 223 212 113
-0.817871 -0.536181 -0.0592598 23 59 120
-0.245894 0.830408 -0.33013 96 233 85
0.805211 0.564922 0.310583 230 200 167
0.876948 0.317248 0.322892 239 168 169
0.411245 0.74526 0.189733 180 223 152
-0.905745 -0.368717 -0.33851 12 80 84
-0.682743 0.657893 -0.263343 40 211 94
-0.855637 -0.149397 -0.208357 18 108 101
0.676246 0.549055 -0.243883 214 198 96
0.804687 -0.344712 0.301008 230 84 166
0.218646 -0.928953 -0.292535 155 9 90
-0.794742 0.366757 0.299255 26 174 166
0.683043 0.685833 0.120536 215 215 143
-0.94671 -0.0199704 0.262888 7 125 161
-0.786059 0.542946 0.010225 27 197 129
0.973748 -0.0553443 0.201926 252 120 153
-0.586399 0.783045 -0.185012 53 227 104
0.549396 -0.674959 -0.232541 198 41 98
-0.970019 -0.0963369 -0.2126 4 115 100
-0.495764 -0.807064 0.238524 64 25 158
-0.0912784 -0.974032 -0.338528 116 3 84
-0.639365 -0.714331 -0.0731455 46 36 118
-0.784874 -0.550334 -0.00314259 27 57 127
0.911762 -0.408469 -0.243427 244 75 96
0.856159 0.00418465 0.264142 237 128 161
0.644016 -0.687875 -0.170336 210 40 106
-0.250666 0.935894 -0.185012 96 247 104
0.973211 0.125693 0.070061 252 144 136
-0.931014 -0.145331 -0.0431586 9 109 122
-0.440547 -0.863073 0.106051 71 17 141
-0.868014 0.495105 0.261379 17 191 161
0.152576 -0.957513 -0.0964479 147 5 115
-0.617423 0.617061 -0.269548 49 206 93
0.65488 -0.561439 -0.0623648 211 56 120
0.684652 -0.525576 -0.0831119 215 60 117
-0.147415 -0.838389 0.191353 109 21 152
0.964223 0.168658 -0.136912 250 149 110
0.870473 0.360854 0.141543 238 174 146
0.688342 -0.702737 -0.0072696 215 38 127
0.380225 0.924943 -0.254744 176 245 95
0.67137 0.695277 -0.120631 213 216 112
0.838482 0.114514 0.0549535 234 142 135
-0.501274 0.797917 0.0700224 64 229 136
-0.917157 -0.248393 -0.249962 11 96 96
0.669561 0.537998 -0.298952 213 196 89
0.0503116 -0.997545 0.319459 134 0 168
-0.472333 0.820691 0.226231 67 232 156
0.451344 -0.824821 0.322892 185 22 169
0.027898 0.978878 -0.0115486 131 252 126
-0.207655 0.950362 0.2126 101 249 155
-0.930483 -0.154242 0.194237 9 108 152
-0.4181 -0.875837 -0.0357553 74 16 123
0.204624 -0.842516 0.0325876 154 20 132
0.440913 0.838006 -0.274947 184 234 92
0.256766 -0.938352 0.185012 160 8 151
0.437838 -0.757843 -0.0482517 183 31 121
0.26128 -0.831439 -0.250709 161 21 96
-0.882761 0.078387 -0.339165 15 137 84
-0.723705 0.485618 -0.250348 35 189 96
0.634906 -0.703331 -0.322892 208 38 86
0.835389 -0.191823 0.276033 234 103 163
0.551253 -0.834248 0.0617755 198 21 135
0.972508 0.00787949 -0.246101 251 129 96
-0.43786 0.852711 -0.167514 72 236 106
-0.948466 0.316783 0.308952 7 168 167
-0.750222 -0.434859 0.182969 32 72 151
0.869777 -0.493386 0.105832 238 65 141
-0.842434 -0.537616 0.220701 20 59 156
-0.894198 0.0227346 0.322892 13 130 169
0.852482 0.344373 0.322892 236 171 169
0.350286 0.936607 -0.111025 172 247 113
0.677626 0.509303 0.110508 214 192 142
-0.791232 0.61068 0.0575477 27 205 135
-0.790917 0.512204 0.0499307 27 193 134
-0.554614 -0.812328 0.0182752 57 24 130
-0.788601 0.324579 -0.215984 27 169 100
0.492145 -0.818795 0.212625 190 23 155
0.357677 0.901283 0.264604 173 242 161
-0.0945529 0.842965 0.129962 115 235 144
0.468501 0.739035 0.295176 187 222 165
-0.864717 -0.0560897 0.171281 17 120 149
-0.916282 -0.317962 -0.0759655 11 87 118
-0.906899 0.314782 0.033244 12 168 132
0.146974 -0.946564 -0.322892 146 7 86
-0.719764 -0.619474 0.0859095 36 49 138
0.584408 -0.63551 -0.0898177 202 46 116
-0.993431 0.0650648 -0.326376 1 136 86
-0.799654 0.572912 -0.00804796 26 201 126
0.844654 0.0543145 -0.0657315 235 134 119
0.470626 -0.835089 0.137678 188 21 145
0.362017 -0.925483 0.135889 174 10 145
-0.935309 0.250074 -0.25723 8 159 95
-0.416215 -0.758531 -0.144847 74 31 109
0.550199 0.824211 0.0262665 198 233 131
0.644366 0.586786 -0.250147 210 202 96
0.192202 0.981331 0.0731852 152 253 137
0.12776 -0.854577 0.113217 144 19 142
0.992384 0.122974 -0.301217 254 143 89
0.883227 -0.339554 -0.107216 240 84 114
-0.919769 0.204866 -0.051775 10 154 121
-0.959269 -0.0220317 0.178624 5 125 150
0.388472 -0.784561 -0.301498 177 27 89
0.818804 -0.220116 -0.116748 232 99 113
0.875089 0.418481 -0.339152 239 181 84
-0.82014 -0.207135 -0.0118728 23 101 126
-0.930479 -0.211283 -0.201386 9 101 102
0.973765 0.0424959 0.0863637 252 133 139
-0.99575 0.0896057 0.0160862 1 139 130
0.15151 -0.855955 -0.0547447 147 18 121
0.443115 -0.883166 -0.242085 184 15 97
-0.442866 0.837439 0.283736 71 234 164
0.925609 0.378357 0.302894 246 176 166
-0.951689 0.110238 0.086334 6 142 139
0.940342 0.0601034 0.141942 247 135 146
-0.502024 0.845907 0.110093 63 235 142
-0.704429 0.709757 -0.0240177 38 218 124
0.305286 -0.896341 -0.225325 166 13 99
-0.653932 0.564473 0.106012 44 199 141
-0.977395 -0.141657 0.232228 3 109 157
0.428514 -0.752176 0.0144571 182 32 129
0.948107 -0.314457 0.225071 248 87 156
-0.322854 -0.946174 -0.210601 86 7 101
0.902026 -0.186439 0.322892 243 104 169
0.157223 -0.975559 -0.26097 148 3 94
-0.89038 0.38625 -0.0202183 14 177 125
0.388632 0.88861 0.26142 177 241 161
-0.528803 0.668805 -0.213134 60 213 100
0.667389 -0.568311 0.338532 213 55 171
0.841204 0.492032 0.228917 235 190 157
0.754251 -0.610825 -0.0194825 224 50 125
-0.478757 0.70967 0.2622 66 218 161
0.565117 0.783072 0.26598 200 227 161
0.825771 -0.487085 0.178162 233 65 150
-0.26373 -0.938103 0.0552033 94 8 135
0.219379 0.818952 -0.115331 155 232 113
0.936836 0.261904 0.23567 247 161 158
-0.826559 0.182104 -0.0633144 22 151 119
0.334351 0.911972 0.13541 170 244 145
0.565739 0.773866 -0.141302 200 226 109
-0.401447 -0.911657 -0.0733487 76 11 118
0.851672 0.118146 0.308336 236 143 167
0.709712 -0.485585 -0.309367 218 66 88
0.944283 -0.223889 0.0566724 248 99 135
-0.579763 0.78098 -0.25373 54 227 95
-0.215148 0.971474 -0.190628 100 251 103
0.921696 -0.319301 0.272682 245 87 162
-0.045157 -0.845798 -0.08668 122 20 116
-0.349219 0.923377 0.33511 83 245 170
0.529993 -0.847364 0.12748 195 19 144
0.150597 -0.935793 -0.287084 147 8 91
-0.895483 -0.389592 0.228873 13 78 157
-0.0429633 0.950621 0.0306621 122 249 131
-0.295458 0.923304 0.264831 90 245 161
0.920889 -0.199671 -0.189525 245 102 103
-0.987518 -0.157079 -0.0804317 2 107 117
0.40888 -0.741552 -0.0185124 180 33 125
0.697027 -0.690314 -0.08512 216 39 117
0.786156 -0.326919 -0.194596 228 86 103
0.960333 -0.271599 -0.322079 250 93 86
-0.641375 0.571171 -0.29757 46 200 90
0.99237 -0.123357 0.256069 254 112 160
-0.681914 -0.542904 -0.251925 41 58 95
-0.968586 0.212885 -0.0706005 4 155 118
-0.911082 0.134927 0.322892 11 145 169
-0.336096 -0.880292 0.154458 85 15 147
0.850648 0.44861 0.0140698 236 185 129
0.857625 -0.501863 -0.281189 237 64 92
0.309718 -0.915957 0.086334 167 11 139
-0.841246 -0.198331 0.326876 20 102 169
0.115312 0.989551 0.135134 142 254 145
0.0518243 -0.96392 -0.247394 134 5 96
0.816517 0.313039 -0.288726 232 167 91
-0.557973 -0.812963 -0.185896 56 24 104
-0.809993 -0.244201 -0.0268577 24 96 124
-0.865932 0.497831 -0.0490744 17 191 121
-0.461448 -0.725613 -0.308851 69 35 88
0.481243 0.876576 -0.268548 189 239 93
-0.944703 0.0191697 0.322892 7 130 169
-0.933334 -0.291583 0.070061 8 90 136
0.245009 0.912669 -0.322892 159 244 86
0.724507 -0.483777 -0.244962 220 66 96
-0.79935 -0.554039 -0.275019 26 57 92
0.363047 -0.883036 -0.293127 174 15 90
0.838265 -0.515501 0.185396 234 62 151
-0.582955 -0.654319 0.309491 53 44 167
0.946657 0.317087 -0.0343248 248 168 123
0.984374 0.175909 0.117217 253 150 142
-0.423822 -0.90571 0.307638 73 12 167
0.546484 -0.825153 -0.186937 197 22 104
0.701865 0.654394 0.183479 217 211 151
-0.182711 -0.954764 0.269155 104 6 162
-0.800764 0.320093 0.0372283 25 168 132
0.939496 0.270629 -0.136912 247 162 110
0.939148 0.247496 0.136608 247 159 145
0.174788 0.829066 -0.0974733 150 233 115
-0.875474 -0.449921 -0.185401 16 70 104
-0.086535 0.841633 -0.0318714 116 235 123
0.27004 -0.908026 0.2004 162 12 153
-0.938285 -0.284036 -0.230868 8 91 98
-0.311899 -0.889171 0.18985 88 14 152
0.688197 -0.644438 -0.0782493 215 45 118
0.740504 -0.671975 0.299793 222 42 166
0.94344 0.00906589 0.194008 248 129 152
0.337211 0.879893 -0.145708 170 240 109
-0.832132 0.524432 -0.0922884 21 194 116
-0.753801 0.532052 0.322892 31 195 169
0.957775 0.0391867 -0.0309925 250 132 124
0.20952 -0.959221 0.0154444 154 5 129
-0.0387645 -0.970677 0.0236743 123 4 131
0.392433 -0.774407 0.0122981 178 29 129
0.770754 0.37813 0.293816 226 176 165
-0.881868 -0.425619 -0.293562 15 73 90
-0.864278 0.0633295 -0.172142 17 136 106
-0.58208 0.773664 0.0148232 53 226 129
0.570221 0.799979 -0.185248 200 229 104
0.331767 -0.894617 0.201486 170 13 153
0.540249 -0.700778 0.339165 196 38 171
0.299739 0.908423 0.293233 166 243 165
0.861113 0.135939 0.335737 237 145 170
-0.454965 0.833105 0.085987 69 234 138
0.185258 0.843988 0.114004 151 235 142
-0.165917 0.830777 0.0924334 106 233 139
-0.904398 -0.363696 -0.00861352 12 81 126
0.115494 0.945156 0.267938 142 248 162
0.819723 -0.211862 0.075842 232 100 137
0.398202 0.746815 -0.0603624 178 223 120
0.897935 -0.343691 -0.0313793 242 84 123
0.898717 -0.361487 -0.1219 242 81 112
-0.614329 0.788982 0.0938608 49 228 139
0.234888 0.919712 -0.215846 157 245 100
-0.465673 -0.838986 0.322892 68 21 169
-0.970247 0.0761077 0.026331 4 137 131
0.716716 0.449145 0.00850579 219 185 129
0.823442 0.299756 0.33834 232 166 171
0.0643576 0.84505 -0.104103 136 235 114
-0.0777252 -0.867289 0.239291 118 17 158
0.594626 -0.629075 -0.152978 203 47 108
0.397801 0.877342 0.0491332 178 239 134
0.45732 0.842449 0.0500132 186 235 134
-0.643641 -0.73523 0.136851 45 34 145
-0.809112 0.583052 -0.134635 24 202 110
-0.285861 -0.928102 0.2126 91 9 155
-0.0366588 -0.845564 0.0631557 123 20 136
-0.348625 0.824166 -0.322892 83 233 86
-0.684195 -0.68627 -0.185012 40 40 104
-0.812008 -0.264581 -0.233428 24 94 98
0.195782 0.926442 0.243681 152 246 159
-0.975203 -0.0388943 -0.23814 3 123 97
0.328373 0.915422 -0.252743 169 244 95
0.819743 0.272577 -0.106461 232 162 114
0.711102 0.698436 -0.324341 218 217 86
-0.493801 0.816787 0.010225 65 232 129
-0.805229 0.441132 -0.322892 25 184 86
0.825809 0.517242 0.293246 233 193 165
-0.962246 0.109946 -0.12064 5 142 112
-0.547349 0.786929 -0.172797 58 228 105
0.415359 -0.895578 0.136851 180 13 145
-0.2967 -0.937871 0.0982244 90 8 140
-0.440555 0.897131 0.213801 71 242 155
-0.0950413 0.858582 -0.106176 115 237 114
0.923831 -0.294624 -0.0194825 245 90 125
0.0934553 0.995571 -0.0102049 139 254 126
0.296944 0.952627 -0.230623 165 249 98
-0.00944047 -0.964054 0.184949 126 5 151
0.870238 0.439338 -0.212143 238 184 100
-0.82148 -0.536284 0.131948 23 59 144
-0.228043 0.941997 -0.33916 98 248 84
-0.376424 -0.896226 0.010225 80 13 129
0.576016 0.766189 -0.0773314 201 225 118
-0.911837 0.237581 -0.185045 11 158 104
0.138324 -0.973957 0.0969865 145 3 140
0.748701 0.430162 0.0937492 223 182 139
0.869794 -0.067753 0.336231 238 119 170
-0.968993 -0.168954 0.311823 4 106 167
0.766656 0.425655 0.338444 225 182 171
0.315571 -0.923566 0.0264979 168 10 131
0.336325 -0.934492 -0.252421 170 8 95
-0.544124 0.669688 0.0744878 58 213 137
-0.828891 0.448278 0.0688922 22 185 136
-0.786032 0.313785 0.0622133 27 168 135
-0.15605 -0.987748 0.105476 108 2 141
0.894005 -0.447948 0.000821195 241 70 128
0.481178 -0.876563 -0.309028 189 16 88
0.808954 0.265776 -0.195546 231 161 103
0.85818 -0.0817086 -0.00107843 237 117 127
0.470488 -0.703819 -0.072483 187 38 118
0.608197 0.588236 0.0400455 205 203 133
0.0630985 -0.949127 -0.322892 136 6 86
0.942467 -0.208632 -0.264227 248 101 94
0.113529 -0.992913 -0.291702 142 1 90
0.15177 0.937236 0.20048 147 247 153
0.869309 -0.105051 -0.302997 238 114 89
-0.785394 -0.576406 -0.241702 27 54 97
-0.596831 -0.63814 0.048169 51 46 134
-0.65435 0.5361 -0.0190005 44 196 125
0.798856 0.50737 -0.339165 229 192 84
-0.546196 0.761003 0.322892 58 225 169
-0.926698 0.195731 -0.282388 9 152 91
0.875944 0.363136 0.247263 239 174 159
-0.0969697 0.995227 0.092716 115 254 139
0.289629 0.82345 0.269402 164 232 162
0.429575 -0.902975 0.0199876 182 12 130
-0.999808 -0.0176111 -0.0217552 0 125 125
0.629553 0.590631 0.0858402 208 203 138
0.740785 -0.64127 0.338231 222 46 171
-0.994661 -0.102991 0.03206 1 114 132
-0.0966434 -0.967881 -0.0861385 115 4 117
