ply
format ascii 1.0
comment Created by Open3D
element vertex 1211
property double x
property double y
property double z
property uchar red
property uchar green
property uchar blue
end_header
-0.732882 0.60042 0.278494 34 204 163
0.496769 0.867847 -0.00162157 191 238 127
-0.310094 -0.809828 -0.183362 88 24 104
-0.909477 -0.0660564 0.339165 12 119 171
0.39777 0.896288 -0.203142 178 242 102
0.502899 0.796853 0.184367 192 229 151
-0.297555 0.844485 0.322892 90 235 169
-0.645735 0.546981 0.0572035 45 197 135
-0.444313 0.887068 0.188538 71 241 152
0.793214 0.581679 0.258156 229 202 160
-0.0746745 -0.939309 0.189055 118 8 152
-0.091777 0.840926 0.0201208 116 235 130
0.352297 0.802349 -0.30887 172 230 88
-0.164342 0.846347 0.0150703 107 235 129
-0.0922413 -0.98816 0.02379 116 2 131
0.926351 0.255039 0.02021 246 160 130
0.458461 -0.862201 0.118168 186 18 143
-0.975053 -0.198377 0.281936 3 102 163
-0.61833 -0.609344 0.201428 49 50 153
0.240592 -0.969051 -0.284777 158 4 91
-0.934667 0.201489 0.201557 8 153 153
-0.388998 0.764996 -0.289833 78 225 91
-0.659014 -0.530313 0.0174158 43 60 130
-0.846938 -0.429834 -0.322892 20 73 86
0.262862 0.943644 -0.270848 161 248 93
-0.834749 -0.437207 0.149694 21 72 147
0.334918 -0.801107 0.204482 170 25 154
0.975591 -0.172355 0.187661 252 106 151
-0.238729 0.830304 0.109872 97 233 142
0.902394 -0.188134 -0.322892 243 104 86
-0.665722 0.718791 -0.31945 43 219 87
0.500919 -0.687196 0.174226 191 40 150
0.826973 0.488524 0.0693678 233 190 136
0.798728 -0.530015 0.150253 229 60 147
0.943635 -0.16865 0.169278 248 106 149
-0.123555 0.94653 0.339165 112 248 171
0.242709 -0.950073 -0.337951 158 6 84
0.810259 0.489969 -0.269796 231 190 93
-0.871457 0.39924 0.176952 16 178 150
0.0909323 0.842364 -0.0962053 139 235 115
0.946476 0.161116 -0.139993 248 148 110
0.828065 0.360401 -0.339165 233 173 84
-0.688455 -0.64334 0.0492515 40 45 134
0.786033 -0.380237 0.273026 228 79 162
0.664269 -0.692689 0.0686598 212 39 136
-0.361071 -0.770796 -0.189078 81 29 103
0.599171 -0.732472 -0.339165 204 34 84
0.332419 0.924571 0.277268 170 245 163
-0.735795 -0.67064 -0.276636 34 42 92
-0.294792 -0.954838 -0.0255836 90 6 124
0.439424 0.743319 0.0940422 184 222 139
-0.877897 0.365132 0.339165 16 174 171
0.398878 -0.771898 0.212516 178 29 155
-0.934176 0.162401 0.219675 8 148 156
-0.880746 0.26952 0.339165 15 162 171
-0.628978 0.777359 0.0421465 47 227 133
-0.485019 0.855044 0.0927139 66 237 139
0.573458 0.622594 0.0680359 201 207 136
0.601224 0.618368 0.0472097 204 206 134
-0.255875 -0.819491 -0.293914 95 23 90
-0.936528 0.13996 0.227095 8 145 156
-0.799176 -0.34723 -0.248061 26 83 96
-0.128281 -0.949931 0.166223 111 6 149
-0.921437 0.264321 0.158644 10 161 148
-0.841116 0.138893 -0.212057 20 145 100
-0.214473 -0.825245 0.214017 100 22 155
0.745678 0.602374 -0.16994 223 204 106
-0.160424 -0.985225 -0.196467 107 2 102
0.343212 0.921823 0.308371 171 245 167
0.694374 0.693674 0.0637557 216 216 136
-0.0747596 -0.958342 -0.339165 118 5 84
0.938455 0.100711 0.195649 247 140 152
-0.0564781 0.844251 -0.0418369 120 235 122
0.721928 -0.630605 -0.166573 220 47 106
-0.751079 0.606987 -0.0357553 32 205 123
-0.946464 0.0414341 0.322892 7 133 169
-0.548108 0.645868 0.0915023 58 210 139
-0.310826 0.950478 -0.258584 88 249 95
0.908894 -0.194736 0.339165 243 103 171
0.642767 0.765409 0.213225 209 225 155
0.911441 -0.0470098 0.322892 244 122 169
-0.221418 -0.973057 0.32232 99 3 169
-0.194014 -0.938756 0.16324 103 8 148
0.0946847 -0.97781 -0.258002 140 3 95
-0.335681 -0.791238 0.305845 85 27 166
-0.75181 -0.558246 0.322892 32 56 169
-0.274896 -0.950133 0.260239 92 6 161
0.366533 0.789802 0.238713 174 228 158
0.953562 -0.0945721 -0.293059 249 115 90
0.921581 0.130179 -0.339165 245 144 84
-0.816322 -0.289597 0.163184 23 91 148
0.321093 0.923626 -0.274178 168 245 93
0.527316 -0.694179 -0.253665 195 39 95
0.685986 -0.494906 -0.0152106 215 64 126
0.866336 0.0945986 -0.249577 238 140 96
0.513063 -0.851303 0.264105 193 19 161
-0.913642 0.248998 -0.266878 11 159 93
0.0705226 -0.945042 0.267474 136 7 162
0.332449 -0.882919 0.017129 170 15 130
0.832186 -0.323222 -0.339165 234 86 84
0.47946 -0.857014 -0.337618 189 18 84
0.843019 -0.0761537 -0.0681751 235 118 119
-0.924331 -0.277045 0.27214 10 92 162
-0.899613 0.280409 -0.0547287 13 163 121
0.388158 0.88685 0.230019 177 241 157
0.815553 0.392625 0.339165 231 178 171
-0.157934 0.83553 -0.172822 107 234 105
-0.7986 -0.574108 0.257361 26 54 160
0.90486 -0.229595 0.322892 243 98 169
0.869752 0.109738 0.311304 238 141 167
0.0314338 0.99616 -0.00310778 132 255 127
-0.561638 0.777177 -0.20158 56 227 102
-0.827824 0.273188 0.253333 22 162 160
-0.70695 0.471878 -0.165528 37 188 106
-0.939545 0.122615 -0.121552 8 143 112
-0.896565 -0.306287 -0.262081 13 88 94
-0.71345 -0.480362 0.310692 37 66 167
-0.112612 0.859381 -0.175112 113 237 105
-0.816428 -0.282392 -0.108141 23 91 114
0.957845 -0.0370797 -0.175016 250 123 105
-0.0703113 -0.986854 -0.186853 119 2 104
-0.56595 -0.766988 -0.201404 55 30 102
0.830677 -0.172002 0.130337 233 106 144
-0.974597 0.223837 -0.0939581 3 156 116
0.748982 0.442527 -0.227545 223 184 98
-0.618228 -0.603785 0.11744 49 51 142
0.675581 0.713013 0.315519 214 218 168
0.950984 0.00362167 0.322892 249 128 169
-0.901759 -0.385811 0.210351 13 78 154
0.488011 -0.83347 -0.274896 190 21 92
0.226689 0.914628 -0.0747615 156 244 118
0.963786 0.25664 0.323483 250 160 169
-0.712625 0.687278 0.186832 37 215 151
-0.502345 0.680506 0.00920553 63 214 129
-0.414098 0.856191 0.201306 75 237 153
-0.666005 -0.523562 -0.09258 43 61 116
-0.855969 0.42597 0.031096 18 182 131
0.474033 -0.720206 0.0188195 188 36 130
-0.813512 -0.500011 -0.120676 24 64 112
0.748979 0.636203 0.136669 223 209 145
0.460531 -0.840695 0.157628 186 20 148
0.474857 0.832687 0.0446902 188 234 133
-0.17727 -0.829449 0.126898 105 22 144
-0.723053 0.452421 -0.217791 35 185 100
-0.34761 -0.905843 0.339163 83 12 171
-0.202399 -0.939277 -0.322892 102 8 86
-0.213675 0.959483 0.116301 100 250 142
-0.533805 0.776497 -0.163429 59 227 107
0.826515 -0.559044 -0.133706 233 56 110
-0.266698 -0.946838 0.105091 93 7 141
0.939577 0.144718 -0.339165 247 146 84
0.0771401 0.865594 0.214711 137 238 155
0.761895 -0.554501 0.0897795 225 57 139
-0.409897 -0.76075 -0.115371 75 31 113
0.265093 -0.962918 0.0495518 161 5 134
0.0884255 -0.848181 -0.215605 139 19 100
0.521238 0.686739 -0.01553 194 215 126
0.0163666 -0.892378 0.0238973 130 14 131
0.801696 -0.349502 -0.337937 230 83 84
0.977376 0.0706559 -0.318582 252 137 87
-0.733596 -0.599627 -0.220953 34 51 99
-0.804964 0.264032 -0.0922331 25 161 116
-0.434812 0.869587 0.185012 72 238 151
-0.261649 0.931535 -0.0696076 94 246 119
0.846109 0.054961 -0.117455 235 135 113
0.856022 -0.393833 -0.0436287 237 77 122
-0.205136 -0.868198 -0.339165 101 17 84
-0.288673 0.913738 -0.260031 91 244 94
0.0548498 -0.860498 -0.321931 134 18 86
0.910568 -0.365606 -0.247713 244 81 96
0.596377 0.802699 0.238925 204 230 158
0.498232 -0.82319 0.339165 191 23 171
0.941062 -0.338212 -0.0312702 247 84 124
0.149903 -0.968381 -0.204616 147 4 101
0.871374 0.0286518 -0.255225 239 131 95
-0.695049 -0.718818 -0.0141883 39 36 126
-0.879402 -0.342932 -0.0210601 15 84 125
-0.564683 -0.656152 -0.153747 56 44 108
-0.842902 0.477427 0.0160329 20 188 130
-0.652815 0.623473 0.339165 44 207 171
-0.950652 -0.0601632 -0.213959 6 120 100
-0.637951 -0.557101 0.0866178 46 56 139
-0.634613 0.737246 0.322778 47 221 169
0.449627 -0.893097 -0.110282 185 14 113
-0.776799 0.588146 0.0441222 28 202 133
-0.436384 -0.835181 0.133205 72 21 144
-0.589421 -0.75595 -0.052398 52 31 121
-0.0706516 -0.860644 0.0964476 118 18 140
-0.153615 0.840903 -0.244766 108 235 96
0.508804 -0.815137 -0.260747 192 24 94
-0.942204 0.00943007 0.160343 7 129 148
-0.796508 0.42478 0.339165 26 182 171
-0.943808 -0.0474053 0.322892 7 121 169
0.0890616 0.861659 -0.16519 139 237 106
0.37304 -0.877254 0.339165 175 16 171
0.777783 -0.349142 -0.212557 227 83 100
-0.957244 0.0583765 -0.104584 5 135 114
0.0997409 -0.861799 0.191527 140 18 152
-0.456736 0.741624 0.242707 69 222 158
-0.528917 0.770911 0.322892 60 226 169
0.473224 0.880884 -0.101162 188 240 115
-0.983301 -0.0279184 0.0370326 2 124 132
0.186848 0.841894 -0.0363369 151 235 123
0.103997 -0.861334 -0.192178 141 18 103
-0.981277 0.0276997 0.0336074 2 131 132
0.714483 0.626664 -0.214437 219 207 100
-0.583618 0.646722 -0.244502 53 210 96
-0.774167 0.406196 -0.286646 29 179 91
-0.640427 -0.719921 0.070061 46 36 136
-0.570453 -0.763149 0.201273 55 30 153
-0.176402 -0.851681 0.225342 105 19 156
0.457282 -0.752554 0.321905 186 32 169
-0.282651 -0.797836 0.0106603 91 26 129
-0.759296 0.622723 0.295384 31 207 165
-0.705005 0.552255 -0.322892 38 198 86
-0.232627 0.931114 -0.322892 98 246 86
0.506817 0.838797 -0.210529 192 234 101
-0.322759 -0.929231 0.095921 86 9 140
-0.698668 -0.622142 0.339165 38 48 171
0.549008 -0.793247 0.236071 197 26 158
-0.803751 -0.270171 -0.119427 25 93 112
0.818804 -0.220116 -0.116748 232 99 113
-0.0764148 -0.939188 0.00789351 118 8 129
0.855848 -0.517177 0.119372 237 62 143
0.241019 -0.822699 -0.278397 158 23 92
-0.410211 0.893429 0.00796737 75 241 129
0.0892912 -0.841608 0.0597045 139 20 135
0.933641 -0.358038 0.207214 247 82 154
0.0642585 -0.958593 -0.140851 136 5 110
-0.586715 -0.680682 0.322892 53 41 169
0.0298997 -0.982713 0.206611 131 2 154
0.449791 -0.843918 -0.20158 185 20 102
-0.274039 0.863544 0.322892 93 238 169
0.365169 0.773558 0.253404 174 226 160
-0.391101 0.908559 -0.136869 78 243 110
-0.561981 0.659255 -0.166335 56 212 106
0.697537 -0.716464 0.106075 216 36 141
0.543873 -0.659143 0.241305 197 43 158
0.869659 0.0644631 0.257733 238 136 160
-0.34283 0.877727 0.117122 84 239 142
0.593291 -0.760092 -0.2126 203 31 100
0.759864 -0.428463 0.261494 224 73 161
-0.332742 0.89899 -0.167199 85 242 106
0.0369619 0.942232 0.0392084 132 248 132
-0.459272 -0.841386 0.182705 69 20 151
-0.389801 0.754692 0.154361 78 224 147
0.156187 -0.984631 -0.28597 147 2 91
-0.177796 0.948696 0.136893 105 248 145
0.214497 -0.838781 0.155196 155 21 147
0.0389818 -0.977258 0.0241111 132 3 131
0.670384 0.719975 0.107038 213 219 141
-0.39083 0.767528 -0.31792 78 225 87
0.774001 -0.607104 0.207488 226 50 154
-0.940948 0.0879537 0.197955 8 139 153
-0.0782552 0.866303 -0.334744 118 238 85
-0.588852 0.6236 -0.282822 52 207 91
-0.970183 0.152563 0.206117 4 147 154
-0.62476 0.575329 -0.152429 48 201 108
0.178161 -0.942352 -0.2126 150 7 100
-0.83032 0.233551 0.0532384 22 157 134
0.946578 -0.316194 0.283512 248 87 164
0.0136481 -0.982455 -0.118727 129 2 112
0.991787 0.117726 0.285483 254 143 164
-0.927557 -0.316545 -0.318158 9 87 87
0.757856 0.379284 0.101701 224 176 140
-0.79471 0.565978 0.249123 26 200 159
0.946864 -0.200505 0.293246 248 102 165
0.462863 -0.879239 -0.279799 187 15 92
0.813295 -0.232906 -0.0273693 231 98 124
-0.798884 -0.600196 0.291024 26 51 165
-0.366191 -0.886916 -0.14157 81 14 109
-0.821604 -0.284027 0.21899 23 91 155
0.5577 -0.663461 -0.174693 199 43 105
-0.803945 0.537607 0.239452 25 196 158
-0.0257667 -0.875886 0.0228443 124 16 130
-0.130128 0.837161 -0.0943523 111 234 115
0.827047 0.179755 -0.062154 233 150 120
0.397761 0.770586 -0.183913 178 226 104
0.844108 0.190542 -0.146371 235 152 109
0.433087 -0.826469 -0.339165 183 22 84
0.848989 -0.528321 0.10161 236 60 140
0.509987 0.851629 0.330615 193 236 170
0.256767 -0.830294 -0.0184473 160 22 125
0.0730014 0.977238 0.0392114 137 252 132
-0.0751698 -0.955616 0.0236576 118 6 131
0.0624075 -0.981661 -0.106888 135 2 114
0.543977 -0.649079 -0.0843617 197 45 117
-0.939454 0.0925448 0.322892 8 139 169
0.833656 0.506784 0.272599 234 192 162
0.709258 0.668596 -0.338875 218 213 84
-0.840378 0.192213 0.00168089 20 152 128
0.961179 0.0253987 0.139713 250 131 145
0.438301 0.847459 -0.291742 183 236 90
0.259619 -0.852596 -0.044641 161 19 122
0.822594 -0.271685 -0.16565 232 93 106
0.995916 -0.0788896 -0.263701 254 117 94
0.602981 -0.715174 0.322892 204 36 169
-0.671962 -0.542757 0.104342 42 58 141
-0.243659 0.933823 -0.264977 96 247 94
-0.411697 0.865623 -0.148363 75 238 109
0.1346 0.947638 -0.0592728 145 248 120
0.0282653 0.988304 0.0945902 131 254 140
-0.210773 0.922558 -0.199809 101 245 102
0.847499 -0.411796 -0.0312514 236 75 124
0.476254 -0.703499 -0.156783 188 38 108
-0.991502 -0.127315 -0.211632 1 111 101
0.586918 0.611361 0.103542 202 205 141
0.86323 -0.0407587 -0.117067 238 122 113
-0.837814 0.450624 0.0860073 21 185 138
-0.256252 0.905654 -0.339165 95 243 84
0.616193 0.759213 -0.321776 206 224 86
0.770551 0.40485 0.234759 226 179 157
-0.634713 -0.644903 0.322892 47 45 169
-0.780749 0.385727 -0.240393 28 177 97
-0.664162 0.701373 -0.293185 43 217 90
-0.443317 0.747 0.209232 71 223 154
0.827914 0.291692 -0.338536 233 165 84
0.372289 -0.906234 -0.136912 175 12 110
-0.529061 0.818909 0.322447 60 232 169
-0.166291 0.927541 -0.174833 106 246 105
-0.767565 -0.401006 -0.160244 30 76 107
-0.900527 -0.00054794 -0.339165 13 127 84
-0.954388 0.214587 -0.293252 6 155 90
-0.727555 -0.451196 -0.262993 35 70 94
-0.0245899 -0.862428 0.323124 124 18 169
0.74485 0.417153 0.228171 222 181 157
0.727961 0.657257 -0.318085 220 211 87
0.850429 0.150005 -0.0952184 236 147 115
-0.0997694 0.936969 0.0373123 115 247 132
0.817695 -0.288904 0.184216 232 91 151
-0.83042 0.537093 -0.186473 22 196 104
-0.881724 0.278359 -0.339165 15 163 84
0.0437744 0.874983 0.307237 133 239 167
-0.265262 -0.805602 0.125415 94 25 143
0.544363 -0.795072 -0.137444 197 26 110
-0.22843 0.831324 -0.321647 98 233 86
-0.395547 -0.880608 0.0691314 77 15 136
0.281193 0.954959 0.190959 163 249 152
-0.937831 -0.332073 -0.283151 8 85 91
-0.300296 0.799341 0.231715 89 229 157
-0.316842 -0.919642 -0.293185 87 10 90
-0.900691 0.395516 0.0181401 13 178 130
-0.708086 0.492675 -0.0631161 37 190 119
-0.80267 -0.276118 -0.143148 25 92 109
0.0355873 -0.850888 -0.198786 132 19 102
-0.668361 -0.670776 0.245051 42 42 159
0.91973 -0.204964 0.144522 245 101 146
-0.827378 -0.175982 0.016669 22 105 130
-0.942091 -0.0192616 0.134362 7 125 145
0.461253 0.821688 -0.179559 186 232 105
-0.796946 0.5028 0.163962 26 192 148
0.791236 0.386348 -0.321473 228 177 87
-0.625521 -0.614896 -0.338501 48 49 84
-0.81546 -0.508365 -0.2599 24 63 94
-0.726767 -0.681905 0.072638 35 41 137
0.979892 0.0857151 0.310253 252 138 167
0.404649 -0.75866 0.308567 179 31 167
-0.968242 0.249848 0.312816 4 159 167
-0.340175 0.915119 -0.0489163 84 244 121
-0.719475 0.665454 0.257371 36 212 160
0.862759 -0.14077 -0.285083 238 110 91
-0.0902875 0.988348 -0.0656972 116 254 119
0.722794 0.470216 0.0284096 220 187 131
0.754589 -0.383184 -0.0552212 224 79 120
0.423965 -0.887619 0.307514 182 14 167
-0.204533 -0.924568 -0.25954 101 10 94
-0.848251 -0.159626 -0.0827644 19 107 117
0.938706 -0.22253 0.0378609 247 99 132
-0.961089 -0.021974 0.139828 5 125 145
-0.834225 0.141036 -0.0314218 21 145 123
0.840886 -0.495438 0.338884 235 64 171
-0.133455 -0.97017 0.338176 110 4 171
-0.517626 -0.787435 -0.145156 62 27 109
0.0676135 -0.991911 0.328797 136 1 169
0.845665 -0.167341 -0.00345763 235 106 127
0.967458 -0.147314 -0.0875768 251 109 116
-0.905914 -0.357544 -0.322618 12 82 86
0.312381 0.949959 -0.01821 167 249 125
0.945822 -0.0450902 0.230979 248 122 157
0.571922 -0.769266 0.174236 200 29 150
0.584179 0.675833 -0.339165 202 214 84
0.861333 -0.488343 -0.332809 237 65 85
0.996719 -0.0324948 -0.0791098 255 123 117
0.917607 0.354524 0.0297471 244 173 131
-0.413031 0.740717 0.124241 75 222 143
-0.74552 0.410015 -0.18259 32 180 104
0.153631 0.964657 -0.034884 147 250 123
-0.769892 -0.549207 -0.322892 29 57 86
0.486232 -0.727368 -0.294352 189 35 90
0.965779 0.0374727 -0.274799 251 132 92
-0.266632 0.928835 0.240448 94 246 158
-0.0683428 0.981302 0.0787233 119 253 138
0.830055 0.482842 0.1834 233 189 151
-0.599341 0.631939 -0.241693 51 208 97
0.818588 -0.305734 -0.281151 232 89 92
-0.882084 0.0389216 0.322429 15 132 169
0.961444 0.00293091 -0.0374411 250 128 123
0.307308 -0.886343 0.339165 167 14 171
-0.60841 -0.590972 -0.12754 50 52 111
0.421907 -0.733611 -0.0410738 181 34 122
-0.367259 -0.925294 -0.190938 81 10 103
-0.460834 0.88465 -0.194756 69 240 103
0.751684 0.392342 0.117299 223 178 142
-0.160446 -0.958377 -0.275391 107 5 92
-0.715644 0.460639 0.187657 36 186 151
0.605276 -0.772589 0.316732 205 29 168
0.850705 -0.47831 0.185012 236 67 151
0.835954 0.240556 -0.227246 234 158 99
-0.840905 0.194167 0.0789079 20 152 138
0.359729 -0.781975 0.315195 173 28 168
-0.539406 0.681416 0.215589 59 214 155
0.89257 -0.351116 -0.182341 241 83 104
-0.846614 0.128124 -0.264682 20 144 94
-0.95705 0.174055 -0.322699 5 150 86
-0.950172 0.131547 0.322892 6 144 169
0.857697 -0.135205 -0.204319 237 110 101
0.661895 -0.695894 0.184397 212 39 151
0.892844 -0.303461 -0.0517337 241 89 121
-0.208058 -0.941765 0.268228 101 7 162
-0.237275 -0.91194 0.016123 97 11 130
-0.001784 0.999996 0.260868 127 255 161
0.787524 -0.519013 -0.193164 228 61 103
0.695655 -0.68464 -0.229457 216 40 98
-0.791868 0.601995 0.0300912 27 204 131
-0.981123 -0.0716163 0.0418779 2 118 133
-0.908778 0.403257 -0.240305 12 179 97
0.600741 0.662651 -0.322892 204 212 86
0.486569 -0.69518 0.136939 190 39 145
0.571247 -0.785577 -0.0309042 200 27 124
-0.812565 -0.554386 -0.307544 24 57 88
-0.504402 -0.838239 0.115441 63 21 142
0.690718 0.687186 -0.258818 216 215 95
0.865848 0.120268 -0.337802 238 143 84
-0.341491 -0.808723 0.31621 84 24 168
0.757132 0.499926 -0.339165 224 191 84
-0.860202 -0.471686 0.337866 18 67 171
0.933362 -0.235357 -0.264302 247 97 94
-0.416583 0.909042 -0.0220662 74 243 125
0.979188 -0.0945764 -0.0773427 252 115 118
0.787563 -0.344661 -0.307151 228 84 88
0.805211 0.564922 0.310583 230 200 167
-0.183122 -0.927213 -0.197059 104 9 102
-0.847817 -0.157087 0.025863 19 107 131
0.679619 -0.702885 0.0100656 214 38 129
0.339585 0.878981 0.115156 171 240 142
-0.70102 -0.690055 0.105137 38 40 141
0.434251 -0.850985 0.0905384 183 19 139
0.253109 -0.903203 -0.339165 160 12 84
-0.90689 0.369906 0.254419 12 175 160
-0.369678 0.781418 0.125654 80 227 144
0.209622 0.977763 0.0558689 154 252 135
-0.957303 0.0126638 0.339165 5 129 171
-0.0336632 -0.845599 -0.0591971 123 20 120
0.881173 -0.333844 0.0660736 240 85 136
0.384951 -0.860074 -0.171971 177 18 106
0.683019 0.503674 0.139416 215 192 145
-0.901143 0.39058 0.204785 13 177 154
-0.00785472 0.99939 -0.128003 126 255 111
0.82038 -0.217896 0.142734 232 100 146
0.908029 -0.268497 0.267187 243 93 162
0.901742 -0.429204 -0.320019 242 73 87
0.301205 0.892872 -0.17106 166 241 106
-0.478449 -0.796523 0.322892 66 26 169
-0.588859 -0.713247 0.339165 52 37 171
-0.905023 0.315864 0.165927 12 168 149
-0.847634 -0.451757 -0.322892 19 70 86
0.354405 0.873125 -0.0545446 173 239 121
-0.826399 0.190705 0.124507 22 152 143
-0.861336 0.148544 0.2833 18 146 164
-0.593471 0.804219 -0.292957 52 230 90
0.847578 0.159363 -0.0431754 236 148 122
-0.623045 -0.782039 -0.208181 48 28 101
-0.559771 -0.826655 0.321441 56 22 168
0.793479 0.548276 0.235285 229 197 157
-0.0044334 0.862548 0.0539974 127 237 134
0.44096 -0.724834 -0.00946846 184 35 126
-0.739265 -0.413871 -0.0952555 33 75 115
-0.12821 -0.853382 0.0756224 111 19 137
-0.0284808 -0.946442 -0.27143 124 7 93
0.736735 0.47143 -0.290829 221 188 90
0.588554 0.607654 0.0224455 203 205 130
-0.0470737 0.934873 0.339165 121 247 171
0.135602 -0.839231 0.168555 145 20 149
0.952258 0.146473 -0.20158 249 146 102
-0.380076 0.789408 -0.307953 79 228 88
-0.176329 0.950112 -0.2126 105 249 100
-0.521879 0.686207 0.0122313 61 215 129
-0.735481 0.549896 0.322892 34 198 169
0.246787 0.828557 0.128448 159 233 144
-0.844516 -0.138512 0.258743 20 110 160
-0.917342 0.215529 -0.188934 11 155 103
-0.965613 0.145247 -0.321996 4 146 86
-0.404541 -0.893752 0.118902 76 14 143
0.547304 -0.817378 0.302435 197 23 166
-0.759946 -0.409033 -0.0782908 31 75 118
-0.856443 -0.317311 -0.339165 18 87 84
0.360556 0.787486 -0.162446 173 228 107
0.887977 -0.0846162 0.339165 241 117 171
0.775311 -0.465505 0.339165 226 68 171
0.251095 -0.829985 0.182759 160 22 151
-0.811052 -0.374334 -0.322892 24 80 86
-0.941799 0.0300707 -0.184148 7 131 104
-0.424371 -0.750963 0.040887 73 32 133
-0.922058 0.297182 -0.293185 10 165 90
-0.848245 0.0778092 -0.201646 19 137 102
0.210639 0.977084 0.212857 154 252 155
0.852822 0.43566 -0.322892 236 183 86
-0.843776 -0.108951 -0.182041 20 114 104
0.429516 0.733493 -0.166009 182 221 106
-0.824245 -0.501126 0.231984 22 64 157
0.25274 -0.924637 -0.155581 160 10 108
-0.203593 -0.962386 0.0728226 102 5 137
0.82273 -0.564329 -0.195271 232 56 103
-0.256459 -0.927588 0.120578 95 9 143
0.876053 -0.403371 -0.259497 239 76 94
-0.157417 0.945562 0.0412347 107 248 133
0.637548 0.72927 0.136893 209 220 145
0.471165 -0.739905 -0.0533606 188 33 121
-0.117604 0.951344 0.167851 113 249 149
0.61258 0.779697 -0.262368 206 227 94
0.799448 -0.600113 0.294374 229 51 165
-0.717694 -0.454414 -0.155392 36 70 108
-0.960411 -0.190706 -0.0882622 5 103 116
-0.935274 -0.313545 0.335233 8 88 170
0.688895 0.518976 0.0508125 215 194 134
0.245304 -0.9098 0.00614759 159 12 128
0.813979 -0.274617 0.300061 231 92 166
-0.804206 -0.289363 -0.242483 25 91 97
-0.716121 0.685352 -0.0700681 36 215 119
-0.328789 0.801204 -0.160747 86 230 107
-0.581148 -0.813236 -0.273567 53 24 93
0.0696587 0.845213 -0.124315 136 235 112
-0.925872 -0.202904 -0.12247 9 102 112
-0.845788 -0.0177629 0.0217111 20 125 130
-0.765238 0.541165 -0.339165 30 196 84
-0.900743 0.395328 0.112343 13 178 142
-0.931644 -0.191212 -0.016633 9 103 125
-0.236009 -0.857852 -0.339165 97 18 84
0.772026 -0.3691 -0.25769 226 80 95
-0.864717 -0.0560897 0.171281 17 120 149
0.101952 0.937416 0.0787122 140 247 138
-0.708077 0.703553 0.217804 37 217 155
-0.889231 0.438374 0.23303 14 183 157
0.8784 0.428203 0.136851 239 182 145
-0.892637 -0.413394 0.298434 14 75 166
-0.383494 -0.860724 0.0334537 79 18 132
0.508706 0.725109 -0.322892 192 220 86
-0.862886 0.0043719 0.073961 17 128 137
-0.871879 0.0160438 0.257752 16 130 160
-0.683925 -0.52715 0.0951755 40 60 140
0.797576 -0.347578 0.2292 229 83 157
-0.846305 -0.0141633 -0.0662043 20 126 119
0.955599 0.26669 0.236467 249 162 158
0.88743 0.352118 -0.339165 241 172 84
-0.953369 -0.301628 -0.110676 6 89 113
0.973211 0.125693 0.070061 252 144 136
-0.000138265 -0.8649 0.0849551 127 17 138
0.801415 0.511335 -0.235679 230 193 97
0.531113 -0.847261 -0.0627334 195 19 120
-0.579728 0.725021 -0.322892 54 220 86
-0.862923 -0.0447174 -0.326062 17 122 86
0.933431 0.203111 0.0801176 247 153 138
-0.977395 -0.141657 0.232228 3 109 157
-0.344019 -0.938909 0.300592 84 8 166
0.722213 -0.459051 0.257596 220 69 160
0.328546 0.805222 -0.223871 169 230 99
0.843439 -0.0852084 -0.110911 235 117 113
0.899483 0.382425 0.136851 242 176 145
0.850391 -0.442462 0.339165 236 71 171
-0.720749 0.473071 -0.0125003 36 188 126
0.176927 -0.942101 -0.14425 150 7 109
-0.812628 -0.292791 0.103407 24 90 141
-0.85305 0.415628 -0.216552 19 180 100
-0.273129 -0.94159 0.318543 93 7 168
-0.196152 -0.980546 0.0786738 102 2 138
-0.861669 0.499221 -0.134805 18 191 110
0.417775 0.754323 0.0298068 181 224 131
0.845292 0.030231 -0.0109644 235 131 126
0.179853 0.8466 0.150329 150 235 147
-0.751264 -0.568743 -0.139987 32 55 110
0.643404 0.574405 -0.0499181 210 201 121
-0.847712 0.468735 0.267568 19 187 162
0.771986 -0.602636 0.136851 226 51 145
-0.941641 -0.0345846 0.165574 7 123 149
-0.089952 0.849657 -0.238697 116 236 97
0.66498 -0.560387 0.223449 212 56 156
0.409005 0.773075 0.290662 180 226 165
0.376702 0.780955 -0.181372 176 227 104
-0.845724 0.490262 0.274767 20 190 163
-0.667341 0.52261 -0.108161 42 194 114
0.810262 0.488557 -0.339165 231 190 84
-0.110125 -0.993864 0.0706274 113 1 137
-0.600256 -0.737542 0.263939 51 33 161
-0.317408 -0.797579 -0.292784 87 26 90
-0.740869 -0.408799 -0.0462609 33 75 122
0.887229 0.102201 -0.322892 241 141 86
0.926443 -0.1721 0.0867559 246 106 139
0.539122 -0.74562 -0.339165 196 32 84
-0.38234 0.923865 -0.117073 79 245 113
0.0872027 0.942882 -0.238019 139 248 97
0.414106 0.739209 0.0973299 180 222 140
0.210354 0.837893 -0.107203 154 234 114
-0.742815 -0.480825 0.339075 33 66 171
0.69021 0.665191 -0.155436 216 212 108
-0.505219 -0.681501 -0.132648 63 41 111
-0.96177 -0.140827 -0.2126 5 110 100
-0.576297 0.765966 -0.101456 54 225 115
0.940924 -0.326334 0.0241479 247 86 131
0.65948 0.535248 -0.153259 212 196 108
0.759229 0.411813 0.101324 224 180 140
0.844498 -0.0566259 0.0648331 235 120 136
-0.933779 -0.126181 0.0620892 8 111 135
0.260933 0.939781 0.120576 161 247 143
-0.582464 -0.792656 0.0036317 53 26 128
0.740775 -0.546173 0.339165 222 58 171
-0.0644749 -0.879734 0.027566 119 15 131
0.824331 0.222465 -0.230567 233 156 98
-0.808557 0.334618 0.296527 24 170 165
-0.842069 -0.138618 0.224774 20 110 156
0.98009 -0.198826 0.247025 252 102 159
-0.110894 -0.916638 -0.339165 113 11 84
0.94166 0.179188 -0.157561 248 150 107
0.249043 0.967549 0.129045 159 251 144
0.560595 0.777567 -0.0800566 199 227 117
0.537813 -0.68151 0.202293 196 41 153
0.846098 -0.0208042 -0.0563326 235 125 120
-0.992547 -0.113206 -0.129214 1 113 111
-0.785705 0.355554 0.0412509 27 173 133
0.871932 -0.398239 0.160654 239 77 148
-0.621095 -0.719497 0.214422 48 36 155
0.825234 0.210999 -0.201192 233 154 102
-0.843712 -0.108675 0.180084 20 114 150
0.20234 0.916165 0.339165 153 244 171
-0.0598756 0.95939 0.268661 120 250 162
0.827472 -0.5219 0.0591324 233 61 135
-0.328801 -0.892365 -0.322892 86 14 86
-0.861644 -0.267724 0.322892 18 93 169
0.745626 0.666337 -0.11521 223 212 113
0.606198 -0.772493 -0.242577 205 29 97
0.833246 -0.264889 -0.287436 234 94 91
0.953609 0.300817 -0.3112 249 166 88
0.244556 0.82847 0.104957 159 233 141
-0.903922 0.316015 -0.201574 12 168 102
-0.324297 0.854545 -0.322892 86 236 86
0.191048 0.964946 -0.247846 152 251 96
0.55157 0.807793 -0.185014 198 230 104
-0.307069 -0.901406 0.322892 88 13 169
-0.916945 -0.35612 -0.306563 11 82 88
0.72029 0.619154 -0.290535 219 206 90
-0.0790638 0.842735 0.0669103 117 235 136
0.395676 0.855788 -0.192474 178 237 103
-0.789821 -0.348624 0.0891102 27 83 139
-0.150228 -0.986132 0.28682 108 2 164
0.250947 0.951138 -0.299003 159 249 89
-0.251846 -0.92138 -0.322892 95 10 86
-0.955039 -0.296386 -0.000132691 6 90 127
0.733186 0.4572 -0.11304 221 186 113
0.900788 -0.395192 -0.310364 242 77 88
-0.848365 0.401292 -0.339165 19 179 84
-0.348338 -0.795113 -0.201427 83 26 102
0.723881 0.689867 -0.296946 220 215 90
-0.176722 0.827588 0.0527485 105 233 134
-0.859875 -0.477828 -0.305397 18 67 89
0.318482 -0.804343 -0.142499 168 25 109
0.475678 -0.702421 -0.131292 188 38 111
0.573026 0.748035 -0.048323 201 223 121
0.808907 0.325516 -0.256623 231 169 95
-0.0861093 -0.843016 -0.100048 117 20 115
0.129022 -0.984315 0.136089 144 2 145
-0.95034 0.0909467 0.086334 6 139 139
-0.820185 -0.266945 -0.0537891 23 93 121
-0.0691427 0.997557 -0.257644 119 255 95
-0.530118 -0.828569 -0.0887694 60 22 116
-0.85086 0.52531 -0.0915351 19 194 116
0.711268 0.457783 -0.0121701 218 186 126
-0.052533 0.964916 -0.0863339 121 251 116
-0.375518 -0.909202 -0.00679129 80 12 127
0.758242 0.429229 -0.246458 224 182 96
-0.753061 0.424722 0.130206 31 182 144
0.779529 -0.336464 -0.147007 227 85 109
0.0865875 0.95462 -0.147755 139 249 109
0.762901 -0.401864 0.0261172 225 76 131
0.826493 0.435234 0.339165 233 183 171
0.99455 -0.0218718 -0.264687 254 125 94
0.472437 -0.734549 0.27491 188 34 163
-0.428828 0.747884 -0.00669495 73 223 127
-0.781221 0.373721 0.160135 28 175 148
-0.848032 -0.0497855 -0.156277 19 121 108
-0.805647 -0.369234 0.322892 25 80 169
-0.297272 -0.809466 0.322128 90 24 169
-0.563975 0.785698 0.20158 56 228 153
0.427528 -0.753734 -0.330572 182 31 85
-0.758041 -0.430059 -0.250281 31 73 96
-0.662285 -0.551175 0.319476 43 57 168
0.342476 -0.921574 0.0264979 171 10 131
0.815405 0.424169 0.322892 231 182 169
-0.523348 0.801409 -0.201575 61 230 102
-0.393972 0.748672 0.0273911 77 223 131
-0.426418 0.859219 0.0119836 73 237 129
0.527516 0.800399 0.146293 195 230 146
-0.887264 -0.42464 0.0396136 14 73 133
0.769729 -0.404025 -0.218939 226 76 100
-0.374 0.927277 -0.0795172 80 246 117
0.281657 0.904125 0.228791 163 243 157
0.118999 0.934767 0.137325 143 247 145
-0.824083 -0.457016 -0.123573 22 69 112
0.201817 -0.926055 0.286165 153 9 164
-0.998715 -0.0482986 0.313733 0 121 168
-0.845426 0.0870444 0.164023 20 139 148
0.742874 -0.666491 0.132968 222 43 144
-0.989077 -0.0247779 -0.0365921 1 124 123
0.713082 0.508596 -0.305989 218 192 88
0.736194 0.45153 0.0988913 221 185 140
0.796902 0.287379 0.091341 229 164 139
0.530915 0.788457 0.339165 195 228 171
0.761933 0.576247 0.339165 225 201 171
-0.273764 0.907004 -0.284882 93 243 91
-0.561056 0.808493 -0.0168281 56 231 125
-0.833183 0.441818 0.0449894 21 184 133
0.944916 0.327229 -0.0664758 248 169 119
0.955603 -0.0751384 0.178764 249 118 150
-0.78885 -0.544566 0.0429293 27 58 133
-0.810004 0.317192 -0.33448 24 168 85
0.0999434 -0.984769 0.264053 140 2 161
-0.693866 0.485576 0.0847051 39 189 138
0.775927 0.33683 0.0150133 226 170 129
-0.835797 0.549016 -0.0029123 21 197 127
-0.975996 0.107898 -0.315939 3 141 87
0.802115 0.593472 -0.322522 230 203 86
-0.972505 -0.147594 -0.136912 4 109 110
-0.751665 -0.568218 0.155594 32 55 147
-0.366916 0.762769 0.0663143 81 225 136
0.380539 -0.879841 -0.170196 176 15 106
0.79736 0.353902 0.261716 229 173 161
0.834527 -0.252409 -0.255031 234 95 95
0.858366 -0.43661 -0.20158 237 72 102
-0.796232 -0.288277 -0.0805407 26 91 117
0.748934 0.632603 -0.136912 223 208 110
-0.381422 -0.861631 -0.18156 79 18 104
0.56087 -0.662771 0.203657 199 43 153
-0.780051 0.55692 0.339165 28 199 171
-0.212953 -0.954399 0.136851 100 6 145
0.793208 -0.548253 0.184915 229 58 151
0.753941 0.626155 -0.318687 224 207 87
0.729054 -0.602718 0.322892 220 51 169
-0.862681 0.0254884 -0.0795379 18 131 117
0.714599 0.614263 -0.151178 219 206 108
-0.441039 -0.728003 -0.189893 71 35 103
0.83958 0.360098 0.339165 235 173 171
-0.914631 -0.226604 -0.158546 11 99 107
0.815041 -0.22588 -0.00201582 231 99 127
0.74926 0.418763 0.291033 223 181 165
-0.248903 -0.825872 0.0552462 96 22 135
0.983657 -0.00940853 0.0754608 253 126 137
0.997492 -0.0694158 0.0981966 255 119 140
-0.514538 -0.702482 0.239681 62 38 158
0.854992 -0.396048 -0.022395 237 77 125
0.641429 0.764577 -0.281127 209 225 92
0.913084 -0.32412 0.136851 244 86 145
-0.677451 -0.704944 0.120578 41 38 143
-0.218046 0.967224 0.279908 100 251 163
0.559963 -0.763642 -0.226109 199 30 99
0.267522 -0.944717 0.264825 162 7 161
0.735546 0.653207 -0.103316 221 211 114
-0.489014 0.832775 -0.20158 65 234 102
-0.951688 0.172935 -0.0357553 6 150 123
-0.842859 -0.279803 0.339165 20 92 171
-0.242238 -0.831113 0.154434 97 22 147
0.972526 0.232837 0.102954 251 157 141
-0.444238 -0.723041 0.138219 71 35 145
0.817187 -0.547496 0.27653 232 58 163
-0.310056 -0.895117 0.0114634 88 13 129
0.313184 0.949524 -0.27495 167 249 92
0.7529 0.619148 -0.238887 223 206 97
-0.408366 0.89254 0.0597865 75 241 135
-0.746113 0.425202 0.296482 32 182 165
0.154428 0.964175 -0.185012 147 250 104
-0.275413 0.953877 0.188787 92 249 152
-0.678434 -0.668262 -0.0843291 41 42 117
-0.211369 0.970333 -0.00390552 101 251 127
0.65437 -0.566919 -0.155896 211 55 108
-0.949565 -0.276925 -0.186692 6 92 104
-0.622216 -0.707626 0.0268363 48 37 131
0.919549 0.19257 -0.339165 245 152 84
-0.836333 -0.446193 0.288448 21 71 164
-0.619422 -0.782889 -0.321577 49 28 86
0.28515 -0.816216 0.130868 164 23 144
0.285466 -0.81835 -0.174333 164 23 105
0.290394 0.79516 -0.0710864 165 229 118
-0.537401 -0.664312 0.239774 59 43 158
-0.753106 -0.624088 0.136851 31 48 145
0.332114 0.943198 -0.0317125 170 248 123
-0.510193 0.706004 0.243951 62 218 159
-0.492323 -0.828785 -0.232742 65 22 98
-0.660927 -0.733568 0.235534 43 34 158
0.157856 0.945467 -0.143313 148 248 109
-0.0224081 -0.968185 0.0511367 125 4 134
0.855289 -0.464984 0.339069 237 68 171
0.810016 -0.326744 0.337359 231 86 171
0.857336 0.0422043 0.291756 237 133 165
-0.885973 0.355544 0.240295 15 173 158
-0.306406 -0.95184 -0.116703 88 6 113
0.434972 -0.882286 0.0127177 183 15 129
-0.993199 0.116409 -0.0303055 1 142 124
-0.766399 0.616699 0.00772513 30 206 128
-0.832564 0.519104 -0.258862 21 194 94
-0.620559 -0.613985 0.270146 48 49 162
-0.843419 0.115021 0.191074 20 142 152
-0.827845 0.37304 -0.322892 22 175 86
-0.216182 0.923346 -0.00761696 100 245 127
-0.474211 -0.846451 0.293246 67 20 165
0.591254 -0.781048 -0.211346 203 28 101
0.609904 -0.767796 -0.271521 205 30 93
0.0355518 -0.873117 -0.012492 132 16 126
-0.68103 -0.695365 0.27402 41 39 162
0.942268 0.189604 -0.257149 248 152 95
-0.323306 0.890022 -0.280902 86 241 92
0.638592 0.716016 0.339165 209 219 171
-0.693699 -0.513862 -0.0872579 39 62 116
0.647558 -0.761958 -0.296843 210 30 90
0.175139 0.955611 0.2126 150 249 155
0.413032 -0.764884 -0.217635 180 30 100
0.883101 -0.469383 0.256074 240 68 160
0.186345 0.945087 -0.262459 151 248 94
-0.93277 0.346116 0.32764 9 172 169
-0.777896 0.563621 0.120578 28 199 143
-0.823031 -0.567927 -0.120682 23 55 112
0.726246 -0.597714 -0.339165 220 51 84
0.770446 0.390137 -0.096593 226 177 115
-0.939524 -0.19171 0.0861007 8 103 138
0.905678 -0.314371 -0.0319261 243 87 123
0.219371 0.975319 0.0212592 155 252 130
0.865581 0.411786 0.14347 238 180 146
0.810381 0.295833 0.0656534 231 165 136
-0.90034 -0.297049 -0.287862 13 90 91
0.647924 -0.577377 -0.0540077 210 54 121
0.121332 0.974641 0.315791 143 252 168
-0.461644 0.840088 0.1527 69 235 147
0.0599186 -0.940353 0.16921 135 8 149
0.0911331 0.995799 0.308117 139 254 167
0.683462 0.526362 -0.0659868 215 195 119
0.332562 -0.906028 0.070061 170 12 136
-0.564921 -0.759953 0.273383 55 31 162
0.603164 -0.723954 -0.0846684 204 35 117
-0.807791 -0.510401 -0.0709819 25 62 118
0.854262 0.509356 -0.282591 236 192 91
0.239047 -0.837672 -0.244365 158 21 96
-0.780083 0.383841 0.333597 28 176 170
0.466144 0.818908 -0.0691662 187 232 119
0.836181 -0.204234 -0.315026 234 101 87
0.94617 0.153741 -0.0469114 248 147 122
0.96168 -0.272562 0.200073 250 93 153
0.686431 0.727121 -0.0888173 215 220 116
0.862397 -0.0189445 0.0554398 237 125 135
-0.928734 0.235839 0.266543 9 158 161
-0.813707 0.512823 0.20158 24 193 153
0.755965 -0.562478 -0.0290686 224 56 124
0.247009 0.94694 -0.33847 159 248 84
-0.159346 -0.836241 -0.192195 107 21 103
-0.37853 0.786331 0.266969 79 228 162
0.500292 -0.682534 -0.0183563 191 40 125
0.549956 0.785144 -0.142358 198 228 109
0.904732 -0.388279 0.185347 243 78 151
-0.284883 -0.935768 -0.185025 91 8 104
0.744636 0.581153 -0.322892 222 202 86
0.405025 -0.777443 -0.0519423 179 28 121
-0.997118 -0.0756687 0.307807 0 118 167
0.830157 0.234217 -0.0553359 233 157 120
0.71552 0.484251 -0.110363 219 189 113
-0.464668 0.746283 0.318629 68 223 168
-0.485755 -0.738772 -0.339165 66 33 84
-0.781143 -0.526995 0.106925 28 60 141
0.940108 0.256903 0.339061 247 160 171
-0.85251 -0.401399 -0.0809233 19 76 117
0.687286 -0.675701 0.233654 215 41 157
0.681002 -0.572868 -0.0504659 214 54 121
-0.533143 0.658074 0.085437 60 211 138
0.315322 0.931761 -0.299254 168 246 89
0.480837 0.846119 -0.185012 189 235 104
0.348458 0.782772 -0.272392 172 227 93
-0.387748 -0.921707 -0.298218 78 10 89
-0.638759 0.756893 -0.0436044 46 224 122
0.18415 0.982862 0.113144 151 253 142
0.902181 0.323919 -0.172424 243 169 106
0.319861 0.927346 0.317202 168 246 168
0.338641 -0.817585 0.32288 171 23 169
0.709136 0.490936 0.0507733 218 190 134
-0.169198 0.967594 0.136851 106 251 145
0.94101 -0.0956306 0.123147 247 115 143
-0.924177 0.256151 0.0914231 10 160 139
0.361024 -0.87038 -0.137423 174 17 110
-0.822981 -0.312178 -0.320189 23 88 87
0.953694 0.137725 -0.0360317 249 145 123
0.801606 0.550243 0.322805 230 198 169
0.692653 -0.487989 -0.0968601 216 65 115
0.25144 -0.908114 0.158164 160 12 148
0.969385 -0.245427 -0.297128 251 96 90
-0.760892 0.423233 -0.237802 30 181 97
-0.490015 0.871592 0.0788152 65 239 138
0.913893 -0.367405 -0.0276822 244 81 124
-0.58792 -0.788643 -0.307318 53 27 88
-0.147966 -0.833235 -0.0570036 109 21 120
-0.405135 -0.850988 -0.0280111 76 19 124
-0.770166 -0.351409 0.0724366 29 83 137
-0.815654 0.474252 -0.0746231 24 188 118
0.591596 0.737444 -0.00468934 203 222 127
0.844439 0.227343 0.289255 235 156 164
0.570605 -0.684151 -0.00336899 200 40 127
0.104127 -0.840195 -0.0742931 141 20 118
0.742316 -0.490415 -0.322892 222 65 86
0.735505 0.421912 -0.118249 221 181 112
-0.292996 -0.815378 -0.168527 90 24 106
0.644305 -0.551248 0.0293474 210 57 131
-0.795713 0.583317 -0.185848 26 202 104
-0.909919 -0.373656 0.300027 11 80 166
-0.0471548 0.864735 -0.16035 121 238 107
0.934728 0.178388 0.290692 247 150 165
0.198598 -0.823181 0.0807012 153 23 138
-0.864658 -0.502368 -0.0219834 17 63 125
0.876091 0.447372 0.301146 239 185 166
-0.463342 -0.886128 -0.085545 68 15 117
0.0616874 -0.940261 0.0687531 135 8 136
-0.469103 0.817204 -0.175638 68 232 105
-0.69047 0.648339 -0.278283 39 210 92
-0.898796 -0.282921 0.0274245 13 91 131
-0.930479 -0.211283 -0.201386 9 101 102
-0.077642 0.996911 -0.313226 118 255 88
-0.922334 0.341987 0.0712966 10 171 137
0.472801 0.858554 0.120228 188 237 143
-0.152142 0.950997 -0.125516 108 249 111
0.17206 0.985062 -0.308296 149 253 88
0.347062 -0.937789 0.102962 172 8 141
-0.149124 -0.84989 0.0725309 108 19 137
0.361302 0.894167 0.20158 174 242 153
0.26298 0.805932 0.112271 161 230 142
-0.951261 0.132791 -0.0629622 6 144 119
-0.519509 0.68832 -0.0378319 61 215 123
0.625608 0.779368 0.244965 207 227 159
0.553945 -0.762285 -0.114405 198 30 113
-0.832035 0.23022 0.087495 21 157 139
0.84947 -0.457863 0.137316 236 69 145
-0.412806 -0.888415 -0.120605 75 14 112
-0.231994 0.955952 0.0501011 98 249 134
-0.163071 -0.946726 0.183976 107 7 151
0.775778 0.568124 -0.20158 226 200 102
-0.867771 0.117599 -0.304194 17 142 89
0.251843 0.908006 -0.173849 160 243 105
0.305887 -0.815322 -0.240509 167 24 97
0.170282 0.82904 0.0614167 149 233 135
-0.197488 0.840346 -0.0862417 102 235 117
-0.336905 0.897773 0.0856651 85 242 138
-0.0801814 0.913333 0.339165 117 244 171
-0.629392 0.707988 -0.283786 47 218 91
-0.971078 0.119321 0.338523 4 143 171
0.452162 0.751355 -0.313265 185 223 88
0.669609 -0.662966 0.0423284 213 43 133
-0.849474 0.196618 -0.25609 19 153 95
0.568547 0.643321 0.294063 200 210 165
-0.841473 0.190819 -0.0718236 20 152 118
0.648977 -0.702887 -0.339165 210 38 84
0.0371153 0.957149 0.339165 132 250 171
-0.915314 -0.387732 -0.224671 11 78 99
-0.736161 0.613929 0.162172 34 206 148
-0.866463 0.102413 -0.263663 17 141 94
-0.830442 -0.201186 -0.239847 22 102 97
0.68264 0.500404 0.0649191 215 191 136
-0.843088 -0.464912 -0.184672 20 68 104
0.741643 0.668826 0.245138 222 213 159
0.699927 -0.47545 0.0397609 217 67 133
-0.839201 -0.108722 -0.0497621 21 114 121
0.808696 0.349143 0.339101 231 172 171
0.789723 0.514059 0.0654841 228 193 136
0.805498 0.307835 0.0302745 230 167 131
-0.693693 0.692304 0.00174036 39 216 128
-0.441587 -0.878863 0.0914888 71 15 139
-0.335494 -0.784162 0.218098 85 28 155
-0.0392731 0.869297 -0.231435 122 238 98
0.631435 -0.699444 -0.161477 208 38 107
-0.750469 0.627555 0.05408 32 208 134
-0.0532987 -0.998563 -0.311981 121 0 88
0.299253 -0.893545 0.0300367 166 14 131
0.722819 -0.65162 -0.234692 220 44 98
0.833572 -0.219834 0.00777701 234 99 128
-0.142669 -0.972561 -0.314791 109 3 87
0.00179299 -0.958558 -0.171836 128 5 106
0.967247 -0.166283 0.31677 251 106 168
0.695981 -0.71801 -0.0522904 216 36 121
-0.185099 0.954881 0.065925 104 249 136
-0.28562 0.915048 0.156033 91 244 147
-0.841677 0.101987 0.114841 20 141 142
0.467762 0.847476 0.136976 187 236 145
-0.0582244 -0.861656 -0.0592723 120 18 120
0.495057 -0.686067 0.00335431 191 40 128
0.853763 -0.519823 -0.2455 236 61 96
-0.332542 0.821089 0.339165 85 232 171
-0.993167 0.116518 -0.311649 1 142 88
0.649772 -0.759693 -0.211401 210 31 101
-0.124429 0.992246 0.271518 112 254 162
0.37058 -0.77034 0.244723 175 29 159
0.570025 -0.770701 -0.180863 200 29 104
-0.562063 -0.671459 -0.303564 56 42 89
0.93748 -0.178247 -0.339165 247 105 84
0.406164 -0.786405 -0.322892 179 27 86
-0.809666 0.322864 0.252769 24 169 160
-0.386005 -0.879716 0.140081 78 15 145
-0.856039 -0.431401 -0.0866808 18 72 116
0.209681 0.938498 -0.212604 154 247 100
-0.352984 -0.873695 -0.156284 82 16 108
-0.20535 -0.841019 -0.154355 101 20 108
-0.0551499 0.845339 -0.092017 120 235 116
-0.709834 0.501878 -0.219034 37 191 100
-0.398953 -0.796225 -0.0229612 77 26 125
0.232104 0.825177 0.276867 157 233 163
0.266 0.920948 0.145126 161 245 146
-0.374617 -0.892383 0.234191 80 14 157
0.605419 -0.768199 0.120578 205 30 143
-0.956812 -0.111231 -0.2126 6 113 100
0.735208 0.4212 -0.0974987 221 181 115
-0.938622 -0.131405 -0.287835 8 111 91
0.728304 -0.434609 0.122616 220 72 143
-0.623914 0.756996 0.136851 48 224 145
0.926815 -0.244682 -0.155343 246 96 108
-0.335937 0.882043 -0.0807231 85 240 117
-0.73693 -0.46262 -0.334681 34 69 85
0.0436869 -0.862515 0.0977286 133 18 140
-0.272644 -0.894334 0.339165 93 13 171
-0.847633 -0.182225 0.180426 19 104 151
-0.611813 -0.62895 0.315041 49 47 168
-0.833563 0.439474 -0.0865558 21 184 116
0.478346 0.878088 0.0869486 188 239 139
-0.937957 -0.197704 0.148068 8 102 146
0.863509 -0.0682295 -0.164485 238 119 107
0.799812 -0.32168 0.00661662 229 86 128
-0.752014 0.56776 -0.150466 32 200 108
-0.0250736 -0.983353 0.299027 124 2 166
-0.874432 -0.0438025 -0.301857 16 122 89
-0.790947 0.310215 -0.158451 27 167 107
-0.48023 0.697241 -0.0746751 66 216 118
-0.508386 -0.830347 0.2126 63 22 155
-0.939754 -0.0692136 0.180172 8 119 150
0.0852069 0.863129 -0.186066 138 238 104
0.94829 -0.116772 -0.212605 248 113 100
-0.30491 0.793667 -0.169902 89 229 106
-0.397788 0.892936 -0.070061 77 241 119
0.364458 -0.784446 -0.139578 174 27 110
-0.051932 -0.862585 -0.116549 121 18 113
-0.106745 0.936192 -0.189479 114 247 103
-0.983656 -0.0101565 0.30768 2 126 167
-0.475855 0.791894 -0.322892 67 228 86
-0.84828 0.492771 -0.294674 19 190 90
-0.677522 0.520521 0.238675 41 194 158
-0.588543 -0.735875 0.176493 52 34 150
0.736118 0.442893 -0.300066 221 184 89
0.525442 -0.802594 -0.141803 194 25 109
-0.745081 -0.416653 -0.227971 33 74 98
-0.716826 0.619225 -0.249437 36 206 96
0.417111 -0.863063 -0.0491784 181 17 121
0.997377 -0.0717407 -0.0552225 255 118 120
0.87121 0.490841 0.0895952 239 190 139
0.863064 0.184211 -0.339062 238 151 84
0.830343 0.213121 0.277736 233 155 163
-0.819529 -0.316009 0.315931 23 87 168
-0.22516 -0.971978 -0.0309636 99 4 124
-0.520605 -0.769532 0.339165 61 29 171
-0.82417 0.261387 -0.327489 22 161 86
0.966792 0.175863 -0.20871 251 150 101
0.593834 -0.668011 -0.0185258 203 42 125
-0.346139 -0.899767 -0.257562 83 13 95
0.362162 -0.783511 -0.0832172 174 28 117
-0.160036 0.929872 0.194694 107 246 152
0.944676 0.327946 -0.101913 248 169 115
0.712062 -0.458121 0.077387 218 69 137
-0.250039 0.815994 0.224671 96 232 156
-0.695964 -0.655965 -0.20158 39 44 102
0.910045 0.305785 0.250315 244 166 159
0.643306 -0.725997 0.20158 210 35 153
-0.953683 0.0967515 0.0597696 6 140 135
0.535228 -0.787497 -0.201381 196 27 102
0.845707 -0.0145735 0.00920236 235 126 129
-0.853846 0.00181479 -0.231086 19 128 98
0.205121 -0.962931 -0.22987 154 5 98
0.661317 0.747281 -0.0804353 212 223 117
-0.271447 -0.906057 -0.322892 93 12 86
-0.602108 0.600698 -0.176682 51 204 105
0.810857 -0.293043 -0.0163867 231 90 125
-0.14132 0.952527 -0.20158 109 249 102
0.931155 0.0419682 -0.322892 246 133 86
-0.00505071 -0.999957 0.112702 127 0 142
0.263174 -0.90959 -0.274234 161 12 93
0.821194 0.562042 -0.136027 232 199 110
0.490342 -0.766933 -0.339165 190 30 84
0.340383 -0.896582 -0.0656038 171 13 119
-0.324751 0.945728 -0.0171788 86 248 125
0.761431 -0.387488 -0.237875 225 78 97
-0.307732 -0.788841 0.0781259 88 27 137
0.776409 -0.375542 0.322478 226 80 169
-0.915575 -0.222761 -0.0533447 11 99 121
0.941798 -0.141377 0.322892 248 109 169
-0.529168 0.779651 0.181598 60 227 151
-0.754267 0.628226 0.0229067 31 208 130
-0.69297 0.534929 0.301289 39 196 166
0.772585 -0.350227 0.128972 226 83 144
0.051745 0.861156 0.322985 134 237 169
-0.390421 0.876896 0.293246 78 239 165
0.0312862 -0.941862 -0.0201375 131 7 125
-0.158244 0.987347 -0.206511 107 253 101
0.177068 -0.967164 0.18536 150 4 151
-0.80648 0.255311 -0.0210893 25 160 125
0.742163 -0.447558 0.173627 222 70 150
-0.932468 0.296129 -0.136912 9 165 110
0.884835 -0.273383 0.339165 240 93 171
-0.441534 -0.809288 -0.322892 71 24 86
-0.885472 -0.454219 0.32706 15 70 169
-0.355572 0.890219 0.166413 82 241 149
-0.801202 -0.310792 0.304362 25 88 166
-0.107642 -0.941692 0.286488 114 7 164
0.571855 -0.628772 -0.16427 200 47 107
0.527805 0.848535 0.271075 195 236 162
-0.84768 -0.411569 -0.144747 19 75 109
0.14889 0.930469 0.0756842 146 246 137
0.255853 -0.92093 0.201513 160 10 153
-0.42535 -0.904978 -0.00925915 73 12 126
0.77108 -0.388953 -0.0975174 226 78 115
0.951808 0.0794784 -0.0985502 249 138 115
-0.37821 0.880838 0.0993105 79 240 140
-0.990747 0.136073 -0.24711 1 145 96
-0.981373 -0.00184996 -0.263522 2 127 94
0.901563 -0.293109 -0.287743 242 90 91
-0.899 -0.375445 -0.231604 13 80 98
0.588109 -0.736212 -0.169221 202 34 106
-0.92611 -0.107122 -0.322892 9 114 86
0.246252 -0.80919 -0.0129755 159 24 126
-0.826384 -0.18435 -0.0767926 22 104 118
0.952749 -0.244881 -0.185353 249 96 104
0.877119 -0.127894 -0.339165 239 111 84
-0.631647 -0.601722 -0.262023 47 51 94
-0.614574 0.714318 0.181838 49 219 151
0.814412 -0.254235 -0.221189 231 95 99
0.866795 0.372995 0.339165 238 175 171
-0.368142 -0.776556 0.304428 81 28 166
0.227217 0.839939 0.230533 156 235 157
-0.852731 0.195311 -0.293157 19 152 90
-0.0607462 -0.998182 -0.247663 120 0 96
-0.253413 0.92902 0.293246 95 246 165
-0.869636 0.493026 0.211123 17 190 154
-0.551349 0.814602 0.308541 57 231 167
-0.931356 -0.172792 0.278867 9 105 163
-0.635329 -0.719867 -0.339165 46 36 84
0.719087 0.633806 -0.0501462 219 208 121
-0.464139 -0.867705 -0.185535 68 17 104
-0.105057 -0.95397 -0.0715896 114 6 118
0.418454 0.754412 0.0663891 181 224 136
0.851686 -0.0427444 0.215176 236 122 155
-0.413883 0.770668 -0.292817 75 226 90
-0.625639 -0.760522 -0.336344 48 31 85
0.355513 0.886274 -0.0863339 173 240 116
-0.5663 0.638448 -0.224823 55 209 99
0.787436 -0.499035 -0.322892 228 64 86
0.502301 0.825506 -0.12064 192 233 112
-0.95011 -0.311971 -0.239111 6 88 97
-0.263342 0.946593 -0.273616 94 248 93
0.458017 -0.867977 -0.0886227 186 17 116
-0.693619 0.637812 0.101721 39 209 140
-0.914574 -0.378282 -0.186793 11 79 104
0.121366 0.937409 -0.198214 143 247 102
-0.763245 -0.365799 -0.0625003 30 81 120
-0.900107 -0.423233 0.000940236 13 74 128
0.567808 0.762438 0.0425117 200 225 133
-0.843788 -0.310175 0.322892 20 88 169
0.701885 0.472569 -0.0403523 217 188 122
-0.957469 0.195639 -0.12034 5 152 112
0.997387 -0.0709407 0.120319 255 118 143
-0.940992 0.231141 -0.255002 8 157 95
-0.772039 0.58849 0.322822 29 203 169
-0.432065 0.900387 0.278211 72 242 163
0.804129 0.518885 -0.201563 230 194 102
-0.877198 0.409631 -0.238912 16 180 97
-0.763829 -0.421468 0.262883 30 74 161
-0.655246 0.560703 0.0414134 44 199 133
0.957808 0.0375697 -0.17347 250 132 105
-0.71255 0.641198 0.0548202 37 209 134
0.840164 -0.51166 -0.0472144 235 62 121
0.166001 -0.976656 0.269972 149 3 162
0.973324 -0.214411 -0.32472 252 100 86
-0.838909 0.242938 -0.27558 21 158 92
0.94228 0.334664 0.0969193 248 170 140
0.280904 0.9569 -0.219783 163 250 99
0.523288 0.686875 0.0957399 194 215 140
-0.814313 -0.23327 0.0897224 24 98 139
0.337195 0.777511 0.103331 170 227 141
-0.0957183 0.928151 -0.339165 115 246 84
0.905947 -0.395054 0.136851 243 77 145
-0.494296 -0.687449 0.0227801 64 40 130
0.857563 0.502836 0.224214 237 192 156
-0.857236 -0.10272 0.0902312 18 114 139
0.936341 0.105494 -0.150387 247 141 108
-0.962522 0.103875 0.293246 5 141 165
-0.123829 -0.925334 0.322892 112 10 169
0.110869 -0.839151 0.0686059 142 21 136
0.676399 -0.688859 -0.273452 214 40 93
-0.694354 -0.652403 0.0102391 39 44 129
0.797505 0.600256 0.242453 229 204 158
0.914512 0.353719 0.25986 244 173 161
-0.268526 0.920367 -0.105677 93 245 114
-0.326771 -0.88385 -0.0369039 86 15 123
0.179724 0.856302 -0.295131 150 237 90
-0.98635 -0.164382 0.303222 2 107 166
0.818086 -0.218633 -0.0807143 232 100 117
0.589363 0.787508 0.311338 203 228 167
-0.518573 0.830921 -0.319066 61 233 87
0.0608102 0.943238 0.197069 135 248 153
