ply
format ascii 1.0
comment Created by Open3D
element vertex 1204
property double x
property double y
property double z
property uchar red
property uchar green
property uchar blue
end_header
0.115817 -0.541069 -0.280705 142 59 92
0.581751 -0.541922 -0.703797 202 58 38
0.0284774 -0.158659 -0.571573 131 107 55
0.0772957 -0.475978 -0.299866 137 67 89
0.0863638 -0.0691592 -0.581751 139 119 53
0.0772957 -0.459706 -0.299868 137 69 89
-0.0447501 -0.150523 -0.927864 122 108 9
0.890934 -0.541897 0.378342 241 58 176
-0.467842 -0.492795 0.614297 68 65 206
-0.345796 0.183069 -0.820564 83 151 23
-0.492251 0.386478 0.133171 65 177 144
-0.0284774 -0.23356 -0.687524 124 98 40
-0.0366137 0.148489 -0.508524 123 146 63
-0.273843 -0.256296 -0.703797 93 95 38
0.353933 0.197483 0.288841 173 153 164
0.622433 0.169932 -0.22375 207 149 99
0.0854319 0.0528865 -0.871969 138 134 16
0.0854319 -0.0203409 -0.871969 138 125 16
0.0854319 0.0366137 -0.871969 138 132 16
0.0854319 -0.0447501 -0.871969 138 122 16
-0.771898 -0.532933 0.174932 29 60 150
0.484115 -0.505085 0.581751 189 63 202
0.51666 0.324335 -0.264432 193 169 94
-0.306954 -0.557342 0.947888 88 56 248
-0.24816 -0.504068 -0.703797 96 63 38
-0.24816 -0.504068 -0.72007 96 63 36
-0.508524 0.253061 0.0284774 63 160 131
-0.504068 0.24816 -0.199341 63 159 102
-0.504068 0.24816 0.13425 63 159 145
-0.504068 0.24816 0.183069 63 159 151
-0.508524 0.253061 0.256296 63 160 160
-0.508524 0.253061 0.207478 63 160 154
-0.508524 0.253061 0.158659 63 160 148
-0.508524 0.253061 0.0935684 63 160 139
-0.508524 0.253061 -0.0854319 63 160 117
-0.508524 0.253061 -0.166796 63 160 106
-0.504068 0.24816 -0.04475 63 159 122
-0.508524 0.253061 -0.0122045 63 160 126
-0.508524 0.253061 -0.22375 63 160 99
-0.508524 0.253061 -0.207478 63 160 101
-0.504068 0.24816 -0.0935683 63 159 116
-0.504068 0.24816 -0.109841 63 159 113
-0.504068 0.24816 -0.158659 63 159 107
-0.504068 0.24816 0.150523 63 159 147
-0.504068 0.24816 0.199341 63 159 153
-0.508524 0.253061 0.174932 63 160 150
-0.492251 0.466806 0.117978 65 187 143
0.0447501 -0.101705 -0.550914 133 115 57
0.793297 -0.576204 -0.467842 229 54 68
-0.00072133 -0.0203409 -0.492251 127 125 65
-0.00072133 0.0447501 -0.492251 127 133 65
-0.00072133 0.0691592 -0.492251 127 136 65
-0.00072133 -0.0447501 -0.492251 127 122 65
-0.00072133 -0.0610229 -0.492251 127 120 65
-0.00072133 0.0284774 -0.492251 127 131 65
-0.00072133 0.00406821 -0.492251 127 128 65
-0.0122045 0.163193 0.288841 126 148 164
0.394614 -0.546969 0.915343 178 58 244
-0.504068 0.0284774 -0.0854319 63 131 117
-0.504068 -0.0284774 -0.0854319 63 124 117
-0.508524 0.0935684 -0.0805541 63 139 117
-0.508524 -0.492251 -0.0805541 63 65 117
-0.504068 0.150523 -0.0854319 63 147 117
-0.504068 -0.419024 -0.0854319 63 74 117
-0.504068 -0.256296 -0.0854319 63 95 117
-0.504068 -0.467842 -0.0854319 63 68 117
-0.504068 0.0122045 -0.0854319 63 129 117
-0.504068 -0.51666 -0.0854319 63 62 117
-0.508524 -0.24816 -0.0805541 63 96 117
-0.508524 -0.0528864 -0.0805541 63 121 117
-0.504068 -0.484115 -0.0854319 63 66 117
-0.508524 -0.199341 -0.0805541 63 102 117
-0.508524 -0.386478 -0.0805541 63 78 117
-0.508524 -0.459706 -0.0805541 63 69 117
-0.504068 -0.085432 -0.0854319 63 117 117
-0.504068 -0.305114 -0.0854319 63 89 117
-0.504068 -0.166796 -0.0854319 63 106 117
-0.504068 -0.353933 -0.0854319 63 82 117
-0.508524 -0.508524 -0.0805541 63 63 117
-0.508524 -0.0366137 -0.0805541 63 123 117
-0.504068 0.126114 -0.0854319 63 144 117
-0.508524 0.00406821 -0.0805541 63 128 117
-0.504068 0.0854319 -0.0854319 63 138 117
0.0203409 -0.532933 -0.35793 130 60 82
-0.345796 0.0447501 -0.514136 83 133 62
-0.199341 -0.166796 -0.512631 102 106 62
0.272569 -0.475978 0.592529 162 67 203
-0.42933 -0.565478 0.907207 73 55 243
-0.345796 0.253249 0.288841 83 160 164
0.413899 -0.386478 0.378342 180 78 176
0.443433 -0.505138 -0.475978 184 63 67
-0.419024 0.0723029 -0.768888 74 137 29
-0.402751 -0.0122045 -0.854815 76 126 19
-0.127118 -0.33766 -0.264432 111 84 94
-0.404706 -0.207478 0.386478 76 101 177
-0.711933 -0.541897 0.679388 37 58 214
-0.00094228 -0.532933 0.866525 127 60 238
0.0168544 -0.191205 -0.842115 130 103 20
0.0122045 -0.12293 -0.923479 129 112 10
-0.207478 0.0528865 -0.999999 101 134 0
-0.037049 0.0447501 -0.467842 123 133 68
-0.307465 0.150523 0.288841 88 147 164
-0.109841 -0.500387 0.594326 113 64 203
0.313251 -0.505829 0.581751 167 63 202
-0.197356 0.280705 -0.793297 102 163 26
-0.241234 -0.22375 0.386478 97 99 177
-0.359797 -0.183069 -0.687524 82 104 40
-0.231887 0.0528865 -0.983969 98 134 2
0.703797 -0.32654 -0.142387 217 86 109
-0.13425 -0.576204 -0.890934 110 54 14
-0.500387 0.375872 0.264432 64 175 161
-0.0772956 0.109841 -0.980958 118 142 2
0.62468 0.166796 -0.174932 207 149 105
0.702441 -0.329523 -0.191205 217 85 103
-0.0447501 -0.251585 -0.671251 122 95 42
-0.0391525 -0.24816 -0.768888 123 96 29
-0.0447501 -0.251585 -0.69566 122 95 39
0.422734 -0.573615 0.907207 181 54 243
-0.140285 -0.541069 0.654979 110 59 211
0.0122045 -0.124385 -0.524796 129 112 61
-0.0528864 -0.22375 -0.603287 121 99 51
-0.353933 -0.195961 -0.760752 82 103 31
0.931616 -0.565478 -0.187736 246 55 104
0.0532581 0.150523 -0.598024 134 147 51
-0.419024 0.0892889 -0.752615 74 139 32
0.00108102 -0.199341 -0.825843 128 102 22
-0.313251 -0.277114 -0.728206 88 92 35
-0.277114 -0.264432 -0.728206 92 94 35
-0.00974273 -0.158659 -0.907206 126 107 12
0.671251 -0.465462 -0.467842 213 68 68
-0.199341 -0.240023 0.368814 102 97 175
-0.39584 -0.109841 -0.630569 77 113 47
-0.0610229 -0.251594 -0.752615 120 95 32
-0.345796 -0.150523 -0.855729 83 108 18
-0.101705 -0.174932 -0.515747 115 105 62
0.719387 -0.378342 -0.158659 219 79 107
-0.0935684 0.272569 -0.660816 116 162 43
-0.378342 0.549206 -0.100913 79 198 115
-0.0772956 -0.142413 -0.956025 118 109 6
0.22375 -0.484115 -0.512848 156 66 62
-0.126114 -0.236341 -0.850252 111 97 19
0.396925 -0.386478 -0.353932 178 78 82
0.646842 -0.467842 -0.502075 210 68 63
-0.42716 -0.0701592 -0.272569 73 119 93
-0.931616 -0.549206 -0.187676 9 57 104
0.931616 -0.549206 -0.187676 246 57 104
0.362069 -0.54382 -0.833979 174 58 21
0.378342 -0.54382 -0.833979 176 58 21
0.353933 -0.549206 -0.837641 173 57 21
-0.524797 -0.54382 0.833979 61 58 234
0.541069 -0.549206 0.83764 196 57 234
0.0854319 -0.0610229 -0.871969 138 120 16
0.341605 -0.386478 -0.362069 171 78 81
-0.0447501 0.0891931 -0.467842 122 139 68
-0.517361 0.215614 -0.0122045 62 155 126
-0.517361 0.215614 0.101705 62 155 140
-0.435296 -0.22375 -0.260797 72 99 94
0.0772957 -0.0720409 -0.264432 137 118 94
-0.362069 -0.0720409 -0.264432 81 118 94
-0.305114 -0.0720409 -0.264432 89 118 94
-0.085432 -0.0720409 -0.264432 117 118 94
-0.174932 -0.0720409 -0.264432 105 118 94
0.101705 -0.0720409 -0.264432 140 118 94
0.150523 -0.0720409 -0.264432 147 118 94
0.0447501 -0.0720409 -0.264432 133 118 94
-0.117978 -0.0720409 -0.264432 112 118 94
-0.329523 -0.0720409 -0.264432 85 118 94
-0.419024 -0.0720409 -0.264432 74 118 94
-0.402751 -0.0720409 -0.264432 76 118 94
-0.345796 -0.0720409 -0.264432 83 118 94
-0.386478 -0.0720409 -0.264432 78 118 94
-0.183069 -0.0772956 -0.260611 104 118 94
-0.13425 -0.0720409 -0.264432 110 118 94
-0.158659 -0.0720409 -0.264432 107 118 94
0.313251 0.0720409 -0.264432 167 137 94
0.0610228 -0.0720409 -0.264432 135 118 94
0.126114 -0.0720409 -0.264432 144 118 94
0.60616 0.150523 -0.224302 205 147 99
-0.500387 -0.574757 0.858388 64 54 237
-0.296978 0.197492 -0.882797 90 153 15
-0.362069 0.191205 -0.765959 81 152 30
-0.0576919 -0.158659 -0.508524 120 107 63
-0.0691592 0.234334 -0.866524 119 157 17
-0.329523 -0.178863 -0.850252 85 105 19
0.329523 -0.467842 0.614446 170 68 206
0.402751 -0.467842 0.614446 179 68 206
-0.0284774 -0.253355 0.378342 124 95 176
0.715634 -0.419024 -0.101705 219 74 115
-0.174932 -0.174932 -0.944679 105 105 7
-0.0772956 0.174932 -0.944679 118 150 7
-0.359986 0.174932 -0.622433 82 150 48
0.0892889 0.0203409 -0.581751 139 130 53
0.0610228 -0.158659 -0.817554 135 107 23
-0.0183566 -0.207478 -0.842115 125 101 20
0.109841 -0.530832 0.703797 142 60 217
0.858388 -0.549206 -0.386606 237 57 78
0.0772957 0.126114 -0.823571 137 144 22
0.557342 -0.215374 -0.362069 199 100 81
0.573615 -0.215374 -0.362069 201 100 81
0.174932 -0.459706 -0.40396 150 69 76
0.532933 0.197406 -0.0691592 195 153 119
-0.296978 -0.467842 0.614446 90 68 206
0.252276 -0.394614 0.378342 160 77 176
0.0528865 0.134698 -0.557342 134 145 56
-0.396488 0.109841 -0.817706 77 142 23
-0.345796 -0.0351871 -0.915343 83 123 11
0.0447501 0.197492 -0.663115 133 153 43
0.459705 -0.217287 0.378342 186 100 176
0.557342 -0.530653 -0.614297 199 60 49
-0.191205 -0.254744 -0.622433 103 95 48
0.668134 -0.532933 0.541069 213 60 196
-0.109841 -0.209155 -0.89907 113 101 13
-0.166796 -0.191205 -0.927579 106 103 9
-0.117978 -0.191205 -0.927579 112 103 9
-0.13425 -0.191205 -0.927579 110 103 9
-0.191205 0.183069 -0.945572 103 151 7
0.0717668 0.117978 -0.842115 137 143 20
0.500387 -0.543853 0.858388 191 58 237
-0.345796 -0.0284774 -0.927694 83 124 9
0.0728983 -0.394614 -0.272569 137 77 93
-0.197492 -0.0610229 -0.451569 102 120 70
0.449967 -0.207478 0.378342 185 101 176
-0.760752 -0.575964 -0.524796 31 54 61
-0.239218 -0.215614 -0.573615 97 100 54
0.296978 0.0171532 -0.321387 165 130 87
-0.231887 0.265904 -0.614297 98 161 49
-0.0377389 0.264432 -0.793297 123 161 26
-0.581751 -0.419024 0.132123 53 74 144
-0.329523 -0.504068 -0.736342 85 63 34
-0.394614 0.532933 -0.0155777 77 195 126
0.22375 -0.532933 -0.33472 156 60 85
0.754404 -0.402751 -0.0772955 224 76 118
-0.180082 0.0203409 -0.264432 105 130 94
-0.419024 0.0892889 -0.711933 74 139 37
-0.419024 0.0892889 -0.687524 74 139 40
-0.414248 0.0935684 -0.744479 75 139 33
-0.101705 -0.199341 -0.893523 115 102 14
0.00406821 -0.174932 -0.872504 128 105 16
0.711933 -0.199253 0.215614 218 102 155
-0.0122045 -0.117978 -0.927864 126 112 9
-0.678782 -0.549206 -0.638706 41 57 46
0.858388 -0.566268 -0.386478 237 55 78
0.0351863 -0.207478 -0.752615 132 101 32
0.0703369 0.174932 -0.671251 136 150 42
0.0351863 0.207478 -0.663115 132 154 43
0.0772957 -0.475978 -0.367384 137 67 81
-0.126114 -0.573615 0.997637 111 54 255
0.0284774 0.178278 -0.573615 131 150 54
0.0718203 0.0935684 -0.866524 137 139 17
-0.687524 -0.549206 0.711389 40 57 218
-0.183069 -0.107222 -0.467842 104 114 68
0.42716 -0.50487 -0.475978 182 63 67
0.343259 0.199341 0.288841 171 153 164
-0.785161 -0.541947 -0.500387 27 58 64
-0.300503 -0.0691592 -0.484115 89 119 66
-0.810599 -0.549206 -0.467842 24 57 68
0.532933 0.158659 0.154242 195 148 147
0.00406821 -0.140347 -0.907206 128 110 12
-0.240023 0.163193 0.288841 97 148 164
-0.42716 0.0203409 -0.642119 73 130 46
-0.42716 0.0366137 -0.642119 73 132 46
-0.42716 0.00406821 -0.642119 73 128 46
0.107287 -0.0772956 -0.630569 141 118 47
-0.264432 0.109841 -0.47955 94 142 66
-0.308471 -0.541069 0.882797 88 59 240
-0.342763 -0.33766 -0.264432 84 84 94
-0.33766 -0.256296 -0.260611 84 95 94
-0.240023 0.529355 -0.0122045 97 195 126
-0.313251 0.161697 -0.264432 88 148 94
-0.341763 0.0691592 -0.915343 84 136 11
-0.341763 -0.0691592 -0.915343 84 119 11
-0.341763 0.0854319 -0.915343 84 138 11
0.101705 0.142387 -0.739341 140 146 33
-0.280705 -0.530563 0.890934 92 60 241
0.0691592 0.176381 -0.638706 136 150 46
-0.199341 0.256296 -0.837695 102 160 21
-0.101705 0.256296 -0.837695 115 160 21
-0.215614 0.256296 -0.837695 100 160 21
-0.934145 -0.573615 -0.174932 8 54 105
0.142387 -0.432594 -0.313251 146 72 88
-0.358689 -0.126114 -0.573615 82 111 54
-0.581751 -0.549206 -0.711389 53 57 37
-0.0284774 -0.179458 -0.89907 124 105 13
0.500387 -0.543853 -0.768888 191 58 29
-0.500387 -0.543852 -0.768888 64 58 29
-0.42716 0.0702852 -0.777024 73 136 28
0.0854319 -0.107105 -0.622433 138 114 48
-0.0366137 -0.248991 0.370205 123 96 175
0.654979 -0.280705 -0.35078 211 92 83
-0.359523 0.109841 -0.557342 82 142 56
-0.150523 -0.467842 0.614446 108 68 206
-0.0528864 0.242072 0.288841 121 158 164
-0.0610229 0.225686 -0.890934 120 156 14
0.362069 -0.532933 -0.648995 174 60 45
0.0528865 0.0455925 -0.532933 134 133 60
-0.264432 0.268369 -0.646842 94 162 45
0.695744 -0.467842 -0.459705 216 68 69
0.508524 -0.50549 -0.362069 192 63 81
-0.305114 -0.567856 -0.866524 89 55 17
-0.715766 -0.532933 0.565479 36 60 200
-0.142387 -0.440217 0.63057 109 71 208
-0.126114 -0.0691592 -0.446729 111 119 71
-0.324479 -0.256296 -0.264432 86 95 94
-0.264432 0.324479 -0.264432 94 169 94
-0.435296 0.324479 -0.264432 72 169 94
-0.296978 0.324479 -0.264432 90 169 94
-0.329523 0.0935684 -0.260611 85 139 94
-0.410887 0.329523 -0.260611 75 170 94
-0.33766 0.329523 -0.260611 84 170 94
-0.362069 0.329523 -0.260611 81 170 94
-0.142387 0.329523 -0.260611 109 170 94
0.256296 0.324479 -0.264432 160 169 94
0.280705 0.329523 -0.260611 163 170 94
0.158659 0.324479 -0.264432 148 169 94
0.231887 0.329523 -0.260611 157 170 94
0.0528865 0.324479 -0.264432 134 169 94
0.0935684 0.329523 -0.260611 139 170 94
0.313251 0.329523 -0.260611 167 170 94
0.475978 0.324479 -0.264432 188 169 94
0.33766 0.324479 -0.264432 171 169 94
0.435296 0.324479 -0.264432 183 169 94
0.370205 0.329523 -0.260611 175 170 94
0.394614 0.324479 -0.264432 178 169 94
0.508524 0.329523 -0.260611 192 170 94
-0.321387 0.329523 -0.260611 87 170 94
-0.313251 0.324479 -0.264432 88 169 94
-0.467842 0.329523 -0.260611 68 170 94
-0.484115 0.329523 -0.260611 66 170 94
-0.288842 0.329523 -0.260611 91 170 94
-0.402751 0.324479 -0.264432 76 169 94
-0.42716 0.329523 -0.260611 73 170 94
-0.272569 0.329523 -0.260611 93 170 94
-0.0447501 0.324479 -0.264432 122 169 94
-0.166796 0.329523 -0.260611 106 170 94
0.240023 0.324479 -0.264432 158 169 94
-0.329523 0.109841 -0.260611 85 142 94
-0.0366137 0.329523 -0.260611 123 170 94
0.215614 0.329523 -0.260611 155 170 94
0.288841 0.324479 -0.264432 164 169 94
0.13425 0.324479 -0.264432 145 169 94
0.264432 0.329523 -0.260611 161 170 94
0.166796 0.329523 -0.260611 149 170 94
0.42716 0.329523 -0.260611 182 170 94
0.467842 0.329523 -0.260611 187 170 94
0.329523 0.329523 -0.260611 170 170 94
0.305114 0.324479 -0.264432 166 169 94
0.378342 0.324479 -0.264432 176 169 94
-0.00406821 0.324479 -0.264432 127 169 94
-0.703797 -0.528625 0.565479 38 60 200
0.508524 -0.400403 -0.362069 192 76 81
-0.524797 0.22375 0.12824 61 156 144
0.63057 0.125357 -0.240023 208 143 97
-0.226419 -0.231887 -0.573615 99 98 54
-0.109067 -0.51666 0.638706 114 62 209
0.557342 -0.530653 -0.630569 199 60 47
0.0892889 0.150523 -0.703797 139 147 38
-0.646842 -0.549206 0.761682 45 57 225
0.541069 -0.42716 -0.352015 196 73 83
0.00406821 0.107323 -0.508524 128 141 63
0.0348002 0.0203409 -0.939752 132 130 8
0.0711672 0.126114 -0.272569 137 144 93
-0.256296 -0.101705 -0.479346 95 115 66
0.117978 0.0883583 -0.760752 143 139 31
0.711933 -0.215614 0.226366 218 100 156
-0.0731852 -0.0284774 -0.98857 118 124 1
0.0299233 -0.126114 -0.890934 131 111 14
0.0691592 -0.085432 -0.884803 136 117 15
-0.0122045 0.192265 -0.890934 126 152 14
0.467842 -0.420919 0.378342 187 74 176
-0.0203409 -0.193093 -0.882797 125 103 15
0.646842 -0.221857 -0.362069 210 99 81
-0.493363 -0.467842 0.565479 65 68 200
0.191205 -0.475978 0.620603 152 67 207
-0.345796 -0.161969 -0.60616 83 107 50
-0.341763 -0.166796 -0.833979 84 106 21
0.160691 -0.42716 -0.345796 148 73 83
-0.09105 -0.0447501 -0.451569 116 122 70
-0.307083 0.199341 0.280705 88 153 163
0.532933 0.163254 0.085432 195 148 138
0.532933 0.163254 -0.0691592 195 148 119
0.532933 0.163254 0.142387 195 148 146
-0.500387 -0.541897 0.768888 64 58 226
0.500387 -0.541897 -0.630569 191 58 47
-0.288842 -0.181085 -0.557342 91 104 56
0.484115 -0.505474 0.475978 189 63 188
0.362069 -0.500387 -0.480543 174 64 66
0.362069 -0.341728 0.378342 174 84 176
0.451569 -0.394614 -0.351953 185 77 83
-0.312181 0.215614 -0.825843 88 155 22
0.0126777 0.142387 -0.915343 129 146 11
0.191205 -0.42716 0.749287 152 73 223
0.484115 -0.541897 0.671252 189 58 213
0.109841 -0.459706 -0.269747 142 69 93
-0.233913 -0.484115 -0.679388 98 66 41
-0.264432 0.268864 -0.679388 94 162 41
-0.268864 0.264432 -0.760752 93 161 31
-0.264432 0.268864 -0.69566 94 162 39
-0.268864 0.264432 -0.777024 93 161 28
-0.268864 0.264432 -0.671251 93 161 42
-0.339414 0.158659 -0.882797 84 148 15
0.231887 -0.459706 0.644981 157 69 210
-0.521191 0.0122045 0.296978 61 129 165
-0.51666 0.0165226 0.321387 62 130 168
-0.51666 0.0165226 0.305114 62 130 166
-0.0203409 -0.0935684 -0.496812 125 116 64
-0.0122045 0.0892889 -0.492251 126 139 65
-0.410887 -0.0610229 -0.607383 75 120 50
-0.217287 -0.394614 0.378342 100 77 176
-0.165918 -0.0366137 -0.264432 106 123 94
-0.370205 0.197466 -0.736342 80 153 34
-0.235321 -0.492251 -0.687524 97 65 40
-0.231887 0.0484617 -0.451569 98 134 70
-0.0881989 -0.541069 -0.760752 116 59 31
0.183069 -0.492251 -0.29844 151 65 89
0.00088739 0.207478 0.288841 128 154 164
0.00088739 0.150523 0.288841 128 147 164
-0.622433 -0.532933 0.28041 48 60 163
-0.0456782 -0.215614 0.386478 122 100 177
-0.281711 -0.191205 -0.890934 92 103 14
-0.356217 -0.191205 -0.679388 82 103 41
-0.915343 -0.544021 -0.191205 11 58 103
-0.915343 -0.544021 0.33766 11 58 171
0.915343 -0.544021 0.296978 244 58 165
0.915343 -0.544021 -0.231887 244 58 98
0.918794 -0.549206 -0.240023 245 57 97
0.918794 -0.549206 -0.199341 245 57 102
0.918794 -0.549206 0.329523 245 57 170
0.918794 -0.549206 0.288841 245 57 164
0.467842 0.378342 0.233813 187 176 157
-0.101705 0.269628 -0.793297 115 162 26
0.107936 -0.0366137 -0.646842 141 123 45
-0.402751 0.0284774 -0.855543 76 131 18
0.0610228 0.127532 -0.272569 135 144 93
0.142387 -0.22375 -0.278377 146 99 92
-0.0935684 0.0637458 -0.996707 116 136 0
0.524797 0.150523 -0.0635517 194 147 119
0.0892889 0.0447501 -0.598024 139 133 51
-0.0284774 -0.19721 -0.557342 124 102 56
0.0366137 0.181119 -0.825843 132 151 22
0.126114 0.0739368 -0.272569 144 137 93
-0.362069 -0.484115 0.595462 81 66 203
0.0528865 -0.0284774 -0.917325 134 124 11
-0.22375 -0.465192 0.589888 99 68 203
-0.443433 -0.465192 0.589888 71 68 203
0.191205 -0.465192 0.589888 152 68 203
-0.212887 -0.280705 -0.744479 100 92 33
-0.370205 0.13425 -0.855705 80 145 18
-0.296978 0.207478 -0.873762 90 154 16
-0.419024 -0.532933 -0.372855 74 60 80
0.630136 -0.207478 -0.362069 208 101 81
-0.0284774 0.431933 -0.158659 124 183 107
0.117978 0.431933 -0.158659 143 183 107
-0.191205 0.431933 -0.158659 103 183 107
-0.13425 0.435296 -0.153444 110 183 108
-0.272569 0.431933 -0.158659 93 183 107
0.0528865 0.431933 -0.158659 134 183 107
-0.215614 0.431933 -0.158659 100 183 107
0.215614 0.431933 -0.158659 155 183 107
0.296978 0.435296 -0.153444 165 183 108
0.394614 0.435296 -0.153444 178 183 108
0.256296 0.431933 -0.158659 160 183 107
0.321387 0.435296 -0.153444 168 183 108
0.0935684 0.431933 -0.158659 139 183 107
0.199341 0.431933 -0.158659 153 183 107
0.158659 0.435296 -0.153444 148 183 108
0.0203409 0.435296 -0.153444 130 183 108
-0.109841 0.431933 -0.158659 113 183 107
-0.24816 0.435296 -0.153444 96 183 108
-0.0772956 0.435296 -0.153444 118 183 108
-0.378342 0.435296 -0.153444 79 183 108
-0.370205 0.431933 -0.158659 80 183 107
-0.126114 0.431933 -0.158659 111 183 107
-0.0528864 0.431933 -0.158659 121 183 107
-0.264432 0.435296 -0.153444 94 183 108
-0.183069 0.435296 -0.153444 104 183 108
-0.305114 0.435296 -0.153444 89 183 108
-0.101705 0.435296 -0.153444 115 183 108
-0.0610229 0.435296 -0.153444 120 183 108
0.0610228 0.435296 -0.153444 135 183 108
0.386478 0.431933 -0.158659 177 183 107
0.22375 0.435296 -0.153444 156 183 108
-0.0122045 0.431933 -0.158659 126 183 107
-0.353933 -0.179023 -0.671251 82 105 42
-0.353933 -0.179023 -0.654979 82 105 44
-0.353933 -0.179023 -0.777024 82 105 28
0.0705152 -0.378342 -0.272569 136 79 93
-0.231887 -0.138556 -0.947888 98 110 7
-0.237833 -0.240023 -0.622433 97 97 48
0.72007 -0.296178 -0.191205 219 90 103
0.72007 -0.296178 0.191205 219 90 152
-0.500387 -0.492251 0.619349 64 65 206
0.191205 -0.459706 0.659117 152 69 212
0.0547934 0.199341 0.280705 134 153 163
-0.280705 0.24816 -0.625404 92 159 48
0.565479 -0.570804 -0.728206 200 55 35
-0.760752 -0.576108 0.614297 31 54 206
-0.719817 -0.549206 -0.598024 36 57 51
0.0122045 -0.199341 -0.820432 129 102 23
0.0166017 0.101705 -0.931616 130 140 9
0.308628 -0.492251 -0.508524 167 65 63
0.308628 -0.475978 -0.508524 167 67 63
0.0175968 0.109841 -0.524796 130 142 61
-0.288842 0.557342 -0.0630325 91 199 119
0.703797 -0.329523 0.189573 217 85 152
0.801434 -0.576204 0.549206 230 54 198
0.80957 -0.576204 0.541069 231 54 196
-0.801434 -0.576204 -0.459705 25 54 69
0.0447501 -0.117978 -0.550972 133 112 57
0.0529546 0.0284774 -0.272569 134 131 93
0.0691592 -0.541897 -0.72007 136 58 36
-0.342763 0.0284774 -0.264432 84 131 94
-0.0610229 0.174932 -0.944267 120 150 7
-0.313251 0.199341 -0.584915 88 153 53
-0.296978 0.197483 0.288841 90 153 164
0.0447501 0.197483 0.288841 133 153 164
-0.240023 0.197483 0.288841 97 153 164
-0.085432 -0.532933 -0.677071 117 60 41
-0.199341 -0.341311 0.378342 102 84 176
-0.353933 -0.272569 -0.701765 82 93 38
0.522883 0.215614 0.142387 194 155 146
-0.108669 -0.288842 -0.272569 114 91 93
0.785161 -0.565478 0.603212 228 55 204
0.695661 -0.532933 0.549013 216 60 197
-0.00131128 0.240023 -0.646842 127 158 45
-0.370205 0.125247 -0.866524 80 143 17
0.305114 0.207478 0.278645 166 154 163
-0.296978 -0.530475 0.858388 90 60 237
0.0447501 -0.161424 -0.614297 133 107 49
-0.0567884 -0.085432 -0.467842 120 117 68
-0.0589661 0.231887 -0.565478 120 157 55
-0.288842 -0.256296 -0.697905 91 95 39
-0.0691592 -0.24816 -0.625252 119 96 48
-0.386478 -0.085432 -0.588347 78 117 52
-0.00406821 -0.158659 -0.539182 127 107 59
-0.80957 -0.576166 -0.451569 24 54 70
-0.370205 -0.288842 -0.278619 80 91 92
0.0733678 -0.256296 -0.272569 137 95 93
0.0733678 0.0935684 -0.272569 137 139 93
0.0733678 -0.280705 -0.272569 137 92 93
-0.0733678 -0.256296 -0.272569 118 95 93
-0.0733678 -0.329523 -0.272569 118 85 93
-0.0733678 -0.353933 -0.272569 118 82 93
-0.0733678 -0.394614 -0.272569 118 77 93
-0.0733678 0.0447501 -0.272569 118 133 93
-0.0733678 0.0935684 -0.272569 118 139 93
-0.0733678 0.0203409 -0.272569 118 130 93
-0.0772956 -0.0203409 -0.277259 118 125 92
-0.0733678 -0.0447501 -0.272569 118 122 93
0.0733678 -0.0284774 -0.272569 137 124 93
0.0733678 0.109841 -0.272569 137 142 93
-0.0733678 -0.272569 -0.272569 118 93 93
-0.0733678 -0.370205 -0.272569 118 80 93
-0.0733678 -0.288842 -0.272569 118 91 93
-0.0733678 -0.305114 -0.272569 118 89 93
-0.0733678 0.0610228 -0.272569 118 135 93
-0.0733678 -0.0284774 -0.272569 118 124 93
-0.0733678 0.00406821 -0.272569 118 128 93
-0.0772956 -0.00406821 -0.277259 118 127 92
-0.0733678 0.0772957 -0.272569 118 137 93
-0.199341 -0.217698 -0.272569 102 100 93
-0.288842 -0.549206 -0.873691 91 57 16
0.24816 -0.549206 -0.873691 159 57 16
0.264432 -0.541981 -0.866524 161 58 17
-0.484115 -0.541981 0.866525 66 58 238
-0.0709996 -0.231887 -0.589888 118 98 52
-0.109841 -0.207478 -0.539343 113 101 59
-0.272569 0.240023 -0.62305 93 158 48
0.703797 -0.430224 0.101705 217 73 140
0.0892889 -0.0528864 -0.842115 139 121 20
0.0935684 -0.0610229 -0.83776 139 120 21
0.0935684 0.0528865 -0.83776 139 134 21
0.752615 -0.448273 -0.0691592 223 70 119
-0.178982 -0.524797 -0.646842 105 61 45
-0.178982 -0.386478 -0.646842 105 78 45
-0.178982 -0.33766 -0.646842 105 84 45
-0.178982 -0.321387 -0.646842 105 87 45
-0.178982 -0.296978 -0.646842 105 90 45
-0.178982 -0.410887 -0.646842 105 75 45
-0.178982 -0.42716 -0.646842 105 73 45
-0.178982 -0.475978 -0.646842 105 67 45
-0.341484 -0.191205 -0.801433 84 103 25
-0.33766 0.195959 -0.614297 84 152 49
0.0153833 0.199341 -0.589888 129 153 52
-0.524797 0.207478 -0.0802714 61 154 117
-0.402751 -0.0610229 -0.837695 76 120 21
0.199687 -0.467842 0.646842 153 68 210
-0.419024 -0.217287 0.378342 74 100 176
-0.207478 0.270683 -0.785161 101 162 27
-0.101705 -0.269593 -0.630569 115 93 47
-0.256296 0.264432 -0.800943 95 161 25
-0.396711 -0.126114 -0.69566 77 111 39
-0.185123 -0.199341 -0.532933 104 102 60
-0.185123 0.22375 -0.532933 104 156 60
-0.267167 -0.0691592 -0.475978 93 119 67
-0.467842 -0.435901 0.589888 68 72 203
-0.500387 -0.541897 0.728206 64 58 220
0.0447501 0.197492 -0.768888 133 153 29
-0.302477 -0.573615 0.956025 89 54 249
-0.353933 0.107457 -0.549206 82 141 57
0.321387 -0.22375 0.368814 168 99 175
-0.0175952 0.0203409 -0.475978 125 130 67
0.117978 0.162075 -0.264432 143 148 94
0.162075 0.117978 -0.264432 148 143 94
-0.353933 0.162075 -0.264432 82 148 94
-0.394614 0.166796 -0.260611 77 149 94
0.162075 -0.256296 -0.264432 148 95 94
0.162075 -0.296978 -0.264432 148 90 94
0.162075 0.0935684 -0.264432 148 139 94
0.0935684 0.162075 -0.264432 139 148 94
0.0528865 0.162075 -0.264432 134 148 94
0.162075 -0.0203409 -0.264432 148 125 94
0.162075 0.0447501 -0.264432 148 133 94
0.162075 -0.240023 -0.264432 148 97 94
-0.117978 0.162075 -0.264432 112 148 94
-0.378342 0.166796 -0.260611 79 149 94
-0.329523 0.162075 -0.264432 85 148 94
-0.370205 0.162075 -0.264432 80 148 94
-0.402751 0.162075 -0.264432 76 148 94
-0.13425 0.162075 -0.264432 110 148 94
-0.166796 0.162075 -0.264432 106 148 94
-0.150523 0.162075 -0.264432 108 148 94
0.162075 -0.402751 -0.264432 148 76 94
0.162075 -0.419024 -0.264432 148 74 94
0.162075 -0.272569 -0.264432 148 93 94
0.162075 -0.313251 -0.264432 148 88 94
0.166796 -0.321387 -0.260611 149 87 94
0.162075 -0.353933 -0.264432 148 82 94
0.162075 -0.370205 -0.264432 148 80 94
0.162075 -0.386478 -0.264432 148 78 94
0.162075 -0.0447501 -0.264432 148 122 94
0.162075 -0.0610229 -0.264432 148 120 94
-0.166796 -0.272569 -0.260611 106 93 94
-0.162075 -0.24816 -0.264432 107 96 94
0.162075 0.0610228 -0.264432 148 135 94
0.162075 0.0284774 -0.264432 148 131 94
0.162075 -0.00406821 -0.264432 148 127 94
0.162075 0.0122045 -0.264432 148 129 94
0.0772957 0.162075 -0.264432 137 148 94
0.162075 0.0772957 -0.264432 148 137 94
-0.162075 -0.264432 -0.264432 107 94 94
-0.197603 0.22375 -0.549206 102 156 57
-0.13425 0.251531 -0.866524 110 160 17
0.370205 -0.532933 -0.657356 175 60 44
-0.199341 0.24816 -0.871573 102 159 16
-0.126114 0.24816 -0.871573 111 159 16
-0.215614 0.24816 -0.871573 100 159 16
-0.109841 -0.532933 0.657356 113 60 211
-0.0126774 -0.215614 -0.80957 126 100 24
0.711933 -0.3421 -0.191205 218 84 103
0.51666 -0.549206 -0.764877 193 57 30
-0.272569 0.231887 -0.851921 93 157 19
0.0203409 -0.166796 -0.586008 130 106 53
-0.05526 0.22375 -0.557342 120 156 56
0.0935684 -0.0892889 -0.80957 139 116 24
-0.353933 0.135742 -0.890934 82 145 14
-0.324833 -0.0203409 -0.264432 86 125 94
0.117978 -0.503158 0.370205 143 63 175
-0.264432 -0.0706458 -0.972297 94 118 4
0.756543 -0.459706 -0.00406815 224 69 127
-0.353933 -0.0203409 -0.927434 82 125 9
-0.353933 -0.00406821 -0.927434 82 127 9
0.0772957 -0.085432 -0.588347 137 117 52
-0.313251 -0.200073 -0.272569 88 102 93
-0.305114 -0.295829 -0.671251 89 90 42
-0.085432 -0.191205 -0.53313 117 103 60
-0.0284774 0.191205 -0.53313 124 152 60
-0.313251 0.0854319 -0.496812 88 138 64
0.0351863 0.207478 -0.768888 132 154 29
-0.197492 -0.207478 -0.541069 102 101 59
-0.80957 -0.549206 0.560716 24 57 199
0.532933 -0.18006 -0.353932 195 105 82
0.557342 -0.18006 -0.353932 199 105 82
0.51666 -0.18006 -0.353932 193 105 82
0.581751 -0.174932 -0.35078 202 105 83
0.589888 -0.18006 -0.353932 203 105 82
0.565479 -0.174932 -0.35078 200 105 83
-0.0447501 -0.251585 -0.654979 122 95 44
-0.193614 0.199341 -0.51666 103 153 62
-0.0447501 0.207478 -0.550915 122 154 57
-0.0284774 0.215294 -0.557342 124 155 56
0.0691592 -0.234349 0.378342 136 98 176
-0.207478 0.125246 -0.467842 101 143 68
0.695661 -0.524797 0.522003 216 61 194
-0.62536 -0.532933 0.313251 48 60 167
0.646842 0.0772957 -0.274416 210 137 93
0.0284774 -0.197294 -0.768888 131 102 29
-0.296978 -0.431903 0.378342 90 72 176
0.0479224 -0.532933 -0.353932 134 60 82
0.256296 0.0122045 -0.347534 160 129 83
-0.321387 -0.191205 -0.852371 87 103 19
-0.264432 -0.329523 -0.695044 94 85 39
-0.319243 -0.199341 0.370205 87 102 175
-0.256296 0.162112 -0.931616 95 148 9
-0.22375 -0.166796 -0.927864 99 106 9
-0.0772956 -0.166796 -0.927864 118 106 9
-0.207478 -0.166796 -0.927864 101 106 9
-0.428944 -0.0528864 -0.679388 73 121 41
0.0447501 -0.435296 0.368814 133 72 175
-0.487173 0.0203409 0.313251 65 130 167
-0.492251 0.0171532 0.288841 65 130 164
-0.492251 0.0171532 0.305114 65 130 166
0.492251 -0.434617 0.581751 190 72 202
-0.288842 0.191205 -0.893512 91 152 14
-0.0691592 -0.199341 -0.893523 119 102 14
-0.191205 0.233326 -0.549206 103 157 57
0.459705 -0.435296 0.368814 186 72 175
-0.280705 -0.183069 -0.551052 92 104 57
0.756416 -0.386478 0.0122046 224 78 129
0.0203409 0.145398 -0.549206 130 146 57
-0.0610229 -0.124181 -0.484115 120 112 66
0.413899 -0.33766 0.378342 180 84 176
-0.288842 0.164362 -0.915343 91 148 11
0.12873 -0.524797 0.654979 144 61 211
0.256296 -0.0369483 -0.353932 160 123 82
0.0528865 -0.140427 -0.850252 134 110 19
-0.329523 0.24816 -0.260611 85 159 94
-0.410887 0.252757 -0.264432 75 160 94
-0.280705 0.252757 -0.264432 92 160 94
-0.353933 0.252757 -0.264432 82 160 94
-0.085432 0.24816 -0.260611 117 159 94
-0.24816 0.24816 -0.260611 96 159 94
0.252757 -0.256296 -0.264432 160 95 94
0.24816 -0.500387 -0.260611 159 64 94
0.24816 -0.443433 -0.260611 159 71 94
0.24816 -0.215614 -0.260611 159 100 94
0.150523 0.252757 -0.264432 147 160 94
0.252757 -0.142387 -0.264432 160 109 94
0.280705 0.252757 -0.264432 163 160 94
0.191205 0.24816 -0.260611 152 159 94
0.174932 0.24816 -0.260611 150 159 94
0.0935684 0.24816 -0.260611 139 159 94
0.0528865 0.24816 -0.260611 134 159 94
0.459705 0.24816 -0.260611 186 159 94
0.484115 0.252757 -0.264432 189 160 94
0.386478 0.24816 -0.260611 177 159 94
0.410887 0.252757 -0.264432 180 160 94
0.345796 0.24816 -0.260611 172 159 94
0.321387 0.252757 -0.264432 168 160 94
0.252757 0.00406821 -0.264432 160 128 94
-0.0610229 0.252757 -0.264432 120 160 94
0.117978 0.252757 -0.264432 143 160 94
-0.117978 0.24816 -0.260611 112 159 94
-0.345796 0.24816 -0.260611 83 159 94
-0.386478 0.24816 -0.260611 78 159 94
-0.288842 0.24816 -0.260611 91 159 94
-0.402751 0.24816 -0.260611 76 159 94
-0.321387 0.252757 -0.264432 87 160 94
-0.22375 0.252757 -0.264432 99 160 94
-0.199341 0.24816 -0.260611 102 159 94
-0.0447501 0.252757 -0.264432 122 160 94
-0.215614 0.24816 -0.260611 100 159 94
-0.150523 0.252757 -0.264432 108 160 94
-0.240023 0.252757 -0.264432 97 160 94
0.252757 -0.272569 -0.264432 160 93 94
0.252757 -0.329523 -0.264432 160 85 94
0.252757 -0.386478 -0.264432 160 78 94
0.252757 -0.451569 -0.264432 160 70 94
0.252757 -0.467842 -0.264432 160 68 94
0.252757 -0.174932 -0.264432 160 105 94
0.24816 -0.394614 -0.260611 159 77 94
0.24816 -0.353933 -0.260611 159 82 94
0.24816 -0.33766 -0.260611 159 84 94
0.24816 -0.296978 -0.260611 159 90 94
0.24816 -0.280705 -0.260611 159 92 94
0.24816 -0.166796 -0.260611 159 106 94
0.24816 -0.150523 -0.260611 159 108 94
-0.0691592 0.24816 -0.260611 119 159 94
0.252757 -0.508524 -0.264432 160 63 94
0.0610228 0.252757 -0.264432 135 160 94
-0.0366137 0.24816 -0.260611 123 159 94
0.101705 0.252757 -0.264432 140 160 94
0.288841 0.24816 -0.260611 164 159 94
0.126114 0.24816 -0.260611 144 159 94
0.166796 0.252757 -0.264432 149 160 94
0.142387 0.24816 -0.260611 146 159 94
0.199341 0.252757 -0.264432 153 160 94
0.42716 0.252757 -0.264432 182 160 94
0.33766 0.252757 -0.264432 171 160 94
0.467842 0.252757 -0.264432 187 160 94
0.402751 0.24816 -0.260611 179 159 94
0.378342 0.252757 -0.264432 176 160 94
-0.00406821 0.252757 -0.264432 127 160 94
0.00406821 0.24816 -0.260611 128 159 94
-0.264432 -0.24816 -0.798386 94 96 26
0.557342 0.144061 -0.174932 199 146 105
-0.503915 -0.410887 0.362069 63 75 174
-0.500387 -0.386478 0.366893 64 78 174
-0.500387 -0.199341 0.366893 64 102 174
-0.503915 -0.166796 0.362069 63 106 174
-0.500387 -0.305114 0.366893 64 89 174
-0.500387 -0.256296 0.366893 64 95 174
-0.503915 -0.117978 0.362069 63 112 174
-0.503915 -0.42716 0.362069 63 73 174
-0.500387 -0.402751 0.366893 64 76 174
-0.500387 -0.362069 0.366893 64 81 174
-0.500387 -0.33766 0.366893 64 84 174
-0.503915 -0.142387 0.362069 63 109 174
-0.503915 -0.329523 0.362069 63 85 174
-0.503915 -0.313251 0.362069 63 88 174
0.503915 -0.386478 -0.362069 192 78 81
0.503915 -0.443433 -0.362069 192 71 81
0.503915 -0.33766 -0.362069 192 84 81
0.503915 -0.353933 -0.362069 192 82 81
0.503915 -0.492251 -0.362069 192 65 81
0.503915 -0.475978 -0.362069 192 67 81
-0.359797 0.549206 -0.126114 82 198 111
0.638706 -0.288214 -0.353932 209 91 82
-0.296978 -0.289423 -0.752615 90 91 32
-0.34144 0.0203409 -0.939752 84 130 8
-0.33766 -0.0122045 -0.944377 84 126 7
-0.34144 0.0366137 -0.939752 84 132 8
-0.34144 -0.00406821 -0.939752 84 127 8
-0.195876 -0.492251 -0.663115 103 65 43
-0.195876 -0.467842 -0.663115 103 68 43
-0.191205 -0.42716 -0.659395 103 73 43
-0.191205 -0.280705 -0.659395 103 92 43
-0.191205 -0.313251 -0.659395 103 88 43
-0.191205 -0.33766 -0.659395 103 84 43
-0.191205 -0.353933 -0.659395 103 82 43
-0.195876 -0.362069 -0.663115 103 81 43
-0.195876 -0.508524 -0.663115 103 63 43
0.487795 -0.500387 0.524797 190 64 194
0.487795 -0.500387 0.443433 190 64 184
-0.0935684 -0.0528864 -0.984576 116 121 2
-0.234837 0.272569 -0.752615 98 162 32
-0.269628 -0.240023 -0.793297 93 97 26
0.0528865 0.117978 -0.272683 134 143 93
-0.345796 -0.565478 -0.837881 83 55 21
-0.695661 -0.557342 0.711283 39 56 218
-0.272569 -0.33779 -0.736342 93 84 34
0.207478 -0.419024 0.751038 154 74 223
-0.419024 0.158659 -0.260611 74 148 94
0.24816 -0.541897 -0.264432 159 58 94
0.0772957 0.161424 -0.687524 137 148 40
0.0869818 0.158659 -0.671251 139 148 42
-0.305114 -0.217698 -0.272569 89 100 93
-0.0284774 -0.544235 0.996707 124 58 255
0.126114 -0.549206 0.999947 144 57 255
0.101705 -0.549206 0.999947 140 57 255
-0.109841 -0.544235 0.996707 113 58 255
0.0691592 -0.544235 0.996707 136 58 255
-0.0772956 -0.544235 0.996707 118 58 255
-0.0528864 -0.549206 0.999947 121 57 255
-0.126114 -0.544235 0.996707 111 58 255
-0.085432 -0.549206 0.999947 117 57 255
-0.101705 -0.549206 0.999947 115 57 255
-0.0610229 -0.544235 0.996707 120 58 255
0.0528865 -0.544235 0.996707 134 58 255
-0.0366137 -0.549206 0.999947 123 57 255
-0.42716 -0.435296 0.368814 73 72 175
-0.0322363 -0.532933 0.842116 123 60 235
-0.268864 0.264432 -0.654979 93 161 44
-0.321387 -0.527347 -0.654979 87 60 44
0.0502362 -0.158659 -0.842115 134 107 20
-0.117978 0.197112 -0.939752 112 153 8
-0.34144 -0.557342 0.939752 84 56 247
0.0854319 0.0772957 -0.871969 138 137 16
0.101705 0.106839 -0.638706 140 141 46
-0.272569 0.256296 -0.694528 93 160 39
0.0772957 0.0854319 -0.570499 137 138 55
-0.0373018 -0.13425 -0.939752 123 110 8
0.524797 0.325171 -0.248159 194 169 96
-0.508524 -0.541897 0.614297 63 58 206
-0.377831 0.0528865 -0.882797 79 134 15
-0.482203 -0.492251 0.532933 66 65 195
0.00406821 -0.121144 -0.51666 128 112 62
-0.313251 0.142387 -0.521392 88 146 61
-0.174932 0.126114 -0.462003 105 144 69
-0.280705 0.0366137 -0.477763 92 132 67
-0.0772956 -0.069908 -0.272569 118 119 93
0.419024 -0.289423 0.378342 181 91 176
0.117978 0.0610228 -0.783535 143 135 28
-0.085432 -0.531507 -0.51666 117 60 62
-0.629804 -0.549206 -0.687524 47 57 40
0.629804 -0.549206 -0.687524 208 57 40
-0.612272 -0.451569 0.126114 49 70 144
0.235991 -0.459706 -0.484115 158 69 66
-0.666321 -0.549206 0.736343 43 57 221
0.475978 -0.470719 0.589888 188 67 203
-0.302748 0.158659 -0.532933 89 148 60
-0.305751 -0.280705 -0.736342 89 92 34
0.296978 0.217296 0.288841 165 155 164
-0.370205 0.158659 -0.835391 80 148 21
-0.302748 0.158659 -0.915343 89 148 11
0.882797 -0.576204 0.378342 240 54 176
-0.492251 0.370205 -0.260589 65 175 94
-0.264432 0.232968 -0.858388 94 157 18
-0.251654 0.13425 -0.492251 95 145 65
-0.0691592 -0.251873 -0.646842 119 95 45
-0.484115 0.0673943 0.280705 66 136 163
0.142387 -0.205834 -0.272569 146 101 93
0.0203409 0.162439 -0.882797 130 148 15
-0.0547935 0.199341 -0.541069 121 153 59
-0.253362 0.207478 0.288841 95 154 164
-0.207478 -0.197603 -0.549206 101 102 57
0.51933 -0.573615 -0.752615 194 54 32
-0.22375 -0.150523 -0.496812 99 108 64
-0.443433 0.109841 0.296451 71 142 165
-0.323813 0.117978 -0.915343 86 143 11
-0.264432 0.207478 -0.550915 94 154 57
-0.0935684 -0.197603 -0.549206 116 102 57
-0.0772956 -0.197603 -0.549206 118 102 57
0.345796 -0.565478 -0.837881 172 55 21
-0.341763 -0.557342 -0.842115 84 56 20
-0.305114 0.532933 -0.0638021 89 195 119
0.183069 -0.324589 0.378342 151 86 176
0.296978 0.145052 0.280705 165 146 163
-0.305114 -0.135919 -0.524796 89 110 61
-0.0391525 0.24816 -0.614297 123 159 49
0.703797 -0.396317 -0.150523 217 77 108
-0.231887 -0.197492 -0.541069 98 102 59
-0.163186 -0.240023 0.378342 107 97 176
-0.494785 -0.500387 0.386478 64 64 177
-0.0104661 0.231887 -0.833979 126 157 21
-0.402751 -0.101705 -0.641668 76 115 46
0.00384962 0.215614 -0.825843 128 155 22
-0.00406821 -0.213055 -0.825843 127 100 22
-0.285493 -0.24816 -0.728206 91 96 35
0.0447501 0.161616 0.280705 133 148 163
-0.280705 0.251485 -0.801433 92 160 25
0.0447501 -0.143697 -0.581751 133 109 53
-0.695661 -0.532776 0.532933 39 60 195
-0.327269 0.166796 -0.874661 86 149 16
-0.143391 -0.557342 -0.89907 109 56 13
0.325835 0.0935684 -0.272569 169 139 93
0.231887 -0.503874 0.777024 157 63 227
-0.954844 -0.549206 0.0610229 6 57 135
-0.954844 -0.549206 0.13425 6 57 145
-0.954844 -0.549206 0.166796 6 57 149
-0.947888 -0.542023 0.0447501 7 58 133
-0.947888 -0.542023 0.0772957 7 58 137
-0.947888 -0.542023 0.150523 7 58 147
0.0515441 -0.085432 -0.549206 134 117 57
-0.126114 0.264432 -0.839338 111 161 20
-0.321387 0.104251 -0.508524 87 141 63
-0.24816 -0.215614 0.368814 96 100 175
-0.13425 -0.12515 -0.467842 110 112 68
-0.0366137 -0.242935 -0.69566 123 97 39
0.0331739 0.0203409 -0.500387 132 130 64
0.0331739 0.0366137 -0.500387 132 132 64
0.0331739 -0.00406821 -0.500387 132 127 64
-0.370205 -0.0351602 -0.541069 80 123 59
-0.256296 -0.394614 -0.745492 95 77 32
0.199341 -0.451569 0.658731 153 70 211
0.050236 0.158659 -0.581751 134 148 53
0.218123 -0.419024 0.760752 155 74 224
0.557342 0.0122045 -0.349898 199 129 83
0.663115 0.0122045 -0.349898 212 129 83
0.296978 0.0162923 -0.345796 165 130 83
0.459705 0.0122045 -0.349898 186 129 83
0.321387 0.0122045 -0.349898 168 129 83
0.370205 0.0162923 -0.345796 175 130 83
0.394614 0.0122045 -0.349898 178 129 83
0.638706 0.0162923 -0.345796 209 130 83
0.51666 0.0162923 -0.345796 193 130 83
0.598024 0.0162923 -0.345796 204 130 83
0.581751 0.0162923 -0.345796 202 130 83
0.573615 0.0122045 -0.349898 201 129 83
0.63057 0.0122045 -0.349898 208 129 83
0.42716 0.0162923 -0.345796 182 130 83
0.313251 0.0162923 -0.345796 167 130 83
0.467842 0.0162923 -0.345796 187 130 83
0.33766 0.0122045 -0.349898 171 129 83
0.378342 0.0122045 -0.349898 176 129 83
0.654979 0.0162923 -0.345796 211 130 83
-0.500387 -0.557342 -0.781688 64 56 28
0.362069 -0.531549 -0.630569 174 60 47
0.0691592 0.101705 -0.555134 136 140 57
-0.343124 -0.174932 -0.622433 84 105 48
0.0610228 0.179458 -0.80957 135 150 24
-0.256296 -0.292046 -0.744479 95 90 33
-0.215614 -0.296978 -0.7475 100 90 32
-0.240023 -0.292046 -0.744479 97 90 33
-0.33766 -0.292046 -0.744479 84 90 33
-0.329523 -0.296978 -0.7475 85 90 32
-0.231887 -0.296978 -0.7475 98 90 32
0.325835 0.109841 -0.272569 169 142 93
-0.0691592 -0.251992 -0.663115 119 95 43
0.0691592 -0.324461 0.378342 136 86 176
-0.829441 -0.557342 0.51666 22 56 193
-0.744285 -0.557342 -0.549206 33 56 57
0.410887 0.47618 -0.150523 180 188 108
0.0447501 -0.125357 -0.882797 133 112 15
-0.402751 -0.199565 -0.272569 76 102 93
-0.329523 -0.199565 -0.272569 85 102 93
-0.101705 -0.199565 -0.272569 115 102 93
-0.117978 -0.199565 -0.272569 112 102 93
-0.158659 -0.207478 -0.278645 107 101 92
0.0935684 -0.199565 -0.272569 139 102 93
-0.272235 0.492251 -0.00406815 93 190 127
0.174932 -0.443433 0.749485 150 71 223
-0.0122045 0.251594 -0.703797 126 160 38
0.0935684 -0.117978 -0.747826 139 112 32
-0.343524 0.549206 -0.0366136 84 198 123
0.183069 -0.396352 0.370205 151 77 175
-0.565478 -0.573615 -0.726516 55 54 35
-0.22375 -0.256296 -0.76556 99 95 30
-0.33766 -0.492251 -0.678308 84 65 41
0.484115 -0.217478 -0.362069 189 100 81
-0.449957 0.0935684 0.288841 70 139 164
0.329523 -0.296978 -0.368779 170 90 80
0.345796 -0.28961 -0.362069 172 91 81
0.42716 -0.28961 -0.362069 182 91 81
0.386478 -0.28961 -0.362069 177 91 81
0.695661 -0.108138 0.370205 216 114 175
0.484115 -0.443433 0.368814 189 71 175
0.353933 0.217296 0.288841 173 155 164
-0.101705 0.280705 -0.783454 115 163 28
0.0935684 -0.467842 -0.383506 139 68 79
-0.0772956 -0.256296 -0.764287 118 95 30
-0.353933 0.560251 -0.04475 82 199 122
-0.112606 -0.467842 0.654979 113 68 211
0.272569 -0.487328 -0.500387 162 65 64
-0.0284774 -0.197492 -0.858388 124 102 18
-0.321387 -0.142387 -0.888411 87 109 14
-0.0366137 -0.231887 -0.815059 123 98 24
-0.305114 0.231887 -0.815059 89 157 24
0.522102 0.240023 -0.174932 194 158 105
-0.264432 -0.240023 -0.641877 94 97 46
0.166796 -0.42716 0.781626 149 73 227
-0.598024 -0.527992 0.296978 51 60 165
0.370205 -0.532933 -0.62305 175 60 48
-0.933759 -0.573615 0.272569 8 54 162
0.13425 -0.531578 0.695661 145 60 216
0.153436 -0.451569 0.638706 147 70 209
0.329523 -0.573615 0.94298 170 54 248
-0.0908751 -0.532933 -0.752615 116 60 32
-0.0528864 0.0907038 -0.972297 121 139 4
-0.240023 -0.531584 0.728206 97 60 220
0.0935684 -0.492251 -0.365693 139 65 81
0.179458 -0.475978 -0.272569 150 67 93
0.166796 -0.448003 0.768888 149 70 226
0.158659 -0.45472 0.646842 148 70 210
0.51666 0.125357 -0.264432 193 143 94
0.22375 -0.0371988 -0.313251 156 123 88
0.217298 -0.0447501 -0.296978 155 122 90
0.217298 -0.0447501 -0.329523 155 122 85
0.217298 -0.0447501 -0.378342 155 122 79
0.702441 -0.386478 0.150523 217 78 147
-0.085432 -0.532933 -0.547395 117 60 58
-0.0203409 -0.193093 -0.565478 125 103 55
-0.126114 -0.108608 -0.972297 111 114 4
-0.109841 -0.235135 -0.264432 113 98 94
-0.313251 -0.085432 -0.944183 88 117 7
-0.240023 -0.199341 -0.893523 97 102 14
-0.287662 0.183069 -0.89907 91 151 13
-0.325198 0.183069 -0.858388 86 151 18
-0.917658 -0.549206 -0.256296 10 57 95
-0.459706 -0.576204 -0.785161 69 54 27
-0.24816 -0.087437 -0.467842 96 116 68
-0.240023 -0.39866 -0.72007 97 77 36
-0.679388 -0.5682 0.728206 41 55 220
-0.831454 -0.541069 -0.0935683 21 59 116
-0.272443 0.492251 -0.109841 93 190 113
0.00406821 0.191205 -0.56924 128 152 55
-0.280705 0.22375 -0.855601 92 156 18
0.518094 -0.435296 0.614297 194 72 206
0.069965 -0.085432 -0.565478 136 117 55
-0.0760117 0.280705 -0.679388 118 163 41
0.0610228 -0.126114 -0.601264 135 111 51
0.532933 0.150523 -0.13622 195 147 110
0.231887 -0.541069 0.698354 157 59 217
-0.109841 0.127532 -0.272569 113 144 93
0.492251 -0.475978 0.5345 190 67 196
-0.312181 0.215614 -0.614297 88 155 49
-0.321387 -0.211944 -0.671251 87 100 42
0.646842 -0.567244 -0.671251 210 55 42
-0.500387 0.32496 0.280705 64 169 163
-0.197356 0.280705 -0.654979 102 163 44
-0.127118 -0.240023 -0.264432 111 97 94
-0.0935684 -0.402751 -0.66167 116 76 43
-0.0935684 -0.492251 -0.66167 116 65 43
-0.33766 0.127118 -0.264432 84 144 94
0.127118 -0.329523 -0.264432 144 85 94
0.00406821 -0.085432 -0.498244 128 117 64
0.744479 -0.378342 0.0102917 222 79 129
0.522102 -0.467842 0.378342 194 68 176
-0.321387 -0.199341 -0.816686 87 102 23
-0.666373 -0.565478 0.736343 43 55 221
0.107323 -0.0935684 -0.793297 141 116 26
0.109841 -0.0528864 -0.668608 142 121 42
0.756335 -0.443433 0.0122046 224 71 129
0.51666 -0.324856 -0.353932 193 86 82
0.541069 -0.329523 -0.35078 196 85 83
0.598024 -0.324856 -0.353932 204 86 82
0.524797 -0.329523 -0.35078 194 85 83
0.581751 -0.324856 -0.353932 202 86 82
0.565479 -0.324856 -0.353932 200 86 82
0.549206 -0.324856 -0.353932 198 86 82
-0.322417 -0.085432 -0.508524 86 117 63
-0.269531 -0.0610229 -0.467842 93 120 68
-0.402751 0.143422 -0.728206 76 146 35
-0.354173 -0.280705 -0.69566 82 92 39
-0.484115 -0.541897 0.711933 66 58 218
-0.212887 -0.435296 -0.744479 100 72 33
-0.212887 -0.467842 -0.744479 100 68 33
-0.212887 -0.451569 -0.744479 100 70 33
-0.0203409 0.265604 -0.703797 125 161 38
0.0610228 0.143408 -0.598024 135 146 51
0.101705 -0.117978 -0.695623 140 112 39
-0.305114 -0.261502 -0.72007 89 94 36
-0.305114 -0.261502 -0.703797 89 94 38
-0.240023 -0.271359 -0.711933 97 93 37
0.00406821 0.179211 -0.557342 128 150 56
0.749994 -0.541069 -0.280705 223 59 92
0.0199619 -0.42716 -0.272569 130 73 93
0.00406821 -0.207478 -0.62305 128 101 48
0.158659 -0.436145 0.622433 148 72 207
-0.391945 -0.0691592 -0.581751 78 119 53
0.0284774 -0.0349842 -0.931616 131 123 9
-0.296978 -0.0935684 -0.945898 90 116 7
0.702441 -0.386478 -0.191205 217 78 103
0.0447501 -0.199341 -0.266975 133 102 93
-0.272569 -0.529793 0.866525 93 60 238
-0.305786 0.240023 -0.768888 89 158 29
-0.305786 0.240023 -0.728206 89 158 35
-0.305786 0.240023 -0.679388 89 158 41
-0.23872 -0.101705 -0.964161 97 115 5
-0.249777 -0.500387 0.589888 96 64 203
-0.419024 0.0447501 -0.641084 74 133 46
0.288841 -0.467842 -0.502075 164 68 63
-0.324747 -0.207478 -0.768888 86 101 29
-0.386478 0.557342 -0.0170397 78 199 125
-0.0528864 -0.142387 -0.5024 121 109 63
0.161236 -0.215614 0.378342 148 100 176
-0.410887 0.122708 -0.671251 75 143 42
-0.410887 0.122708 -0.768888 75 143 29
-0.413856 0.117978 -0.69566 75 143 39
-0.413856 0.117978 -0.679388 75 143 41
-0.410887 -0.122708 -0.711933 75 112 37
-0.410887 -0.122708 -0.728206 75 112 35
0.524797 -0.541897 0.671252 194 58 213
-0.280705 0.565479 -0.062238 92 200 120
-0.296978 0.191205 -0.551246 90 152 57
-0.502917 0.24816 -0.256296 63 159 95
0.0366137 0.145129 -0.557342 132 146 56
0.524797 -0.544499 -0.744479 194 58 33
-0.524797 -0.544499 -0.744479 61 58 33
-0.0122045 0.167353 -0.532933 126 149 60
0.0691592 -0.140803 -0.817706 136 110 23
0.0555679 0.158659 -0.60616 135 148 50
0.174932 -0.452273 -0.386478 150 70 78
0.109841 -0.289822 -0.272569 142 91 93
-0.126114 -0.235233 -0.589888 111 98 52
-0.321387 0.573752 -0.04475 87 201 122
0.329523 -0.101705 -0.386437 170 115 78
0.419024 -0.107323 -0.378342 181 114 79
0.313251 -0.107323 -0.378342 167 114 79
0.573615 -0.107323 -0.378342 201 114 79
0.557342 -0.101705 -0.386437 199 115 78
0.435296 -0.101705 -0.386437 183 115 78
0.492251 -0.107323 -0.378342 190 114 79
0.508524 -0.101705 -0.386437 192 115 78
0.402751 -0.101705 -0.386437 179 115 78
0.671251 -0.107323 -0.378342 213 114 79
0.345796 -0.107323 -0.378342 172 114 79
0.0714427 0.166796 -0.777024 137 149 28
0.51666 0.207478 -0.260009 193 154 94
0.51666 0.158659 -0.260009 193 148 94
0.520795 0.183069 -0.256296 194 151 95
0.51666 0.24816 -0.260009 193 159 94
0.520795 0.166796 -0.256296 194 149 95
0.51666 0.191205 -0.260009 193 152 94
0.520795 0.215614 -0.256296 194 155 95
0.435296 -0.547634 0.890934 183 58 241
-0.0582486 -0.264432 -0.744479 120 94 33
-0.101705 -0.158659 -0.499072 115 107 64
-0.085432 -0.161424 -0.508524 117 107 63
-0.240023 -0.158659 -0.499072 97 107 64
-0.0691592 -0.158659 -0.499072 119 107 64
-0.359457 0.557342 0.00406827 82 199 128
0.51666 0.370205 -0.259988 193 175 94
0.249838 0.126114 0.288841 159 144 164
0.668546 -0.492251 -0.475978 213 65 67
-0.100202 -0.0528864 -0.451569 115 121 70
0.103976 -0.0691592 -0.614297 141 119 49
-0.22375 -0.337913 -0.728206 99 84 35
-0.376224 0.541069 0.00406827 80 196 128
0.0911067 -0.215614 0.378342 139 100 176
-0.386478 0.13425 -0.819661 78 145 23
0.0711978 0.109841 -0.866524 137 142 17
-0.24816 0.532933 -0.0983058 96 195 115
-0.24816 0.549206 -0.0983058 96 198 115
0.166796 -0.443433 0.781371 149 71 227
0.305114 -0.492251 0.615228 166 65 206
0.5546 0.321387 0.296978 198 168 165
-0.101705 0.207478 -0.90983 115 154 11
-0.702371 -0.549206 0.695661 38 57 216
0.879543 -0.573615 0.394614 240 54 178
-0.573615 -0.573615 -0.720991 54 54 36
-0.378342 0.126114 -0.824157 79 144 22
-0.251694 0.0935684 -0.467842 95 139 68
0.169872 -0.443433 -0.280705 149 71 92
0.654979 -0.565478 0.747526 211 55 223
0.629602 -0.475978 -0.484115 208 67 66
0.703797 -0.549206 0.694075 217 57 216
0.524797 -0.574314 -0.744479 194 54 33
0.325346 0.0772957 -0.264432 169 137 94
0.0610228 0.143893 -0.842115 135 146 20
-0.215614 -0.329229 -0.687524 100 86 40
0.24816 -0.492251 0.781465 159 65 227
-0.817706 -0.573615 0.545918 23 54 197
0.539986 0.240023 0.0528866 196 158 134
0.532933 0.199341 0.0460552 195 153 133
