ply
format ascii 1.0
comment Created by Open3D
element vertex 1209
property double x
property double y
property double z
property uchar red
property uchar green
property uchar blue
end_header
0.314936 -0.576204 0.760732 168 54 224
0.132087 -0.344998 -0.277706 144 84 92
-0.121177 0.486034 -0.0244571 112 189 124
0.738509 -0.0908057 0.349253 222 116 172
-0.203277 -0.232899 -0.867595 102 98 17
0.0382799 0.0765188 -0.911935 132 137 11
-0.168217 -0.176221 -0.943164 106 105 7
0.121877 0.401439 -0.206509 143 179 101
0.467376 0.348714 0.278645 187 172 163
0.713217 -0.486034 -0.0661074 218 66 119
-0.19874 0.287662 -0.69427 102 164 39
-0.26549 -0.319031 -0.260611 94 87 94
-0.88078 -0.570505 0.401266 15 55 179
0.719399 -0.576204 -0.572748 219 54 54
-0.576204 0.25439 0.0316579 54 160 132
0.00590059 -0.576204 0.964321 128 54 250
-0.264002 -0.534942 0.729677 94 59 221
-0.369687 -0.576204 -0.331043 80 54 85
-0.132467 0.254317 -0.855666 111 160 18
0.786611 -0.543374 0.577924 228 58 201
0.229497 -0.0370219 -0.306572 157 123 88
-0.316725 -0.576204 -0.582685 87 54 53
-0.576204 0.151365 -0.016096 54 147 125
-0.299307 0.479641 0.186902 89 189 151
-0.202237 -0.541897 0.939495 102 58 247
0.860907 -0.576204 0.386352 237 54 177
-0.650138 -0.541897 -0.136763 45 58 110
-0.0958815 -0.0731827 -0.263602 115 118 94
0.00417652 -0.576204 -0.123047 128 54 112
0.546961 0.113965 -0.278616 197 142 92
-0.16383 -0.202615 -0.911115 107 102 11
-0.75507 -0.576204 -0.41485 31 54 75
0.243104 -0.499013 0.618907 158 64 206
-0.306202 0.431933 0.229854 88 183 157
-0.928252 -0.541897 -0.000216153 9 58 127
0.324068 -0.277524 0.372604 169 92 175
0.301313 -0.576204 -0.38609 166 54 78
-0.320789 0.269221 0.314712 87 162 168
0.247951 -0.541897 0.64443 159 58 210
0.131533 -0.55165 0.999963 144 57 255
0.375104 -0.576204 -0.104272 175 54 114
-0.413899 -0.0235678 -0.617433 75 124 49
-0.576204 0.00541173 -0.0502562 54 128 121
-0.504068 0.140744 0.189815 63 145 152
0.503789 -0.576204 0.416561 192 54 181
-0.320279 -0.123838 -0.91265 87 112 11
-0.0154072 -0.541897 0.958975 126 58 250
0.299937 -0.541897 0.880914 166 58 240
-0.674925 -0.541897 -0.0815458 41 58 117
0.609727 0.125357 -0.0315414 205 143 123
0.598744 -0.309406 -0.368814 204 88 80
-0.337578 0.475908 -0.152407 84 188 108
0.720475 -0.343967 -0.223986 219 84 99
0.588099 -0.576204 0.155423 202 54 147
0.0981863 -0.541897 -0.894149 140 58 13
-0.412249 -0.576204 -0.587892 75 54 53
-0.627203 -0.541897 0.0732323 48 58 137
-0.765584 -0.541897 0.540903 30 58 196
0.247548 0.0125591 0.367411 159 129 174
-0.378846 0.248402 0.278794 79 159 163
-0.787209 -0.574949 0.588785 27 54 203
-0.521892 0.301676 0.314712 61 166 168
-0.344143 -0.541897 -0.74397 84 58 33
0.483772 -0.576204 -0.0377331 189 54 123
0.130234 -0.576204 0.817812 144 54 232
-0.155049 -0.463073 0.588765 108 68 203
-0.268126 0.197573 -0.546985 93 153 58
-0.118485 -0.576204 0.0964925 112 54 140
0.562522 -0.540483 0.36928 199 59 175
0.218012 -0.0439144 -0.346819 155 122 83
-0.363745 -0.541897 -0.546748 81 58 58
-0.264351 -0.576204 -0.711725 94 54 37
0.287043 -0.541897 0.929633 164 58 246
-0.155074 -0.251452 -0.844213 108 95 20
-0.396508 0.437953 -0.0998732 77 183 115
0.602451 0.0744026 0.300016 204 137 166
0.42821 0.314574 0.31436 182 168 168
-0.502959 -0.0703699 0.404882 63 119 179
0.29975 -0.576204 0.525159 166 54 194
0.347035 0.431933 -0.186021 172 183 104
0.68181 -0.576204 0.459413 214 54 186
0.348297 0.223501 0.296138 172 156 165
0.830165 -0.576204 0.286474 233 54 164
0.456404 -0.505829 -0.448371 186 63 70
0.487894 0.0157473 -0.346343 190 130 83
0.213537 -0.0185657 0.368814 155 125 175
-0.5802 -0.541897 -0.556132 54 58 57
0.740709 -0.541897 0.229549 222 58 157
-0.0914072 -0.168044 -0.927698 116 106 9
-0.164824 -0.576204 -0.218963 106 54 100
0.869675 -0.541897 -0.306116 238 58 88
0.673063 -0.542104 0.708206 213 58 218
-0.132816 0.324514 0.285627 111 169 164
-0.590616 -0.417432 0.014733 52 74 129
0.00591723 -0.541897 0.851106 128 58 236
0.462324 0.335818 -0.260611 186 170 94
-0.275046 -0.445668 0.368814 92 71 175
0.191659 -0.541897 -0.597693 152 58 51
-0.487795 0.439133 0.117141 65 183 142
0.484584 0.377831 -0.219173 189 176 100
-0.515256 -0.576204 0.222438 62 54 156
0.442333 -0.461304 0.621288 184 69 207
-0.00780335 0.477799 -0.151833 127 188 108
0.23174 -0.433694 0.73107 157 72 221
-0.0923651 -0.393032 -0.278645 116 77 92
-0.382863 -0.541897 -0.714109 79 58 36
0.732471 -0.541897 -0.287122 221 58 91
-0.289848 -0.271461 -0.736766 91 93 34
-0.489469 -0.576204 -0.459814 65 54 69
0.486574 -0.541897 -0.551659 190 58 57
-0.691649 -0.541897 -0.307683 39 58 88
0.437065 -0.0369483 0.388579 183 123 177
0.720439 -0.401624 -0.216495 219 76 100
0.285543 -0.505829 -0.468151 164 63 68
0.826738 -0.524143 0.0733582 233 61 137
-0.259016 -0.541897 -0.573561 94 58 54
-0.794618 -0.576204 -0.0497884 26 54 121
-0.496486 -0.576204 -0.380964 64 54 79
0.17587 0.0108988 0.367996 150 129 174
-0.471727 -0.485533 0.422516 67 66 181
-0.0774413 -0.576204 -0.602445 118 54 51
-0.504068 -0.495097 0.279885 63 64 163
-0.352718 -0.505829 0.403791 83 63 179
0.254077 -0.541897 0.685108 160 58 215
0.260332 -0.576204 0.932693 161 54 246
0.216241 0.431933 -0.170763 155 183 106
0.602055 -0.450037 -0.513085 204 70 62
-0.787004 -0.541897 0.119547 27 58 143
-0.504068 -0.349608 0.239203 63 83 158
-0.347457 0.0606961 0.332746 83 135 170
0.107323 -0.0341986 -0.629865 141 123 47
-0.0559268 -0.107813 -0.959633 120 114 5
-0.642542 -0.541897 -0.617397 46 58 49
-0.0514129 0.247753 -0.260611 121 159 94
-0.501614 0.161562 0.275243 64 148 163
0.755334 -0.576204 0.268359 224 54 162
-0.480802 -0.576204 -0.103826 66 54 114
-0.748989 -0.576204 -0.0745263 32 54 118
-0.102742 -0.541897 -0.518255 114 58 61
0.153193 0.0288558 -0.277753 147 131 92
-0.765445 -0.541897 -0.169209 30 58 106
-0.490847 -0.541897 0.715369 65 58 219
0.489128 -0.576204 0.760207 190 54 224
0.265955 -0.358425 -0.35078 161 82 83
0.504118 0.377831 -0.155206 192 176 108
-0.181752 -0.576204 -0.704742 104 54 38
-0.104961 -0.00886421 -0.442711 114 126 71
0.344304 -0.398502 0.386848 171 77 177
-0.0524817 -0.576204 0.250989 121 54 160
0.361643 -0.541897 -0.536529 174 58 59
-0.520024 -0.476956 -0.0802719 61 67 117
0.127766 0.213262 0.278645 144 155 163
0.555229 0.320286 0.276158 198 168 163
-0.0689779 -0.541897 -0.716124 119 58 36
-0.71113 -0.576204 -0.0297958 37 54 124
-0.673225 -0.541897 0.195879 42 58 152
-0.0947388 -0.541897 -0.368801 115 58 80
0.0822261 -0.349966 -0.278645 138 83 92
0.00230032 -0.505829 0.382497 128 63 176
-0.268284 -0.541897 0.645841 93 58 210
-0.676652 -0.576204 0.0781972 41 54 137
0.0190495 -0.215526 -0.7156 130 100 36
0.718716 -0.242662 -0.106391 219 97 114
-0.0811187 -0.350999 -0.746932 117 83 32
0.496115 -0.166623 0.368814 191 106 175
0.478044 -0.489315 -0.512254 188 65 62
-0.116571 -0.23356 -0.591858 113 98 52
0.559073 -0.107323 0.393813 199 114 178
-0.255717 -0.576204 0.900134 95 54 242
0.383669 -0.576204 -0.38594 176 54 78
-0.142585 -0.541897 -0.311702 109 58 88
0.632659 -0.541897 -0.64609 208 58 45
-0.140904 -0.424411 0.386332 110 73 177
0.06764 -0.541897 0.963355 136 58 250
-0.273682 -0.576204 0.308858 93 54 167
-0.450107 -0.0156294 -0.260611 70 126 94
-0.378596 -0.309533 -0.278645 79 88 92
0.319606 -0.520928 0.621288 168 61 207
0.0730431 -0.464126 -0.31205 137 68 88
0.415572 -0.550297 0.909787 180 57 243
-0.0943787 0.0151748 0.364253 115 129 174
0.505156 -0.576204 -0.585156 192 54 53
-0.234393 -0.576204 0.604025 98 54 205
-0.351484 -0.161322 -0.598494 83 107 51
-0.355954 -0.576204 -0.238714 82 54 97
-0.503094 0.371682 0.20917 63 175 154
-0.126186 -0.122976 -0.963932 111 112 5
-0.169876 -0.541897 -0.538697 106 58 59
0.282586 0.431933 -0.166675 164 183 106
-0.806068 -0.576204 0.063662 25 54 136
-0.305436 0.0050056 -0.486448 89 128 65
0.0271122 -0.370155 -0.277919 131 80 92
0.569337 -0.576204 -0.614476 200 54 49
-0.169049 0.0359739 -0.442711 106 132 71
-0.19495 -0.268542 -0.641658 103 93 46
0.720469 -0.235416 -0.222623 219 97 99
-0.730004 -0.576204 -0.193407 34 54 103
0.465111 0.1627 -0.260611 187 148 94
0.011843 -0.3905 0.368814 129 78 175
0.0920753 -0.413337 -0.278645 139 75 92
0.253355 -0.443829 -0.312588 160 71 88
-0.0170999 -0.576204 -0.21317 125 54 100
0.383654 -0.505492 -0.472872 176 63 67
0.341487 -0.353558 0.386848 171 82 177
0.402718 -0.0591224 0.404882 179 120 179
-0.576204 0.257168 0.0797752 54 160 138
0.226049 0.326228 0.280428 156 169 163
-0.542559 0.205876 0.134374 58 154 145
-0.299768 -0.576204 0.699449 89 54 217
-0.457568 -0.576204 0.168035 69 54 149
0.720132 -0.320188 -0.108663 219 87 114
0.217552 -0.483465 0.783593 155 66 227
0.507409 -0.0217038 0.368814 192 125 175
0.109014 -0.541897 -0.640975 141 58 46
-0.504068 -0.231934 0.207575 63 98 154
0.715163 -0.541897 -0.173795 219 58 105
-0.464313 -0.541897 0.679643 68 58 214
0.316383 -0.576204 0.382803 168 54 176
0.584241 0.016325 -0.345487 202 130 83
0.0977941 -0.576204 0.569948 140 54 200
-0.3421 -0.576204 0.743131 84 54 222
-0.744501 -0.576204 0.506071 33 54 192
-0.250344 -0.576204 -0.461155 96 54 69
0.666373 0.0534039 -0.172479 212 134 106
-0.465977 -0.576204 -0.310214 68 54 88
-0.484764 -0.576204 -0.543495 66 54 58
-0.330118 -0.505829 0.529548 85 63 195
-0.579764 -0.576204 0.479717 54 54 189
-0.214049 -0.336194 0.368814 100 85 175
-0.217472 0.26959 -0.614226 100 162 49
0.181219 -0.457646 0.737207 151 69 221
-0.110826 0.285143 -0.781424 113 164 28
0.415416 0.0667733 0.330774 180 136 170
-0.504068 -0.113125 -0.101225 63 113 115
-0.246238 -0.364622 -0.260611 96 81 94
-0.322819 -0.160235 -0.567735 86 107 55
-0.209268 -0.576204 -0.500478 101 54 64
0.522102 -0.462171 0.502089 194 69 192
0.00579205 -0.541897 -0.340689 128 58 84
0.19877 -0.576204 0.781701 153 54 227
0.713598 -0.576204 -0.238857 218 54 97
-0.402653 -0.576204 -0.189627 76 54 103
-0.200302 -0.576204 0.503454 102 54 192
0.648441 -0.576204 -0.504293 210 54 63
-0.270617 -0.576204 -0.756021 93 54 31
0.706089 -0.327915 -0.151888 218 86 108
0.172475 0.151515 0.278645 149 147 163
-0.245987 -0.193186 -0.906451 96 103 12
-0.841763 -0.541897 -0.220608 20 58 99
-0.363397 0.486034 0.102396 81 189 141
-0.673227 -0.576204 0.618124 42 54 206
-0.140905 -0.541897 0.933506 110 58 247
0.563126 -0.576204 -0.03998 199 54 122
-0.0187121 -0.541897 -0.30121 125 58 89
0.564782 0.214019 -0.188032 200 155 104
-0.103666 -0.0771149 -0.460745 114 118 69
0.169554 -0.541897 -0.265409 149 58 94
0.153411 -0.409301 -0.27768 147 75 92
-0.143676 -0.166877 -0.260611 109 106 94
0.409608 -0.576204 0.849131 180 54 236
0.0357788 -0.18226 -0.644841 132 104 45
-0.242372 0.317009 -0.295038 97 168 90
0.718275 -0.576204 0.571214 219 54 200
-0.61881 -0.576204 0.368059 49 54 174
-0.291386 -0.576204 0.410835 90 54 180
-0.466865 0.20688 0.278645 68 154 163
-0.272778 -0.483129 -0.677151 93 66 41
0.215434 0.24645 -0.260611 155 159 94
0.312436 -0.107323 0.393258 167 114 178
0.0546034 -0.541897 -0.763533 134 58 30
-0.448948 0.426715 0.00602442 70 182 128
-0.504068 0.0627879 0.195456 63 136 152
-0.720437 -0.532825 0.543188 36 60 197
0.0353737 -0.541897 -0.867456 132 58 17
-0.862356 -0.576204 -0.28219 18 54 92
-0.292706 -0.541897 -0.79353 90 58 26
0.875275 -0.542453 0.405894 239 58 179
-0.089481 -0.576204 0.661955 116 54 212
-0.0569037 -0.576204 0.365351 120 54 174
-0.767181 -0.576204 -0.239563 30 54 97
-0.307409 0.00959287 0.368152 88 129 174
0.201607 -0.541897 -0.549368 153 58 57
0.332356 0.486034 -0.0596431 170 189 120
0.44411 0.431933 -0.065027 184 183 119
-0.621524 -0.576204 0.582567 48 54 202
-0.333388 -0.193729 0.369273 85 103 175
-0.419122 -0.576204 -0.151435 74 54 108
0.597948 -0.541897 0.59815 204 58 204
0.460278 -0.576204 -0.412994 186 54 75
0.180735 -0.576204 -0.4889 151 54 65
-0.46852 -0.471472 -0.260611 68 67 94
0.821164 -0.576204 0.392337 232 54 178
-0.80868 -0.547304 -0.468779 24 58 68
-0.326911 -0.0370504 0.39483 86 123 178
-0.613114 -0.539435 0.03306 49 59 132
-0.427591 -0.541897 -0.692238 73 58 39
0.176668 0.152837 -0.260611 150 147 94
0.70405 -0.10823 0.098348 217 114 140
-0.543531 0.438051 -0.0802719 58 183 117
-0.147088 -0.0220276 0.368814 109 125 175
0.392472 -0.419533 -0.368746 178 74 80
-0.411773 -0.103805 -0.792236 75 114 26
0.393793 -0.541897 0.731998 178 58 221
-0.570305 0.464837 0.127415 55 187 144
0.135805 -0.541897 -0.449308 145 58 70
-0.342187 -0.576204 0.663694 84 54 212
0.344838 -0.456323 0.368814 171 69 175
0.253022 -0.322376 -0.268039 160 86 93
-0.921181 -0.576204 0.102899 10 54 141
0.310564 -0.576204 0.259954 167 54 161
-0.0018607 -0.576204 0.690749 127 54 216
-0.293246 -0.402796 -0.677151 90 76 41
0.0122315 -0.320258 -0.260628 129 87 94
-0.195648 -0.505829 0.548936 103 63 197
-0.344162 -0.0444949 -0.912476 84 122 11
-0.23515 -0.265652 -0.260611 98 94 94
-0.51473 -0.576204 -0.230737 62 54 98
0.474074 -0.256302 -0.366436 188 95 81
0.15055 -0.541897 -0.795884 147 58 26
0.295743 -0.576204 0.0932549 165 54 139
0.459856 0.431834 0.196416 186 183 153
-0.606917 -0.540524 -0.0824723 50 59 117
0.351975 0.486034 0.0890128 172 189 139
-0.0237592 -0.576204 -0.0600493 124 54 120
-0.126049 -0.576204 -0.423322 111 54 74
-0.790966 -0.541897 0.463953 27 58 187
0.357815 -0.170066 -0.35078 173 106 83
-0.508069 -0.541897 -0.662787 63 58 43
-0.345671 0.131361 -0.892577 83 144 14
-0.51248 0.215526 -0.0686012 62 155 119
-0.450217 0.377831 -0.200832 70 176 102
0.753557 -0.576204 0.540757 224 54 196
0.190824 -0.434284 0.615154 152 72 206
0.0430468 -0.115828 -0.550908 133 113 57
-0.016725 -0.559374 -0.909831 125 56 11
0.778306 -0.576204 -0.462651 227 54 69
0.107323 0.127701 -0.728455 141 144 35
-0.105589 0.449064 0.188475 114 185 152
0.559931 0.170931 -0.206208 199 149 101
0.2778 -0.505829 0.554024 163 63 198
0.25853 -0.223441 0.3868 160 99 177
-0.191364 0.142577 -0.963932 103 146 5
0.451086 0.205282 -0.260611 185 154 94
0.0147615 -0.576204 -0.044194 129 54 122
-0.139035 0.218531 0.278645 110 155 163
0.178716 -0.495537 -0.37956 150 64 79
-0.0818508 -0.268853 -0.651729 117 93 44
-0.655235 -0.541897 0.429107 44 58 182
-0.449967 0.404443 0.210993 70 179 154
0.0895321 -0.576204 -0.0476841 139 54 121
-0.521231 -0.565872 -0.758657 61 55 31
0.172311 -0.576204 -0.555185 149 54 57
0.53277 -0.505829 -0.394584 195 63 77
0.46069 -0.505761 -0.369921 186 63 80
0.522107 -0.53296 0.562519 194 60 199
-0.504068 0.0533965 0.239309 63 134 158
0.706777 -0.107916 0.14865 218 114 146
0.583329 -0.576204 0.420354 202 54 181
0.0701398 -0.576204 0.859893 136 54 237
-0.291658 -0.23356 -0.784452 90 98 27
0.203445 -0.541897 0.837896 153 58 234
-0.22723 0.0142396 0.365382 99 129 174
0.738509 -0.0705854 -0.173277 222 119 105
0.828326 -0.576204 -0.110981 233 54 113
-0.540063 -0.576204 -0.707683 59 54 37
-0.858213 -0.541897 0.0341568 18 58 132
-0.0554744 -0.0793643 -0.260611 120 117 94
-0.322924 0.576204 -0.0727239 86 201 118
-0.528883 -0.541897 -0.168626 60 58 106
0.100238 -0.460896 -0.280761 140 69 92
-0.202379 -0.151256 -0.945653 102 108 7
0.719757 -0.282347 -0.160882 219 92 107
0.383237 0.0399084 0.332746 176 133 170
0.216691 -0.318393 0.386848 155 87 177
0.924618 -0.542007 -0.154717 245 58 108
0.587923 -0.0434532 -0.385894 202 122 78
0.519475 -0.576204 -0.461632 194 54 69
-0.376868 -0.541897 0.724773 79 58 220
0.213103 0.0926442 0.296679 155 139 165
0.301431 -0.504222 0.58581 166 63 202
-0.823541 -0.541897 0.333766 22 58 170
-0.504068 -0.166807 0.31283 63 106 167
0.630192 -0.541897 0.61869 208 58 206
-0.262219 -0.576204 0.237137 94 54 158
-0.504449 0.329068 -0.15311 63 169 108
-0.224165 -0.576204 -0.00725926 99 54 127
-0.538377 -0.541897 0.650286 59 58 210
0.547056 -0.0330984 0.369386 197 123 175
-0.0543546 0.486034 -0.0878257 121 189 116
-0.146357 -0.143659 -0.490621 109 109 65
-0.376029 0.494259 -0.091085 80 191 116
-0.665416 -0.541897 0.0558581 43 58 135
0.158579 -0.118063 -0.260611 148 112 94
-0.230758 -0.576204 0.682667 98 54 215
0.245809 -0.576204 -0.85675 159 54 18
-0.833597 -0.576204 0.296971 21 54 165
-0.359698 0.0171532 0.353357 82 130 173
-0.287676 -0.505829 0.450758 91 63 185
0.549226 -0.464169 -0.35078 198 68 83
0.325185 -0.576204 0.0170125 169 54 130
-0.581044 -0.576204 -0.40281 53 54 76
0.702441 -0.190926 -0.0880388 217 103 116
-0.0375039 0.262014 -0.783022 123 161 28
0.621756 -0.0318038 -0.35186 207 123 83
-0.0234632 0.256182 -0.293717 125 160 90
-0.484168 -0.576204 -0.201874 66 54 102
-0.576204 -0.0735396 -0.0535321 54 118 121
0.22603 0.41862 0.242577 156 181 158
-0.643077 -0.545597 -0.668233 46 58 42
-0.0668017 0.412792 -0.206509 119 180 101
-0.435024 -0.576204 0.692321 72 54 216
-0.504068 -0.185996 0.180172 63 104 150
0.0684182 -0.576204 0.75984 136 54 224
0.328158 -0.0636417 -0.386848 169 119 78
-0.486902 -0.541897 -0.696806 65 58 39
0.880476 -0.541897 -0.112596 240 58 113
-0.564603 -0.576204 0.717209 56 54 219
-0.165038 0.0306468 0.332746 106 131 170
-0.451773 -0.576204 -0.588476 70 54 52
-0.456163 0.325606 0.281153 69 169 163
-0.20615 -0.168133 -0.260611 101 106 94
-0.5072 0.35993 -0.0820032 63 173 117
0.21501 -0.479007 0.368814 155 66 175
0.350802 0.00142693 0.368814 172 128 175
0.720917 -0.576204 0.385557 219 54 177
0.777893 -0.576204 0.218026 227 54 155
-0.123222 -0.353382 0.386848 112 82 177
0.0618894 0.42795 -0.204395 135 182 101
-0.105429 -0.305359 -0.278645 114 89 92
-0.44923 -0.541206 -0.263338 70 58 94
0.253865 -0.295475 -0.34325 160 90 84
0.468 0.416534 0.010668 187 181 129
-0.161497 0.118551 -0.271038 107 143 93
0.281635 -0.0107715 0.368814 163 126 175
-0.310154 -0.541897 0.857943 88 58 237
-0.39687 -0.541897 -0.797203 77 58 26
0.601737 -0.576204 0.222684 204 54 156
-0.601247 -0.541897 -0.298583 51 58 89
0.880586 -0.541897 -0.221866 240 58 99
0.735548 -0.541897 0.353866 221 58 173
0.455103 -0.541897 0.652946 186 58 211
-0.419641 -0.541897 -0.729439 74 58 34
0.654143 -0.576204 0.276258 211 54 163
0.299715 -0.576204 0.14033 166 54 145
-0.0136653 0.118647 -0.260611 126 143 94
0.480551 -0.275366 0.368814 189 92 175
0.0364332 0.171682 -0.585118 132 149 53
0.462906 -0.453683 -0.513085 187 70 62
-0.222136 -0.541897 -0.860934 99 58 18
0.402065 -0.576204 0.630502 179 54 208
-0.126205 -0.269069 -0.79412 111 93 26
0.736275 -0.541897 -0.335907 221 58 85
0.0162233 -0.576204 0.122546 130 54 143
-0.432014 -0.576204 0.736866 72 54 221
-0.326311 -0.128004 -0.540403 86 111 59
-0.645238 -0.541897 0.589146 45 58 203
0.540136 0.219075 -0.0993166 196 155 115
0.770233 -0.541897 0.29034 226 58 165
0.311798 0.486034 0.17145 167 189 149
-0.161786 0.361843 0.278645 107 174 163
-0.504068 -0.448646 -0.208212 63 70 101
-0.00932221 -0.576204 -0.56228 126 54 56
0.0902395 -0.541897 -0.686325 139 58 40
0.383797 -0.576204 0.127889 176 54 144
-0.35455 -0.0338546 -0.524487 82 123 61
0.312585 -0.57592 0.939618 167 54 247
0.0225946 -0.576204 0.512656 130 54 193
0.798892 -0.541897 -0.280387 229 58 92
0.301115 0.395954 -0.206509 166 178 101
-0.141759 0.253781 0.306177 109 160 167
-0.0360098 0.261034 0.313967 123 161 168
0.308682 -0.232822 0.368814 167 98 175
-0.13777 0.486034 0.166581 110 189 149
0.552115 -0.576204 -0.71641 198 54 36
-0.22638 0.129072 -0.478218 99 144 67
0.0573792 0.162132 -0.835108 135 148 21
0.613956 0.125357 0.0310226 206 143 131
-0.139232 -0.576204 -0.576972 110 54 54
0.637159 -0.0811245 0.404882 209 117 179
0.733994 -0.576204 -0.451868 221 54 70
-0.348874 -0.576204 0.00242245 83 54 128
0.287635 -0.541897 -0.592735 164 58 52
-0.0302292 -0.576204 -0.677204 124 54 41
-0.0775922 -0.036781 -0.983777 118 123 2
-0.418602 -0.576204 0.812948 74 54 231
0.248938 -0.0413706 -0.383476 159 122 79
0.00554704 -0.576204 -0.808852 128 54 24
-0.504068 -0.102588 0.178766 63 114 150
-0.0900654 -0.576204 0.44297 116 54 184
0.224238 -0.541897 -0.671222 156 58 42
0.702441 -0.348817 0.290262 217 83 165
-0.772458 -0.541897 -0.00807583 29 58 126
-0.343252 0.170564 -0.260611 84 149 94
0.708638 -0.342993 0.0912445 218 84 139
0.130682 -0.576204 -0.629809 144 54 47
0.708922 -0.0369483 -0.269876 218 123 93
-0.342619 -0.346372 0.383414 84 83 176
-0.533325 -0.541897 0.521605 60 58 194
-0.268052 -0.576204 -0.844422 93 54 20
-0.429707 -0.576204 -0.216308 73 54 100
0.0145829 0.220947 0.296679 129 156 165
0.0181978 -0.576204 0.815104 130 54 231
-0.0635987 -0.576204 0.0613392 119 54 135
0.223719 0.377831 -0.223647 156 176 99
-0.448651 -0.0561721 0.404882 70 120 179
-0.0386682 0.0132272 -0.981966 123 129 2
-0.00764807 0.20129 -0.260611 127 153 94
-0.394955 -0.576204 -0.120165 77 54 112
0.0773423 0.123199 -0.610988 137 143 50
0.170952 -0.434018 -0.30238 149 72 89
-0.445924 -0.576204 0.0408999 71 54 133
-0.674072 -0.575958 0.715713 42 54 219
0.70273 -0.491534 0.067082 217 65 136
-0.133428 0.058734 -0.442711 110 135 71
-0.349213 -0.541897 -0.50152 83 58 64
0.166837 0.386075 0.242786 149 177 158
-0.317024 -0.265872 0.385388 87 94 177
-0.717379 -0.541897 -0.55469 36 58 57
0.183441 -0.576204 0.0535375 151 54 134
0.469765 0.378356 0.0842354 187 176 138
0.323745 -0.576204 -0.652321 169 54 44
-0.490005 -0.200546 -0.260611 65 102 94
-0.546201 0.341009 -0.0802719 58 171 117
-0.576204 -0.0940904 0.0164274 54 116 130
-0.887782 -0.541897 -0.246835 14 58 96
-0.110779 -0.149902 0.368814 113 108 175
0.497208 -0.576204 -0.325423 191 54 86
0.453629 -0.336454 0.386848 185 85 177
0.0168949 0.431933 -0.166338 130 183 106
-0.205738 -0.541897 -0.300049 101 58 89
-0.344847 -0.163105 -0.826834 84 107 22
0.302876 0.159371 0.279141 166 148 163
0.841537 -0.576204 -0.244124 235 54 96
-0.0227022 -0.186363 -0.888156 125 104 14
0.165461 0.486034 -0.0119225 149 189 126
0.250303 -0.0538754 0.404882 159 121 179
0.200628 -0.181722 0.368814 153 104 175
-0.583622 -0.576204 0.201148 53 54 153
0.379788 0.340898 0.278645 176 171 163
0.472991 0.302018 -0.296679 188 166 90
-0.612272 -0.50309 0.095043 49 63 140
0.358373 -0.541897 0.910275 173 58 244
-0.915622 -0.574381 0.329227 11 54 169
-0.729031 -0.541897 0.310807 35 58 167
0.109714 -0.540169 0.660609 141 59 212
-0.574282 -0.541897 -0.656546 54 58 44
0.869139 -0.541897 0.309435 238 58 167
-0.182698 -0.250011 -0.61059 104 96 50
-0.889617 -0.541897 -0.0083718 14 58 126
0.21946 -0.576204 -0.781525 155 54 28
-0.504066 -0.443285 0.364695 63 71 174
-0.793265 -0.541897 -0.266991 26 58 93
-0.121641 -0.0845129 0.404882 112 117 179
-0.582509 -0.541897 0.459409 53 58 186
0.874092 -0.541897 -0.0161152 239 58 125
0.110347 -0.107733 0.37465 142 114 175
0.127282 -0.510506 -0.386848 144 62 78
0.154947 0.263515 0.314511 147 161 168
0.545299 -0.576204 0.605541 197 54 205
-0.501953 0.468 -0.023961 64 187 124
0.702441 -0.476448 0.152771 217 67 147
-0.270024 -0.182094 -0.260611 93 104 94
0.207573 -0.576204 -0.0112577 154 54 126
-0.230312 -0.576204 -0.399054 98 54 77
-0.297353 -0.2334 -0.677602 90 98 41
-0.285032 0.566461 -0.0620026 91 200 120
0.419921 -0.457206 -0.478779 181 69 66
0.929727 -0.542502 0.208379 246 58 154
-0.3778 0.114132 -0.585371 79 142 53
-0.0689833 -0.576204 0.746888 119 54 223
0.0134508 -0.0177235 0.368814 129 125 175
-0.734676 -0.576204 0.382646 34 54 176
-0.318498 -0.541897 0.783474 87 58 227
-0.165557 0.288094 -0.296679 106 164 90
-0.524365 -0.576204 -0.564213 61 54 56
-0.385802 -0.576204 -0.627452 78 54 47
-0.370044 -0.576204 -0.748179 80 54 32
-0.221637 0.367783 -0.260596 99 174 94
0.762682 -0.541897 0.482566 225 58 189
-0.482123 -0.576204 -0.271739 66 54 93
-0.504068 0.241493 0.260282 63 158 161
-0.0475892 -0.0919628 0.404882 121 116 179
-0.354889 0.486034 0.149393 82 189 147
0.412719 -0.357287 0.386848 180 82 177
-0.273376 0.126395 0.296679 93 144 165
0.164763 0.433114 0.190487 149 183 152
-0.104073 -0.0644474 -0.982758 114 119 2
-0.22031 0.0716575 -0.98219 99 137 2
0.433248 -0.220207 0.386848 183 99 177
0.09666 -0.576204 -0.767584 140 54 30
0.08312 -0.022249 -0.570058 138 125 55
0.330675 -0.058526 0.404882 170 120 179
-0.576204 0.150747 0.0242456 54 147 131
0.875212 -0.576204 0.210143 239 54 154
0.0796186 -0.4915 0.38601 138 65 177
-0.535407 -0.541897 0.762145 59 58 225
-0.373447 0.319817 -0.293813 80 168 90
-0.449967 0.416958 -0.0640401 70 181 119
0.12219 -0.576204 -0.0733053 143 54 118
-0.297124 -0.541897 -0.5771 90 58 54
0.516745 -0.467318 0.542867 193 68 197
-0.0213862 -0.576204 0.570826 125 54 200
0.738509 -0.0670226 0.386764 222 119 177
-0.902065 -0.576204 -0.152767 12 54 108
-0.653237 -0.576204 -0.394808 44 54 77
0.330013 -0.541897 -0.765086 170 58 30
0.396742 -0.576204 0.565065 178 54 200
0.235395 -0.576204 0.670447 158 54 213
0.179337 -0.541897 -0.682627 150 58 40
-0.0704559 0.107226 0.296679 119 141 165
-0.154482 0.083011 0.296679 108 138 165
-0.508309 -0.541897 -0.516782 63 58 62
0.239258 -0.576204 0.143794 158 54 146
-0.121166 -0.576204 -0.765697 112 54 30
-0.300296 -0.576204 0.201274 89 54 153
0.0725383 -0.576204 0.230684 137 54 157
-0.429394 -0.428457 -0.270686 73 73 93
0.524062 -0.576204 -0.279983 194 54 92
0.217312 -0.0938974 -0.282489 155 116 91
0.0741683 -0.11876 -0.260611 137 112 94
0.224243 -0.39935 -0.260611 156 77 94
0.00431384 -0.576204 -0.602484 128 54 51
-0.621626 -0.576204 0.0248396 48 54 131
0.291152 0.486034 0.0601941 165 189 135
-0.14115 0.241852 -0.260611 110 158 94
0.606989 0.213043 -0.218822 205 155 100
-0.341089 -0.00298123 -0.50528 84 127 63
-0.0433542 0.232133 -0.574678 122 157 54
0.25472 -0.576204 -0.101604 160 54 115
-0.559832 -0.128587 0.134374 56 111 145
0.363025 -0.576204 0.756934 174 54 224
-0.32168 -0.541897 0.626939 86 58 207
-0.270001 -0.576204 0.623779 93 54 207
-0.137605 -0.385641 -0.783593 110 78 28
0.0838302 -0.576204 0.116003 138 54 142
-0.27627 -0.541897 -0.653532 92 58 44
-0.205141 -0.576204 -0.586971 101 54 53
-0.396949 -0.500089 0.616006 77 64 206
0.391531 -0.576204 -0.802461 177 54 25
0.313702 -0.355338 -0.368312 167 82 81
-0.178316 -0.215526 -0.55002 105 100 57
-0.046217 -0.576204 0.977509 122 54 252
-0.25095 0.027584 -0.260611 96 131 94
0.802909 -0.541897 -0.091314 230 58 116
-0.576204 0.194389 0.0804106 54 152 138
0.123324 0.486034 0.0641698 143 189 136
-0.440299 -0.541897 -0.625363 71 58 48
0.240623 -0.576204 0.223779 158 54 156
-0.490022 0.0348736 0.279735 65 132 163
0.15996 -0.541897 0.720315 148 58 219
0.539987 -0.576204 -0.493479 196 54 65
0.954902 -0.555805 0.136409 249 57 145
-0.246705 -0.503902 -0.734844 96 63 34
0.643015 -0.576204 0.593581 209 54 203
0.299959 -0.426649 -0.350869 166 73 83
0.291126 0.324421 -0.265063 165 169 94
0.252068 -0.484482 -0.478779 160 66 66
0.259782 -0.576204 0.0767402 161 54 137
-0.301488 0.110723 -0.27863 89 142 92
0.813673 -0.541897 -0.133038 231 58 111
0.171564 -0.541897 0.774716 149 58 226
0.0942746 -0.576204 0.976985 140 54 252
-0.342921 -0.576204 -0.675608 84 54 41
-0.847464 -0.576204 0.201609 19 54 153
0.411104 0.452474 -0.150102 180 185 108
0.487108 -0.501264 0.513984 190 64 193
0.779689 -0.576204 -0.148524 227 54 109
-0.305317 0.0874294 0.296679 89 139 165
0.408797 -0.576204 0.23679 180 54 158
-0.172936 -0.401608 -0.782655 105 76 28
-0.119267 -0.541897 0.770659 112 58 226
-0.576204 -0.0408739 0.0092578 54 122 129
-0.329693 0.165733 -0.874218 85 149 16
-0.626011 -0.576204 -0.136476 48 54 110
0.284398 -0.541897 0.710588 164 58 218
0.503819 -0.576204 -0.541903 192 54 58
0.185434 0.486034 0.102807 151 189 141
-0.751411 -0.541897 0.0958756 32 58 140
-0.623142 -0.573897 0.779587 48 54 227
-0.317864 -0.542833 -0.850464 87 58 19
-0.105858 -0.196525 -0.904895 114 102 12
-0.516446 -0.541897 -0.598601 62 58 51
0.471214 -0.576204 -0.170172 188 54 106
-0.41583 -0.107323 0.379682 74 114 176
-0.673395 -0.576204 -0.13717 42 54 110
-0.763218 -0.576204 -0.353185 30 54 82
-0.0162801 0.048899 -0.260611 125 134 94
-0.199842 -0.491071 0.621288 102 65 207
-0.0730161 -0.286265 -0.709882 118 91 37
-0.105573 0.0736765 -0.98968 114 137 1
-0.129428 0.00470186 -1 111 128 0
-0.0252342 -0.576204 0.71949 124 54 219
0.701881 0.00873436 -0.210507 217 129 101
-0.255757 -0.013784 -0.260611 95 126 94
-0.344162 -0.198688 -0.734904 84 102 34
0.0380496 -0.576204 -0.782033 132 54 28
-0.527285 -0.541897 0.337299 60 58 171
0.675628 -0.0369483 0.372239 214 123 175
0.550456 -0.541897 0.795576 198 58 229
-0.377831 0.131033 -0.61929 79 144 49
-0.181713 -0.541897 -0.597937 104 58 51
0.108573 -0.505829 0.604572 141 63 205
-0.576204 0.290119 0.117507 54 164 142
0.00793026 0.223416 -0.623486 129 156 48
0.0264543 -0.27912 -0.27757 131 92 92
-0.617922 -0.576204 -0.612746 49 54 49
0.204543 -0.541897 -0.808638 154 58 24
0.421138 -0.576204 -0.0681654 181 54 119
-0.0508004 0.253136 -0.638632 121 160 46
-0.601798 -0.576204 -0.66445 51 54 43
-0.248264 -0.576204 -0.133273 96 54 111
0.100825 -0.541897 -0.742249 140 58 33
-0.0688612 -0.113612 0.368814 119 113 175
-0.799509 -0.541897 0.168926 26 58 149
-0.372092 -0.150824 -0.260611 80 108 94
-0.436408 0.387623 0.242551 72 177 158
0.107543 -0.370904 0.376362 141 80 175
0.0654216 -0.108253 -0.855612 136 114 18
0.702286 0.00536155 0.219752 217 128 156
0.822813 -0.576204 0.322675 232 54 169
-0.471059 -0.576204 -0.700182 67 54 38
0.720475 -0.3627 0.222336 219 81 156
0.0960187 -0.576204 -0.49607 140 54 64
-0.576204 0.0288064 0.0166104 54 131 130
0.0241621 -0.07255 -0.262211 131 118 94
-0.0192559 -0.576204 0.794532 125 54 229
0.221755 -0.00981354 -0.260611 156 126 94
0.0934667 -0.576204 -0.326541 139 54 86
-0.159127 -0.177162 -0.499881 107 105 64
-0.38246 -0.0266288 -0.262073 79 124 94
-0.791273 -0.541897 -0.107003 27 58 114
0.0107723 0.486034 -0.0457473 129 189 122
0.172895 -0.576204 -0.128858 150 54 111
-0.576204 0.152903 0.125247 54 147 143
-0.404285 -0.456032 0.621288 76 69 207
-0.212193 -0.505829 0.459402 100 63 186
-0.383833 0.0712548 0.31188 79 137 167
0.507188 -0.541897 0.740801 192 58 222
0.11224 -0.056785 -0.673499 142 120 42
-0.576204 -0.316426 0.0207946 54 87 130
0.0356733 0.00818359 -0.509745 132 129 63
0.44866 -0.389101 -0.36321 185 78 81
0.356956 -0.541897 0.730728 173 58 221
-0.273239 -0.541897 -0.498048 93 58 64
-0.317951 -0.541897 -0.668852 87 58 42
0.615381 -0.541897 0.481694 206 58 189
-0.0831572 -0.541897 -0.873734 117 58 16
-0.488223 -0.541897 -0.328485 65 58 86
0.756989 -0.541897 -0.514276 224 58 62
-0.504068 -0.235557 -0.104665 63 97 114
0.0849063 0.16016 -0.696203 138 148 39
0.892079 -0.576204 0.0134511 241 54 129
-0.0996149 -0.576204 0.812694 115 54 231
-0.141871 -0.343991 -0.783593 109 84 28
0.259857 0.0768583 -0.260611 161 137 94
-0.18473 0.466276 -0.152407 104 187 108
0.33994 -0.576204 0.144722 171 54 146
-0.222129 -0.576204 -0.0662417 99 54 119
-0.501965 -0.0206597 0.368814 63 125 175
-0.640642 -0.541897 -0.0971287 46 58 115
-0.0815709 0.223791 -0.891784 117 156 14
0.570149 0.0712548 -0.294011 200 137 90
-0.446436 -0.576204 0.234421 71 54 157
0.106534 -0.576204 0.917608 141 54 244
-0.56148 -0.00572126 0.134374 56 127 145
-0.576204 -0.27533 -0.0635142 54 92 119
0.0643412 -0.576204 -0.531945 136 54 60
-0.576204 0.191174 0.0412057 54 152 133
-0.21452 -0.576204 0.828823 100 54 233
0.0176944 -0.576204 -0.352635 130 54 83
-0.370419 -0.541897 -0.291187 80 58 90
0.673313 0.0171532 0.143566 213 130 146
0.702441 -0.412024 0.338324 217 75 171
-0.0608831 0.194116 -0.518948 120 152 61
0.259342 -0.541897 0.775226 161 58 226
0.380861 -0.541897 0.64666 176 58 210
0.418261 -0.576204 -0.22041 181 54 99
-0.211705 -0.447857 -0.745145 101 70 32
0.610268 -0.504965 -0.473272 205 63 67
0.0546969 0.0392114 0.332746 134 132 170
-0.364331 -0.0932928 -0.568124 81 116 55
-0.817269 -0.541897 0.501608 23 58 191
0.697508 -0.396638 -0.349089 216 77 83
0.484316 -0.188838 -0.35078 189 103 83
-0.289423 -0.367985 0.376982 91 81 176
-0.155785 0.425039 -0.205703 108 182 101
-0.284817 -0.131774 -0.513703 91 111 62
-0.0236528 -0.576204 0.45196 124 54 185
-0.218749 -0.576204 0.431082 100 54 182
-0.133659 0.0598856 0.332746 110 135 170
0.502585 0.0144488 0.365129 192 129 174
-0.258852 -0.29128 -0.683383 94 90 40
0.342895 -0.576204 -0.18122 171 54 104
-0.77452 -0.576204 0.311301 29 54 167
-0.0392357 -0.516057 -0.260611 122 62 94
-0.262674 0.377831 -0.234956 94 176 98
0.522674 -0.535804 0.599205 194 59 204
0.276562 0.485618 0.181466 163 189 151
-0.645263 -0.576204 -0.0262184 45 54 124
-0.325776 -0.576204 -0.799753 86 54 26
0.0621577 0.0712548 0.307248 135 137 167
-0.31054 -0.379592 -0.731284 88 79 34
0.111694 -0.433694 -0.345656 142 72 83
0.0892753 0.134496 -0.646307 139 145 45
-0.327292 0.0189742 -0.264102 86 130 94
0.193937 -0.378213 0.370002 152 79 175
-0.0691855 -0.00937105 -0.260637 119 126 94
-0.65412 -0.576204 0.236075 44 54 158
-0.698012 -0.576204 0.173798 39 54 150
0.303902 -0.541897 0.83224 166 58 234
0.215761 -0.541897 0.909609 155 58 243
0.0151544 -0.0466501 -0.941618 129 122 7
0.351887 0.322313 -0.291429 172 169 90
0.215045 0.486034 0.0231515 155 189 130
-0.244715 -0.467688 0.587338 96 68 202
-0.0358128 0.486034 0.080048 123 189 138
-0.0931663 -0.576204 0.578101 116 54 201
0.129426 -0.482519 -0.264574 144 66 94
0.785079 -0.576204 -0.386202 228 54 78
-0.231184 -0.576204 -0.203017 98 54 102
-0.17366 -0.576204 -0.651057 105 54 44
-0.137391 0.287662 -0.709651 110 164 37
0.194509 -0.576204 0.0886648 152 54 139
0.949936 -0.544138 0.00211642 249 58 128
-0.576204 -0.381814 0.0213631 54 79 130
0.0423297 -0.532084 -0.352867 133 60 83
0.00991955 -0.171733 -0.872274 129 106 16
-0.33954 0.157813 -0.559905 84 148 56
0.697035 -0.576204 0.220134 216 54 156
-0.569906 -0.543606 -0.718732 55 58 36
0.339288 -0.576204 -0.685394 171 54 40
0.710281 -0.25183 0.243138 218 95 159
0.668348 0.0194533 0.0122243 213 130 129
-0.161317 -0.417836 -0.278645 107 74 92
-0.0544496 -0.541897 -0.579265 121 58 54
-0.27229 0.257056 -0.694001 93 160 39
-0.102015 -0.576204 -0.574081 114 54 54
0.400482 0.165177 0.279568 179 149 163
-0.00521369 -0.576204 -0.252174 127 54 95
0.631002 -0.324793 0.368814 208 86 175
0.702441 -0.137228 0.304368 217 110 166
-0.751226 -0.574429 -0.542436 32 54 58
-0.503551 0.370974 0.146625 63 175 146
-0.0654785 0.128454 -0.96376 119 144 5
-0.129065 -0.576204 -0.497504 111 54 64
0.107746 0.342826 -0.260611 141 171 94
0.830745 -0.576204 -0.292367 233 54 90
0.525576 -0.0704027 -0.386848 195 119 78
-0.542294 0.252453 -0.0811159 58 160 117
0.645948 -0.541897 0.428194 210 58 182
0.752631 -0.541897 0.00679621 223 58 128
-0.66434 -0.541897 0.2578 43 58 160
0.630616 -0.230476 -0.368766 208 98 80
0.45114 -0.541897 -0.745376 185 58 32
-0.121133 -0.576204 0.922827 112 54 245
0.626169 -0.576204 -0.622975 207 54 48
-0.532479 -0.541897 -0.0945011 60 58 115
0.39999 0.377831 -0.219797 178 176 99
-0.308753 -0.576204 0.338422 88 54 171
-0.305554 -0.224232 -0.73735 89 99 33
-0.396165 -0.576204 0.0476319 77 54 134
0.55817 0.294927 0.303694 199 165 166
-0.242806 -0.541897 -0.830755 97 58 22
-0.100531 -0.184956 -0.532923 115 104 60
-0.39733 -0.576204 0.682952 77 54 215
-0.318468 -0.175843 -0.868919 87 105 17
0.544211 -0.449566 -0.513085 197 70 62
0.337854 -0.576204 0.835056 171 54 234
0.199947 -0.505829 0.556593 153 63 198
0.14239 0.36377 -0.260606 146 174 94
0.330959 -0.407024 -0.36866 170 76 80
0.813039 -0.541897 0.159999 231 58 148
-0.223163 -0.0376718 -0.98455 99 123 2
0.314967 -0.434644 0.615772 168 72 206
-0.803067 -0.541897 -0.386784 25 58 78
-0.576204 0.0450935 0.0938163 54 133 139
0.121891 -0.246012 0.368814 143 96 175
0.533986 -0.576204 0.292011 196 54 165
-0.315941 -0.541897 -0.417626 87 58 74
-0.346572 -0.541897 -0.324218 83 58 86
0.0562677 0.486034 -0.0991846 135 189 115
-0.561151 -0.576204 -0.341844 56 54 84
0.00549888 0.309713 -0.296679 128 167 90
0.58391 -0.270981 -0.368814 202 93 80
0.192347 -0.435803 0.662369 152 72 212
0.0356672 -0.117931 0.368814 132 112 175
-0.132518 -0.200222 -0.273073 111 102 93
0.522102 0.197354 0.227155 194 153 156
0.274512 -0.576204 -0.0365524 163 54 123
-0.948205 -0.575913 0.127205 7 54 144
0.0156612 -0.19409 0.386848 129 103 177
-0.110422 -0.576204 -0.869648 113 54 17
0.0338675 -0.575216 -0.902693 132 54 12
0.365824 0.486034 0.144368 174 189 146
-0.460014 0.0715619 0.287597 69 137 164
-0.486697 0.290264 -0.296679 65 165 90
-0.116676 0.121346 -0.979324 113 143 3
0.379052 -0.576204 0.889088 176 54 241
-0.285012 -0.576204 0.269686 91 54 162
0.145123 -0.0407304 0.402606 146 122 179
-0.164416 0.381356 0.245238 107 176 159
-0.504068 -0.0234774 -0.163207 63 125 107
0.702441 -0.525953 0.108749 217 60 141
-0.461952 -0.576204 -0.628793 69 54 47
-0.716228 -0.576204 -0.284472 36 54 91
-0.118488 -0.576204 -0.461128 112 54 69
0.728897 -0.107045 -0.268358 220 114 93
-0.590199 -0.576204 0.658963 52 54 212
-0.0539695 -0.576204 0.12842 121 54 144
-0.076875 -0.393788 -0.678563 118 77 41
-0.25779 0.486034 0.0377737 95 189 132
0.418863 -0.541897 -0.766249 181 58 30
-0.138414 -0.153781 -0.945898 110 108 7
-0.15568 -0.576204 0.76255 108 54 225
0.107198 -0.528776 -0.296441 141 60 90
-0.0375189 0.238172 -0.833001 123 158 21
-0.389989 0.528265 -0.0160451 78 195 125
0.512393 -0.576204 0.676019 193 54 214
0.138635 -0.576204 -0.140699 145 54 110
-0.389626 -0.541897 -0.417986 78 58 74
0.188167 -0.542602 -0.883797 151 58 15
-0.498164 -0.105727 0.39854 64 114 178
-0.588376 -0.576204 0.348385 52 54 172
-0.712696 -0.576204 0.523439 37 54 194
-0.439062 -0.576204 0.307397 72 54 167
0.413899 0.472294 0.0915885 180 188 139
0.618175 -0.107323 0.378656 206 114 176
-0.576204 -0.391665 -0.0690357 54 78 119
-0.0760458 0.0961197 -0.275766 118 140 92
-0.333094 -0.576204 -0.0358658 85 54 123
0.522163 0.206688 0.142663 194 154 146
0.518683 -0.328463 0.368814 194 86 175
-0.481653 -0.576204 0.839966 66 54 235
-0.177637 0.326658 -0.262781 105 169 94
-0.504068 0.19203 0.233963 63 152 157
-0.709462 -0.541897 -0.51342 37 58 62
0.133218 -0.576204 0.00661354 144 54 128
0.709195 -0.576204 -0.044502 218 54 122
-0.089442 0.178497 0.278645 116 150 163
0.125357 -0.0027252 -0.695929 143 127 39
-0.0316423 -0.541897 0.74927 123 58 223
-0.155761 -0.576204 0.895122 108 54 242
0.253577 -0.502032 -0.340095 160 63 84
0.660646 -0.576204 0.682332 212 54 214
-0.0198397 0.313041 0.314712 125 167 168
-0.0912044 -0.390855 -0.755354 116 78 31
-0.196129 -0.210146 -0.896683 102 101 13
0.357971 0.411031 0.242577 173 180 158
-0.529236 0.323695 -0.261053 60 169 94
0.0720684 -0.167535 0.368814 137 106 175
-0.166848 -0.361757 -0.641091 106 81 46
0.37195 -0.576204 0.420859 175 54 181
-0.469762 -0.447366 0.563762 68 70 199
-0.0731514 -0.576204 0.514637 118 54 193
0.702441 -0.464948 -0.182932 217 68 104
-0.504068 -0.46891 0.306856 63 68 167
-0.428755 -0.541897 -0.305493 73 58 89
0.39303 0.300088 -0.296679 178 166 90
-0.182716 -0.576204 0.317764 104 54 168
0.357503 -0.541897 -0.618969 173 58 49
-0.410439 -0.576204 0.339536 75 54 171
-0.33423 -0.0627291 -0.515443 85 120 62
-0.688674 -0.576204 -0.475477 40 54 67
0.0165718 -0.288214 0.372837 130 91 175
-0.504068 -0.321878 0.165545 63 86 149
0.249216 0.486034 0.123754 159 189 143
0.330896 -0.576204 -0.105556 170 54 114
0.379792 0.46863 0.188475 176 187 152
0.682447 -0.576204 -0.274006 215 54 93
0.527053 0.324771 -0.216277 195 169 100
-0.412681 0.185148 0.278645 75 151 163
0.26283 0.220654 0.296134 161 156 165
-0.510785 -0.305336 -0.0804757 62 89 117
-0.299916 0.486034 0.139158 89 189 145
-0.861297 -0.576204 -0.205969 18 54 101
0.122127 -0.505829 0.527299 143 63 195
0.406835 0.0973217 0.296679 179 140 165
-0.617639 -0.541897 0.473783 49 58 188
0.508146 -0.252087 -0.355294 192 95 82
-0.270428 -0.576204 0.835038 93 54 234
-0.27746 -0.576204 -0.0193086 92 54 125
-0.468267 -0.576204 0.744117 68 54 222
0.702441 -0.289438 -0.270663 217 91 93
0.205603 -0.576204 -0.65009 154 54 45
0.198671 -0.576204 -0.280203 153 54 92
-0.688201 -0.576204 0.46241 40 54 186
-0.18575 -0.541897 0.746109 104 58 223
0.737528 -0.102433 -0.30969 222 114 88
-0.363747 -0.576204 -0.821417 81 54 23
0.000565645 -0.151174 -0.547325 128 108 58
0.487795 -0.452441 0.456712 190 70 186
-0.0573838 0.0933532 -0.465082 120 139 68
0.0259963 -0.541897 -0.42645 131 58 73
0.0515488 -0.541897 -0.825153 134 58 22
-0.452401 -0.505829 0.528741 70 63 195
0.0276849 0.00261423 -0.278224 131 128 92
0.702441 -0.213109 0.0268361 217 100 131
-0.321552 -0.501864 0.616169 87 64 206
0.401877 -0.576204 0.297551 179 54 165
0.0800221 -0.576204 -0.457142 138 54 69
-0.297413 0.486034 0.093989 90 189 139
0.633795 -0.576204 0.153942 208 54 147
-0.627715 -0.576204 0.129393 47 54 144
-0.34308 0.20318 0.280703 84 153 163
-0.103324 -0.0509249 0.40488 114 121 179
0.854388 -0.576204 0.0488419 236 54 134
0.0215533 0.486034 0.0251114 130 189 131
0.579802 -0.505829 -0.362963 201 63 81
0.270078 -0.576204 -0.409425 162 54 75
0.720475 -0.307273 0.111561 219 88 142
0.125294 -0.541897 0.965348 143 58 251
0.180067 -0.107323 0.391181 150 114 177
-0.260946 0.196233 0.295494 94 153 165
0.675558 -0.501557 -0.444938 214 64 71
0.15631 0.463588 -0.152407 147 187 108
-0.0203263 0.13622 -0.50466 125 145 63
0.273976 0.374197 0.275279 162 175 163
0.702441 -0.493686 -0.289322 217 65 91
0.447922 -0.141729 0.368814 185 109 175
-0.569411 -0.541897 0.254868 55 58 160
0.0082624 -0.508714 -0.260611 129 63 94
-0.545567 -0.541897 -0.385294 58 58 78
-0.504068 0.0302955 -0.176541 63 131 105
-0.0976517 -0.315185 0.368814 115 87 175
0.613927 -0.576204 0.526578 206 54 195
0.0634676 0.378962 0.246481 136 176 159
-0.859475 -0.541897 0.163893 18 58 148
0.47113 0.37823 -0.0963977 188 176 115
-0.135659 -0.576204 -0.348855 110 54 83
0.0493915 -0.541897 -0.499321 134 58 64
-0.196534 0.264015 -0.296537 102 161 90
-0.280812 -0.541897 0.913758 92 58 244
-0.324057 -0.505829 0.446703 86 63 184
0.703381 -0.0363359 -0.0442413 217 123 122
-0.0625314 -0.240042 -0.623393 120 97 48
-0.724354 -0.576204 0.201049 35 54 153
0.457898 -0.449504 0.586982 186 70 202
-0.520094 -0.216635 0.134374 61 100 145
-0.179212 -0.398775 -0.650777 105 77 45
-0.812125 -0.576204 0.389897 24 54 177
0.909737 -0.576204 -0.0665387 243 54 119
-0.186677 -0.576204 0.593611 104 54 203
0.287962 -0.541897 -0.700201 164 58 38
-0.910405 -0.542031 -0.176457 11 58 105
-0.395865 0.150515 -0.788357 77 147 27
0.533646 -0.541897 -0.662185 196 58 43
0.527416 -0.31328 -0.368802 195 88 80
-0.312589 0.314352 0.314419 88 168 168
0.891778 -0.576204 -0.159303 241 54 107
-0.238251 0.269628 -0.807656 97 162 25
0.702441 -0.435359 -0.309834 217 72 88
0.24527 0.156083 0.278645 159 147 163
-0.388269 -0.0319208 -0.872653 78 123 16
-0.346064 0.431933 -0.177666 83 183 105
-0.505306 -0.541897 0.834244 63 58 234
0.444032 0.431933 0.0519115 184 183 134
-0.612272 -0.479364 0.0257116 49 66 131
0.18642 0.0383037 0.332746 151 132 170
0.117579 -0.576204 -0.424582 142 54 73
0.0289072 -0.576204 -0.474653 131 54 67
-0.855276 -0.576204 0.121258 18 54 143
-0.167467 -0.0658929 -0.444736 106 119 71
0.562095 -0.541897 -0.570081 199 58 55
0.201237 -0.315785 -0.260611 153 87 94
-0.504068 -0.151882 0.349962 63 108 172
0.040204 -0.541897 -0.6201 133 58 48
-0.51169 -0.37142 0.134432 62 80 145
-0.504068 -0.357434 0.275172 63 82 163
0.702441 -0.25244 -0.0291032 217 95 124
-0.917561 -0.576204 0.222565 11 54 156
-0.504068 -0.3795 0.204536 63 79 154
0.290863 -0.197718 -0.35078 165 102 83
-0.527108 0.461108 0.0998565 60 186 140
-0.372349 -0.576204 0.841619 80 54 235
0.00437666 -0.576204 0.767687 128 54 225
-0.504677 -0.168855 -0.0847655 63 106 117
0.770749 -0.541897 0.101413 226 58 140
0.111631 -0.576204 0.308253 142 54 167
-0.481063 -0.576204 0.252283 66 54 160
0.556838 0.259227 0.232309 198 161 157
-0.0279139 -0.541897 -0.373448 124 58 80
0.648339 0.0910247 -0.0128878 210 139 126
-0.475927 -0.357764 0.368814 67 82 175
0.594193 -0.576204 -0.462182 203 54 69
0.34505 0.253355 -0.279931 171 160 92
0.178063 0.189965 -0.260611 150 152 94
-0.316492 -0.413845 0.386848 87 75 177
0.735545 -0.0403747 -0.000275393 221 122 127
0.0627064 0.213675 0.296371 135 155 165
0.172834 0.253274 -0.271461 150 160 93
-0.532672 0.0417328 -0.0802719 60 133 117
0.853354 -0.541897 0.220105 236 58 156
0.681024 0.0171532 -0.248397 214 130 96
0.293776 -0.505829 -0.396701 165 63 77
0.0987398 -0.576204 -0.70547 140 54 38
0.0837742 -0.108119 -0.62298 138 114 48
-0.0268254 0.0690349 0.329998 124 136 170
0.717276 -0.376254 0.100822 219 80 140
0.396987 0.0726069 -0.283361 178 137 91
0.50613 -0.433694 0.390648 192 72 177
-0.249738 -0.251594 -0.70406 96 95 38
0.37181 -0.46949 -0.513085 175 68 62
-0.729977 -0.569144 0.673622 34 55 213
0.728034 -0.574853 0.671464 220 54 213
0.720475 -0.357922 0.15104 219 82 147
-0.204855 0.0695704 0.329442 101 136 170
-0.749599 -0.573572 0.634477 32 54 208
0.526012 -0.576204 0.0137506 195 54 129
-0.637772 -0.576204 0.638995 46 54 209
-0.576204 0.0598585 -0.0548857 54 135 121
0.702441 -0.485231 -0.422261 217 66 74
-0.0701354 -0.576204 -0.388291 119 54 78
-0.502657 -0.476665 0.501522 63 67 191
0.51289 -0.576204 -0.131845 193 54 111
-0.105909 -0.333053 -0.656587 114 85 44
-0.559471 -0.576204 -0.269165 56 54 93
0.31687 -0.576204 -0.141675 168 54 109
-0.887702 -0.576204 0.17419 14 54 150
-0.916455 -0.545692 -0.220611 11 58 99
-0.503924 -0.501991 0.560415 63 63 199
-0.758835 -0.541897 -0.134165 31 58 110
0.0375461 -0.576204 0.944856 132 54 248
0.446536 -0.418295 0.386848 184 74 177
0.0983815 0.0999015 -0.819292 140 140 23
0.556906 0.259381 -0.219703 199 161 99
0.648339 0.0933366 0.236616 210 139 158
0.0679487 -0.541897 0.882003 136 58 240
0.27226 0.0171532 -0.281431 162 130 92
0.581541 -0.576204 -0.538485 202 54 59
-0.534527 -0.541897 -0.445346 59 58 71
0.679505 -0.576204 0.00452707 214 54 128
0.274616 -0.472549 -0.513055 163 67 62
-0.414192 -0.576204 -0.452787 75 54 70
-0.576204 -0.281085 0.0852754 54 92 138
0.485712 -0.576204 -0.241899 189 54 97
-0.025344 -0.402566 -0.260611 124 76 94
-0.838457 -0.541897 0.417872 21 58 181
0.747498 -0.576204 0.123699 223 54 143
0.107323 -0.0474267 -0.805263 141 121 25
0.651398 0.0239587 0.333228 211 131 170
-0.174171 -0.478875 -0.260611 105 66 94
0.0146045 -0.211159 -0.773448 129 101 29
0.458649 0.404199 -0.206509 186 179 101
-0.540136 0.279579 0.216494 59 163 155
-0.553859 -0.576204 -0.118777 57 54 112
-0.282895 -0.576204 -0.61934 91 54 49
-0.573173 0.38535 0.131314 54 177 144
-0.504068 -0.250589 0.327307 63 96 169
-0.555389 -0.541897 0.377745 57 58 176
0.368136 0.286582 0.314712 174 164 168
0.436582 -0.576204 0.111424 183 54 142
0.213171 -0.480505 -0.325533 155 66 86
0.55817 0.310941 0.168032 199 167 149
0.0800074 0.373721 -0.258163 138 175 95
-0.0745332 -0.57482 -0.904145 118 54 12
-0.339847 -0.473326 -0.747526 84 67 32
-0.321104 -0.576204 0.519182 87 54 194
-0.607376 -0.541897 0.154039 50 58 147
-0.200449 -0.541897 -0.793777 102 58 26
0.132725 -0.541897 -0.532932 144 58 60
-0.174907 0.287252 -0.648896 105 164 45
-0.0811082 -0.233019 -0.59258 117 98 52
0.685991 -0.576204 -0.38421 215 54 79
-0.549113 -0.576204 -0.159514 57 54 107
-0.350336 0.323729 0.292159 83 169 165
-0.291461 -0.205595 -0.603076 90 101 51
0.420275 -0.513718 0.621288 181 62 207
-0.0579418 0.375776 -0.256745 120 175 95
0.566304 -0.157918 0.368814 200 107 175
-0.508374 -0.576204 0.442876 63 54 184
-0.237756 -0.541897 -0.60956 97 58 50
-0.211321 -0.576204 -0.625434 101 54 48
-0.504068 -0.453238 0.454895 63 70 185
0.443715 -0.505829 0.460083 184 63 186
-0.135362 -0.576204 0.957739 110 54 250
-0.624378 -0.576204 -0.517592 48 54 62
-0.67504 -0.541897 -0.276396 41 58 92
-0.0733081 0.249768 -0.585492 118 159 53
0.00760762 -0.541897 -0.512658 128 58 62
-0.628884 -0.541897 0.257827 47 58 160
-0.012084 -0.541897 -0.876486 126 58 16
0.356229 -0.204151 0.383812 173 101 176
0.233344 0.446471 0.188475 157 184 152
0.516822 -0.541897 0.812172 193 58 231
-0.13757 -0.576204 0.680807 110 54 214
-0.0393412 -0.541897 0.891634 122 58 241
-0.42919 0.0427095 0.332746 73 133 170
0.658522 -0.0369483 -0.375768 211 123 80
0.486637 -0.576071 -0.774929 190 54 29
-0.546246 -0.576204 0.29665 58 54 165
0.676097 -0.576204 0.501878 214 54 191
0.111983 -0.0235606 -0.261313 142 124 94
-0.449073 -0.470512 0.590414 70 68 203
0.702441 -0.111982 -0.144622 217 113 109
-0.536351 0.0376537 0.134374 59 132 145
-0.948299 -0.575853 0.0177233 7 54 130
0.477831 -0.450001 -0.368535 188 70 81
-0.218972 0.164452 -0.494702 100 148 64
0.159228 -0.576204 -0.0679813 148 54 119
-0.0339 0.178573 -0.921444 123 150 10
-0.214479 -0.576204 0.881207 100 54 240
0.252137 0.148057 -0.260611 160 146 94
-0.254316 0.280931 -0.296679 95 163 90
0.431663 -0.576204 -0.139493 183 54 110
0.513445 -0.528026 -0.634191 193 60 47
0.583169 -0.215971 -0.353659 202 100 82
0.864713 -0.553471 -0.377122 238 57 79
0.0538084 0.160309 0.28231 134 148 163
0.402177 -0.576204 0.443603 179 54 184
