ply
format ascii 1.0
comment Created by Open3D
element vertex 1200
property double x
property double y
property double z
property uchar red
property uchar green
property uchar blue
end_header
-0.223379 0.6179 -0.0225342 99 206 125
-0.0682454 0.259671 -0.0257358 119 161 124
0.0746607 -0.877092 -0.677264 137 16 41
-0.171204 -0.873837 0.312544 106 16 167
0.367357 -0.596945 -0.131661 174 51 111
-0.131306 -0.542091 0.117294 111 58 142
-0.274791 -0.575347 -0.223307 92 54 99
0.0641333 0.155524 -0.0596643 136 147 120
0.0926033 -0.293587 -0.0884903 139 90 116
0.178903 -0.594964 -0.527599 150 52 60
0.809838 -0.88452 -0.170629 231 15 106
0.123462 -0.53287 -0.139726 143 60 110
-0.442588 -0.471226 -0.157102 71 67 107
-0.36988 -0.100991 -0.100977 80 115 115
-0.312464 -0.483475 -0.637265 88 66 46
-0.00263981 -0.276784 -0.616298 127 92 49
-0.15651 -0.997421 0.82182 108 0 232
-0.284189 -0.0525372 -0.603067 91 121 51
0.00478106 0.320732 -0.32867 128 168 86
0.116121 0.749794 -0.0527907 142 223 121
-0.296013 -0.593269 -0.697079 90 52 39
-0.474137 -0.1092 -0.269274 67 114 93
-0.302384 0.0207909 -0.124436 89 130 112
-0.236417 0.382646 -0.493363 97 176 65
-0.619547 0.742846 -0.0742536 49 222 118
0.629946 -0.274399 -0.189148 208 93 103
-0.322773 -0.884364 -0.543211 86 15 58
-0.0958753 -0.346654 -0.663863 115 83 43
-0.490451 -0.582762 -0.668489 65 53 42
-0.0897913 0.0248119 -0.592896 116 131 52
0.610701 -0.594964 -0.322585 205 52 86
-0.149731 -0.468682 -0.0725245 108 68 118
-0.412343 -0.575347 -0.303803 75 54 89
0.287647 -0.760517 -0.668259 164 31 42
0.417122 -0.383745 -0.581174 181 79 53
-0.362335 -0.734345 0.357049 81 34 173
0.737206 -0.700699 -0.626706 221 38 48
0.568738 -0.177783 -0.531264 200 105 60
-0.343946 -0.368005 -0.0725245 84 81 118
-0.111029 -0.870498 -0.462474 113 17 69
0.261041 -0.874959 -0.660775 161 16 43
-0.473078 0.144943 -0.412943 67 146 75
-0.45668 -0.0728427 -0.476261 69 118 67
-0.213843 0.394032 -0.0409469 100 178 122
0.65976 -0.997152 -0.0476316 212 0 121
0.298382 -0.892026 -0.0522511 166 14 121
-0.402015 -0.575347 -0.741203 76 54 33
-0.266319 -0.686064 -0.449628 94 40 70
-0.621548 -0.555594 -0.388324 48 57 78
-0.112475 -0.355958 -0.0804124 113 82 117
0.783304 -0.699505 -0.503931 227 38 63
-0.039854 -0.589997 -0.701278 122 52 38
0.623544 -0.373251 -0.507274 207 80 63
-0.179539 0.610754 -0.346394 105 205 83
0.234324 -0.274259 -0.613795 157 93 49
0.63063 -0.99807 -0.68204 208 0 41
-0.109642 -0.159872 -0.629769 114 107 47
-0.355356 -0.787138 0.625288 82 27 207
-0.362335 -0.738199 0.487646 81 33 190
0.109097 -0.0587762 -0.288656 141 120 91
-0.437647 -0.584493 -0.412906 72 53 75
0.392584 -0.0569971 -0.290548 178 120 90
-0.488375 -0.609827 -0.2296 65 50 98
0.0409463 -0.0186217 -0.390315 133 125 78
0.19363 -0.605498 -0.092434 152 50 116
-0.123307 0.53235 -0.47964 112 195 66
-0.171286 -0.645767 0.117997 106 45 143
-0.0584011 -0.15157 -0.186213 120 108 104
0.797581 -0.904396 -0.598078 229 12 51
0.769667 -0.585734 -0.335211 226 53 85
-0.434443 -0.312985 -0.552481 72 88 57
-0.187702 -0.68318 -0.227304 104 40 99
-0.418984 -0.545609 -0.0775533 74 58 118
-0.0617824 -0.71674 -0.183721 120 36 104
-0.285629 0.705609 -0.241153 91 217 97
-0.353485 -0.778511 -0.380054 82 28 79
0.672773 -0.341827 -0.365554 213 84 81
0.128665 -0.690689 -0.661402 144 39 43
-0.350163 0.510856 -0.357657 83 193 82
-0.412169 -0.391344 -0.691665 75 78 39
-0.12661 0.322592 -0.45593 111 169 69
-0.0704247 0.30467 -0.187741 119 166 104
-0.0655979 0.717861 -0.0590976 119 219 120
-0.413979 0.209164 -0.215888 75 154 100
-0.329033 0.22615 -0.0228149 86 156 125
0.0846555 -0.366821 -0.581174 138 81 53
-0.214391 -0.204791 -0.107455 100 101 114
-0.143401 0.322592 -0.295522 109 169 90
0.270846 -0.195842 -0.169397 162 103 106
0.376247 -0.594964 -0.576638 175 52 54
0.580216 -0.716464 -0.117727 201 36 112
0.433862 -0.594964 -0.217226 183 52 100
0.353088 -0.124288 -0.483442 173 112 66
0.0618382 -0.629005 -0.133805 135 47 110
0.0248788 0.214796 -0.34716 131 155 83
0.521023 -0.528315 -0.139726 194 60 110
0.728147 -0.711006 -0.0893085 220 37 116
-0.0355843 0.534616 -0.0615535 123 196 120
-0.332904 -0.656689 -0.265053 85 44 94
0.522074 -0.41246 -0.581173 194 75 53
-0.540749 -0.367091 -0.337337 59 81 84
-0.359767 -0.613813 0.173806 82 49 150
-0.134682 -0.763689 -0.386282 110 30 78
0.368028 -0.735375 -0.116738 174 34 113
0.623543 -0.176159 -0.392425 207 105 77
-0.585027 -0.555594 -0.243059 53 57 97
-0.58617 -0.628343 -0.0846004 53 47 117
-0.0729914 -0.0897729 -0.555633 118 116 57
0.533527 -0.523223 -0.581172 196 61 53
0.585127 -0.0156569 -0.387098 202 126 78
-0.118197 0.0657188 -0.113771 112 136 113
-0.352533 0.465906 -0.0566128 83 187 120
0.175065 -0.195971 -0.550337 150 103 57
0.174537 -0.93503 -0.665437 150 8 43
0.229386 -0.594964 -0.264687 157 52 94
-0.428437 -0.147881 -0.182769 73 109 104
-0.11375 -0.454031 -0.638836 113 70 46
0.720784 -0.799889 -0.656087 219 26 44
0.645706 -0.879975 -0.105283 210 15 114
-0.135826 -0.60617 -0.649208 110 50 45
-0.430651 -0.100556 -0.0168757 73 115 125
-0.484703 -0.508082 0.00898422 66 63 129
-0.374535 0.39136 -0.270348 80 177 93
-0.0974709 -0.788463 -0.249161 115 27 96
-0.142296 -0.658144 -0.389924 109 44 78
0.827003 -0.75758 -0.321429 233 31 87
-0.138629 -0.587981 -0.544699 110 53 58
-0.336168 -0.540769 0.0339506 85 59 132
0.00337197 -0.634402 -0.00861008 128 47 126
-0.356941 -0.798231 -0.216231 82 26 100
-0.212322 0.451815 -0.237568 100 185 97
-0.244614 0.270345 -0.142616 96 162 109
-0.0144343 -0.992423 -0.676566 126 1 41
-0.469898 -0.642581 0.0508761 68 46 134
0.74719 -0.818095 -0.0849616 223 23 117
0.166195 0.292347 -0.0235577 149 165 124
-0.421541 0.158316 -0.502896 74 148 63
-0.105773 -0.905582 -0.55771 114 12 56
-0.126775 -0.98385 -0.256756 111 2 95
0.783536 -0.608454 -0.454183 227 50 70
-0.340958 0.322592 -0.356237 84 169 82
-0.0494349 -0.581541 -0.307425 121 53 88
-0.529278 -0.592708 -0.567689 60 52 55
0.412761 -0.741601 -0.650418 180 33 45
0.0742691 -0.194545 -0.549024 137 103 57
-0.470756 -0.418263 -0.50478 67 74 63
0.719543 -0.447575 -0.238168 219 70 97
0.471103 -0.896849 -0.0727573 188 13 118
0.0549896 -0.715556 -0.083484 135 36 117
-0.192491 0.703109 -0.393893 103 217 77
-0.442247 -0.88643 -0.351328 71 14 83
0.0196862 -0.481846 -0.581174 130 66 53
0.641148 -0.594964 -0.179661 209 52 105
-0.362214 -0.750608 0.242774 81 32 158
0.338502 -0.456912 -0.581173 171 69 53
0.0230551 -0.114226 -0.476134 130 113 67
-0.563622 -0.47793 -0.338 56 67 84
-0.198764 0.0074725 -0.123434 102 128 112
-0.105678 -0.113131 -0.102503 114 113 114
0.791478 -0.998889 -0.111178 228 0 113
-0.0158071 -0.683403 -0.611304 125 40 50
-0.244658 -0.323024 -0.624696 96 86 48
-0.23969 -0.634471 -0.77024 97 47 29
-0.301201 0.580445 -0.47261 89 202 67
-0.0477439 0.0810446 -0.485265 121 138 66
0.538437 -0.0936746 -0.259909 196 116 94
-0.0536774 -0.52139 0.0194465 121 61 130
-0.166382 -0.844531 0.0944195 106 20 140
-0.222843 -0.876206 0.711195 99 16 218
0.508092 -0.0860642 -0.451566 192 117 70
-0.540436 -0.563386 -0.750697 59 56 32
-0.343747 -0.589923 -0.37408 84 52 80
0.22276 -0.416929 -0.139727 156 74 110
-0.654879 -0.562997 -0.553097 44 56 57
-0.448077 0.0567897 -0.250868 70 135 96
0.623544 -0.508656 -0.510323 207 63 62
-0.354347 -0.951839 0.730546 82 6 221
0.313078 -0.792745 -0.0599372 167 26 120
-0.133642 -0.717257 0.228944 110 36 157
-0.364977 -0.895284 -0.212345 81 13 100
-0.0360897 -0.793147 -0.11515 123 26 113
-0.106669 0.600895 -0.282841 114 204 91
0.153155 -0.858601 -0.0548497 147 18 121
-0.553229 -0.688376 -0.381651 57 40 79
0.279755 -0.594964 -0.180015 163 52 105
-0.685097 -0.489727 -0.34559 40 65 83
-0.538204 -0.583594 -0.429029 59 53 73
-0.160817 0.203981 -0.582154 107 154 53
-0.0990185 0.443415 -0.237612 115 184 97
-0.144037 0.314765 -0.0610904 109 168 120
-0.0400101 -0.0111826 -0.241215 122 126 97
-0.579973 -0.182105 -0.0546969 54 104 121
-0.488593 -0.513305 -0.232348 65 62 98
0.594118 -0.594964 -0.419544 203 52 74
-0.491305 -0.318238 -0.265355 65 87 94
-0.504499 -0.210327 -0.415591 63 101 75
0.516923 -0.427784 -0.139726 193 73 110
0.469779 -0.875792 -0.66082 187 16 43
-0.13898 0.499811 -0.312549 110 191 88
0.178971 -0.345577 -0.581174 150 83 53
-0.265186 -0.641551 0.205325 94 46 154
0.134069 -0.562501 -0.607665 145 56 50
0.0250119 -0.902922 -0.0520816 131 12 121
0.415539 0.0144493 -0.357205 180 129 82
-0.510554 0.212714 -0.343207 62 155 84
0.443871 -0.232547 -0.580447 184 98 53
-0.086893 -0.634471 -0.777623 116 47 28
-0.158854 -0.773313 -0.559642 107 29 56
0.295138 -0.295364 -0.087401 165 90 116
-0.317343 0.11757 -0.131853 87 142 111
-0.322316 0.321316 -0.037938 86 168 123
-0.369543 -0.45981 -0.0783391 80 69 118
0.277491 -0.594964 -0.347716 163 52 83
-0.070293 -0.926896 -0.390031 119 9 78
-0.730333 -0.634131 -0.368376 34 47 81
-0.411075 0.347255 -0.505184 75 172 63
0.822178 -0.856105 -0.514538 232 18 62
-0.073812 -0.979697 -0.0908917 118 3 116
0.00998844 0.350224 -0.0248465 129 172 124
0.417897 -0.594964 -0.310497 181 52 88
-0.183362 -0.804116 -0.460769 104 25 69
0.134644 -0.218936 -0.153507 145 100 108
-0.244648 -0.613217 -0.516991 96 49 62
0.561984 -0.862918 -0.676174 199 17 41
-0.398292 0.247364 -0.538554 77 159 59
-0.190373 -0.791034 -0.261582 103 27 94
0.294939 -0.587358 -0.622589 165 53 48
-0.413722 -0.0214401 -0.543789 75 125 58
-0.506721 -0.184889 -0.313695 63 104 88
-0.202657 -0.720207 0.354075 102 36 173
-0.638688 -0.560517 -0.144557 46 56 109
-0.134321 0.478743 -0.403881 110 189 76
0.246211 0.0199632 -0.0548856 159 130 121
0.519352 -0.616299 -0.0863136 194 49 116
-0.0263244 0.143389 -0.290675 124 146 90
0.599838 -0.347738 -0.593415 204 83 52
-0.359235 -0.907304 0.328847 82 12 169
-0.0636691 0.197494 -0.494243 119 153 64
-0.00211598 0.0621914 -0.406949 127 135 76
-0.207009 -0.719971 0.498748 101 36 191
-0.522993 0.0949242 -0.34942 61 140 83
-0.0893183 -0.871925 -0.189527 116 16 103
0.0670629 -0.594964 -0.220537 136 52 99
-0.647507 -0.607669 -0.304992 45 50 89
0.60842 -0.28114 -0.0997758 205 92 115
0.238335 -0.731148 -0.116916 158 34 113
0.474802 -0.594964 -0.575702 188 52 54
-0.426558 0.322592 -0.397054 73 169 77
-0.46815 -0.611025 -0.119659 68 50 112
0.240527 -0.0138079 -0.385102 158 126 78
-0.669787 0.542578 -0.0356884 42 197 123
-0.084599 0.324301 -0.374166 117 169 80
0.520888 -0.325544 -0.0857734 194 86 117
0.0124819 -0.555594 -0.0854818 129 57 117
-0.363377 0.535644 -0.230265 81 196 98
0.62266 -0.493871 -0.323412 207 65 86
0.209991 -0.932012 -0.0491507 154 9 121
0.206975 -0.628992 -0.447193 154 47 70
0.335513 -0.976979 -0.04566 170 3 122
-0.419222 -0.238314 -0.151515 74 97 108
-0.201133 -0.149395 -0.610848 102 108 50
0.331876 -0.931234 -0.681471 170 9 41
0.669626 -0.594964 -0.504725 213 52 63
0.140954 -0.785098 -0.112912 145 27 113
0.217052 -0.705904 -0.64668 155 37 45
-0.286242 0.322592 -0.539894 91 169 59
-0.218654 0.365579 -0.12898 100 174 111
0.033872 -0.634471 -0.672512 132 47 42
-0.390788 0.591239 -0.34563 78 203 83
-0.437976 0.507798 -0.386854 72 192 78
-0.139097 -0.875666 -0.3489 110 16 83
-0.538477 0.121089 -0.067867 59 143 119
-0.387996 0.302806 -0.135272 78 166 110
-0.142143 0.212213 -0.0510715 109 155 121
0.375198 -0.173057 -0.193367 175 105 103
0.0325806 0.871758 -0.0610822 132 239 120
-0.12717 -0.850543 0.677276 111 19 214
-0.352134 -0.633524 -0.788181 83 47 27
-0.394222 0.0207173 -0.121251 77 130 112
-0.276822 0.689566 -0.32901 92 215 86
0.842288 -0.843896 -0.378257 235 20 79
0.632749 -0.336429 -0.255303 208 85 95
0.332379 -0.451961 -0.133512 170 70 110
0.129123 0.86259 -0.0482814 144 237 121
-0.576851 -0.631138 -0.175909 54 47 105
-0.454811 0.255693 -0.284853 70 160 91
-0.404298 0.0819326 -0.545283 76 138 58
-0.222734 -0.531479 -0.0785135 99 60 117
-0.188428 -0.50374 -0.638269 103 63 46
-0.0717626 -0.427842 -0.116539 118 73 113
-0.249144 0.18686 -0.0300004 96 151 124
-0.0801543 -0.235193 -0.590769 117 98 52
-0.265262 -0.575347 -0.413732 94 54 75
0.00225855 -0.532391 -0.758281 128 60 31
0.371891 -0.192871 -0.54725 175 103 58
-0.16083 0.680902 -0.0181588 107 214 125
-0.49285 -0.0310953 -0.406984 65 124 76
0.624358 -0.511364 -0.224877 207 62 99
0.0332566 0.125545 -0.356135 132 144 82
0.13819 -0.594964 -0.286594 145 52 91
-0.448704 0.627679 -0.054661 70 208 121
0.200648 -0.436478 -0.581174 153 72 53
-0.313796 -0.579221 -0.560295 87 54 56
0.768541 -0.595469 -0.246203 225 52 96
-0.408342 -0.575347 -0.524517 75 54 61
-0.245757 -0.613217 -0.0283164 96 49 124
-0.505939 -0.555594 -0.0622512 63 57 120
-0.246039 -0.55407 0.07912 96 57 138
-0.350649 0.496639 -0.444935 83 191 71
0.210553 -0.136445 -0.496116 154 110 64
0.73854 -0.905961 -0.663253 222 12 43
-0.428442 -0.79813 -0.336288 73 26 85
-0.306498 0.47364 -0.132905 88 188 111
-0.127447 0.155214 -0.120402 111 147 112
0.0164443 -0.594964 -0.515785 130 52 62
0.53756 -0.238258 -0.58646 196 97 53
0.511833 -0.998603 -0.088595 193 0 116
-0.657456 -0.634455 -0.426818 44 47 73
0.226597 -0.1281 -0.232207 156 111 98
-0.302829 -0.290041 -0.0744064 89 91 118
0.151297 -0.0590365 -0.431259 147 120 73
-0.104644 -0.585042 -0.153602 114 53 108
0.00240936 0.216963 -0.0577919 128 155 120
-0.543811 -0.0251199 -0.0625069 58 124 120
0.548637 -0.712022 -0.64723 197 37 45
-0.195207 -0.394928 -0.0785135 103 77 117
-0.398576 -0.494792 -0.654231 77 64 44
-0.157837 0.0870152 -0.591639 107 139 52
0.0291362 -0.555594 -0.625747 131 57 48
0.00033169 0.952361 -0.0385199 128 249 123
0.0137983 0.0851043 -0.0533533 129 138 121
0.158078 0.205864 -0.0221525 148 154 125
0.381125 -0.662531 -0.0722914 176 43 118
0.623543 -0.177082 -0.29912 207 105 89
-0.510318 -0.570545 0.0838637 62 55 138
-0.162018 -0.634471 0.0300653 107 47 131
-0.312918 -0.844554 -0.467549 88 20 68
-0.127308 -0.80265 0.590989 111 25 203
-0.592043 0.643636 -0.0575472 52 210 120
-0.0881281 0.208372 -0.195418 116 154 103
-0.167866 -0.907033 -0.175796 106 12 105
-0.382518 -0.684919 -0.646141 79 40 45
-0.323726 -0.921151 0.506554 86 10 192
0.329026 -0.0435448 -0.414581 169 122 75
-0.024233 -0.671638 -0.723474 124 42 35
-0.30137 -0.95274 -0.211586 89 6 101
0.849775 -0.999823 -0.427781 236 0 73
-0.25068 0.183943 -0.136718 96 151 110
-0.384622 -0.634471 0.0414369 78 47 133
0.830258 -0.938664 -0.271229 233 8 93
-0.430084 -0.726675 -0.0833699 73 35 117
-0.08116 -0.669916 -0.449563 117 42 70
0.157821 -0.332869 -0.139728 148 85 110
-0.614749 -0.104329 -0.0542933 49 114 121
0.438996 -0.750267 -0.0721168 183 32 118
-0.497726 -0.640401 -0.752434 64 46 32
0.30752 -0.0556755 -0.291972 167 120 90
0.145395 -0.0222759 -0.0780607 146 125 118
-0.295402 -0.40044 -0.630774 90 76 47
0.80503 -0.790514 -0.245257 230 27 96
-0.30573 0.403593 -0.0228422 89 179 125
-0.323058 -0.778479 0.0946086 86 28 140
-0.386884 0.0360437 -0.0257054 78 132 124
-0.224197 0.324599 -0.214362 99 169 100
-0.0380092 -0.796593 -0.641595 123 26 46
-0.0981377 -0.784876 -0.471239 115 27 67
-0.0217676 0.617404 -0.051957 125 206 121
-0.122668 -0.708526 -0.105917 112 37 114
-0.272144 -0.799395 0.630909 93 26 208
0.452241 -0.575083 -0.126088 185 54 111
-0.0759861 -0.887429 -0.294299 118 14 90
-0.344378 -0.539198 0.117657 84 59 143
0.590244 -0.838416 -0.0566041 203 21 120
-0.060026 -0.288512 -0.0916939 120 91 116
-0.372157 0.165034 -0.0610905 80 149 120
0.0254536 0.722788 -0.0555964 131 220 120
0.0945036 -0.998603 -0.0503925 140 0 121
0.389657 -0.913642 -0.0557403 177 11 120
0.45559 -0.206418 -0.165737 186 101 106
-0.413255 0.322972 -0.314016 75 169 87
-0.379363 -0.166427 -0.0119255 79 106 126
-0.470988 -0.633954 -0.353651 67 47 82
-0.478384 -0.613208 -0.48142 67 49 66
-0.213942 0.574765 -0.454146 100 201 70
-0.307356 -0.575347 -0.300465 88 54 89
-0.156059 -0.788687 0.505056 108 27 192
-0.213241 -0.565805 -0.813813 100 55 24
-0.179303 -0.941206 -0.53029 105 7 60
-0.1034 -0.559771 -0.810465 114 56 24
0.621376 -0.530542 -0.593354 207 60 52
0.158554 0.0572173 -0.0466279 148 135 122
0.696478 -0.406016 -0.484428 216 76 66
-0.0835596 0.79427 -0.0184603 117 229 125
-0.428522 -0.578075 -0.000840914 73 54 127
-0.101278 0.402115 -0.424439 115 179 73
0.00483368 -0.0314912 -0.311505 128 123 88
-0.295255 -0.740658 0.308809 90 33 167
-0.302844 0.135424 -0.587865 89 145 53
-0.162916 -0.997198 0.0983092 107 0 140
-0.333873 -0.248264 -0.618948 85 96 49
-0.0171079 -0.639479 -0.111972 125 46 113
-0.166874 -0.586078 -0.347774 106 53 83
-0.222886 -0.555594 -0.703102 99 57 38
-0.0446793 -0.411141 -0.665952 122 75 43
0.426536 -0.621101 -0.646429 182 48 45
-0.353711 0.355616 -0.196193 82 173 102
-0.383271 -0.278358 -0.0865763 79 92 116
0.318953 0.148822 -0.0298845 168 146 124
-0.648992 -0.555976 -0.471593 45 57 67
-0.0634507 0.322643 -0.277607 119 169 92
-0.0826932 -0.575531 -0.486381 117 54 65
-0.636748 -0.0203908 -0.0563079 46 125 120
-0.358485 0.470048 -0.28752 82 187 91
-0.34759 0.642558 -0.447289 83 209 70
-0.215383 -0.00122486 -0.59886 100 127 51
-0.556308 -0.632291 -0.68366 57 47 40
0.0564599 -0.142563 -0.21713 135 109 100
0.513632 -0.706664 -0.0673175 193 37 119
-0.320161 0.260266 -0.580666 87 161 53
-0.143688 -0.277696 -0.0772385 109 92 118
-0.300298 -0.141292 -0.112235 89 109 113
0.623544 -0.192218 -0.471992 207 103 67
-0.113825 -0.711695 -0.594303 113 37 52
0.55874 -0.597568 -0.601376 199 51 51
-0.298986 -0.0602675 -0.118335 89 120 112
0.446938 -0.2731 -0.106978 184 93 114
-0.294113 0.43827 -0.482006 90 183 66
-0.0580488 -0.564805 0.0910905 120 55 139
0.342543 -0.347176 -0.581174 171 83 53
0.836936 -0.919622 -0.349407 234 10 83
-0.458695 -0.555594 -0.584329 69 57 53
0.273652 -0.598207 -0.0984668 162 51 115
0.0658508 -0.349691 -0.139728 136 83 110
-0.19915 -0.769149 0.57483 102 29 201
0.650367 -0.690432 -0.0862842 210 39 116
-0.255376 0.509521 -0.192293 95 192 103
-0.431487 0.464657 -0.0296685 72 187 124
-0.0861321 -0.653022 -0.233959 117 44 98
-0.415232 -0.404067 -0.113252 75 76 113
-0.35375 -0.730088 0.569119 82 34 200
-0.254144 0.773589 -0.423646 95 226 73
0.62266 -0.369087 -0.421485 207 80 74
-0.31832 -0.919226 0.100431 87 10 140
-0.672355 -0.556166 -0.249192 42 57 96
-0.194135 0.547308 -0.0451682 103 197 122
-0.406131 -0.171455 -0.10914 76 106 114
-0.39815 -0.945753 -0.380968 77 7 79
0.691033 -0.594964 -0.327812 216 52 86
-0.15027 0.322867 -0.531751 108 169 60
-0.272306 -0.594381 -0.141498 93 52 109
-0.160312 -0.682174 0.296142 107 41 165
-0.142505 0.322661 -0.140041 109 169 110
0.487955 -0.0280069 -0.400549 190 124 76
0.629691 -0.401869 -0.337488 208 76 84
-0.17639 0.460101 -0.47755 105 186 67
0.0246441 -0.594964 -0.392156 131 52 78
-0.339482 -0.930052 -0.48023 84 9 66
0.257968 0.0981533 -0.0602925 160 140 120
-0.25781 0.775839 -0.263875 95 226 94
-0.2226 0.322592 -0.309913 99 169 88
0.0151838 -0.271678 -0.108389 129 93 114
0.623543 -0.423773 -0.180721 207 73 104
-0.366871 -0.613217 -0.11483 81 49 113
-0.143123 0.420889 -0.0656785 109 181 119
0.509557 -0.594964 -0.441047 192 52 71
-0.346921 0.544259 -0.0551954 83 197 120
0.629039 -0.296331 -0.525837 208 90 60
-0.197421 -0.574964 0.143942 102 54 146
-0.0210138 0.231426 -0.412415 125 157 75
0.690693 -0.61979 -0.0985206 216 48 115
-0.17943 -0.831683 -0.194092 105 21 103
0.747928 -0.361388 -0.354968 223 81 82
-0.0671696 -0.325173 -0.593453 119 86 52
0.635776 -0.812398 -0.655918 209 24 44
-0.46192 -0.0230689 -0.262255 69 125 94
-0.153736 -0.579786 -0.0627973 108 54 119
-0.494395 0.511473 -0.0233166 64 193 125
-0.560844 -0.555594 -0.49843 56 57 64
0.764901 -0.693249 -0.182715 225 39 104
-0.150011 0.557312 -0.410063 108 199 75
0.689196 -0.329523 -0.471027 215 85 67
-0.107272 -0.579719 0.00699135 114 54 128
-0.102209 -0.830696 -0.53672 114 22 59
-0.141515 -0.935907 -0.428533 109 8 73
-0.078908 -0.651231 -0.0232588 117 44 125
0.100862 -0.804034 -0.655268 140 25 44
0.107936 -0.631337 -0.511835 141 47 62
-0.504506 -0.173263 -0.0391456 63 105 123
-0.261072 0.392081 -0.224159 94 177 99
0.376722 -0.305182 -0.089599 176 89 116
-0.459723 -0.534961 -0.777707 69 59 28
0.182383 -0.48304 -0.138637 151 66 110
-0.172605 -0.350207 -0.626766 105 83 48
-0.148568 -0.930506 0.549545 109 9 198
-0.452735 -0.400366 -0.185478 70 76 104
-0.418939 -0.155302 -0.554786 74 108 57
-0.519444 -0.634471 -0.0447002 61 47 122
-0.364933 -0.161064 -0.61741 81 107 49
0.537513 -0.594964 -0.297169 196 52 90
0.248109 -0.594964 -0.560889 159 52 56
0.407991 -0.916972 -0.680361 180 11 41
-0.00206976 -0.633292 0.0678828 127 47 136
0.591928 -0.216822 -0.155733 203 100 108
0.13978 -0.652008 -0.120946 145 44 112
-0.359135 -0.612071 -0.0272936 82 49 124
-0.379194 -0.565122 -0.813618 79 55 24
0.0702371 -0.464534 -0.133403 136 68 110
-0.61415 -0.634455 -0.571232 49 47 55
-0.0782838 -0.495002 -0.079213 118 64 117
0.076222 -0.0715438 -0.438212 137 118 72
-0.338251 -0.699391 -0.474157 84 38 67
0.380547 -0.388315 -0.152993 176 78 108
0.429374 -0.308467 -0.581174 182 88 53
0.293248 -0.594964 -0.423189 165 52 74
0.271325 -0.651502 -0.656208 162 44 44
0.569889 -0.594964 -0.144703 200 52 109
-0.0657769 0.322776 -0.501576 119 169 64
-0.175792 -0.645745 -0.301527 105 45 89
0.336036 -0.527591 -0.139726 170 60 110
-0.353697 -0.0943008 -0.0249434 82 115 124
0.102829 -0.594964 -0.369254 141 52 80
-0.425921 -0.344048 -0.633985 73 84 47
0.01819 -0.556033 -0.00658851 130 57 127
0.466246 -0.0778636 -0.276837 187 118 92
-0.463776 -0.555295 -0.170831 68 57 106
0.517621 -0.172905 -0.193528 193 105 103
-0.369531 -0.613217 -0.680534 80 49 41
-0.179435 0.598567 -0.261985 105 204 94
-0.257871 -0.248607 -0.61892 95 96 49
0.333383 -0.532412 -0.581173 170 60 53
-0.0250523 -0.604854 -0.583201 124 50 53
0.573953 -0.0376172 -0.311428 201 123 88
-0.0879627 -0.940558 -0.157819 116 8 107
0.709702 -0.628633 -0.630511 218 47 47
0.629683 -0.528966 -0.429237 208 60 73
-0.0814874 -0.640347 -0.348732 117 46 83
-0.50651 -0.0643537 -0.331709 63 119 85
-0.339497 0.370338 -0.515355 84 175 62
-0.0428952 -0.218813 -0.153636 122 100 108
-0.20328 0.473078 -0.0607575 102 188 120
-0.191758 -0.6568 -0.470064 103 44 68
-0.199958 -0.575347 -0.215616 102 54 100
-0.585008 -0.632198 -0.338893 53 47 84
0.0303178 -0.60218 -0.752138 131 51 32
0.194501 -0.773549 -0.0614444 152 29 120
0.371692 -0.594964 -0.470176 175 52 68
-0.0799848 -0.768779 -0.335096 117 29 85
-0.741175 0.642514 -0.0514787 33 209 121
-0.581768 -0.556166 -0.0645757 53 57 119
0.184886 -0.995041 -0.089839 151 1 116
-0.150068 -0.0496675 -0.120227 108 121 112
-0.303037 0.696058 -0.401569 89 216 76
0.475258 -0.702337 -0.662631 188 38 43
-0.828243 0.527123 -0.0214786 22 195 125
0.015209 -0.923839 -0.678444 129 10 41
-0.376305 0.382645 -0.448086 80 176 70
0.237591 -0.342053 -0.139727 158 84 110
-0.156525 0.426034 -0.147562 108 182 109
-0.173461 -0.971045 0.752497 105 4 223
-0.317661 -0.660366 0.123577 87 43 143
-0.395208 0.160238 -0.141462 77 148 109
-0.258287 -0.891821 -0.499358 95 14 64
0.677592 -0.946868 -0.0998186 214 7 115
0.109039 -0.620605 -0.646248 141 48 45
-0.0740131 -0.798737 -0.179679 118 26 105
-0.383994 0.436373 -0.212326 79 183 100
-0.760045 -0.564127 -0.372166 31 56 80
-0.126816 -0.706388 0.107849 111 37 141
0.599364 -0.991655 -0.09579 204 1 115
-0.427641 -0.632429 -0.791333 73 47 27
0.23262 0.17911 -0.0225358 157 150 125
-0.29562 0.0216913 -0.597067 90 130 51
-0.298239 -0.824654 -0.252275 89 22 95
0.591355 -0.937809 -0.665657 203 8 43
-0.301088 0.0452464 -0.0210711 89 133 125
0.434961 -0.594964 -0.404144 183 52 76
-0.0688768 0.54101 -0.303136 119 196 89
-0.491353 0.0419543 -0.397852 65 133 77
0.623543 -0.218475 -0.236604 207 100 97
-0.10455 -0.555594 -0.708052 114 57 37
-0.0876932 -0.711676 -0.523255 116 37 61
-0.204423 0.14495 -0.58699 101 146 53
0.695772 -0.968068 -0.665754 216 4 43
-0.206945 0.720239 -0.321318 101 219 87
-0.312492 0.59709 -0.305985 88 204 88
0.816313 -0.929227 -0.512018 232 9 62
-0.483652 0.0650715 -0.0529805 66 136 121
-0.250717 -0.633312 -0.26128 96 47 94
-0.420025 -0.478611 -0.00906631 74 66 126
-0.416328 -0.344019 -0.0712275 74 84 118
-0.332472 -0.761272 0.418293 85 30 181
-0.483116 -0.14345 -0.441853 66 109 71
0.206131 -0.594964 -0.163735 154 52 107
0.619858 -0.594964 -0.250047 207 52 96
-0.198056 0.322592 -0.476495 102 169 67
-0.0510286 -0.0768231 -0.211423 121 118 101
0.588967 -0.649944 -0.655769 203 45 44
-0.346275 -0.793087 -0.571379 83 26 55
0.238509 -0.65802 -0.120688 158 44 112
-0.473318 -0.256562 -0.476954 67 95 67
0.734137 -0.998412 -0.0663555 221 0 119
-0.475132 0.197953 -0.0565978 67 153 120
-0.429915 0.127648 -0.230699 73 144 98
0.198537 -0.190593 -0.174786 153 103 105
-0.12863 -0.930919 0.327139 111 9 169
-0.0441604 -0.543124 -0.129286 122 58 111
0.147807 -0.86852 -0.676599 146 17 41
-0.141704 -0.999028 -0.55514 109 0 57
-0.0570402 -0.458367 -0.593865 120 69 52
-0.11484 0.316451 -0.596018 113 168 52
-0.355761 -0.0415548 -0.603883 82 122 51
-0.228823 -0.633643 0.0668721 98 47 136
-0.0614427 0.542691 -0.443649 120 197 71
-0.320355 -0.647167 -0.336942 87 45 85
0.574084 -0.291149 -0.62992 201 90 47
-0.29296 -0.720051 0.49508 90 36 191
-0.399378 -0.0356344 -0.0185724 77 123 125
-0.0854884 0.374314 -0.222199 117 175 99
-0.0947191 -0.0450431 -0.609765 115 122 50
-0.451351 -0.288394 -0.19979 70 91 102
0.0156695 -0.405679 -0.139727 129 76 110
0.307418 -0.845798 -0.108221 167 20 114
-0.27714 -0.550068 -0.642753 92 57 46
-0.0741991 0.0330252 -0.190202 118 132 103
0.0649483 -0.30521 -0.629862 136 89 47
0.0227925 -0.833169 -0.653004 130 21 44
-0.488383 0.287197 -0.406251 65 164 76
-0.317207 -0.785364 0.524387 87 27 194
0.588216 -0.792457 -0.111752 202 26 113
-0.362735 -0.432389 -0.633316 81 72 47
0.629106 -0.443314 -0.477684 208 71 67
0.62503 -0.265403 -0.37917 207 94 79
0.386771 -0.119051 -0.24164 177 112 97
-0.122761 0.620083 -0.389419 112 207 78
-0.0124365 -0.84456 -0.0693487 126 20 119
-0.175055 -0.726768 -0.288601 105 35 91
-0.21247 -0.738559 -0.459507 100 33 69
-0.52776 -0.324057 -0.392625 60 86 77
-0.0031669 -0.612856 -0.263317 127 49 94
-0.269436 0.358544 -0.0677159 93 173 119
-0.274134 -0.555594 0.0022481 93 57 128
-0.210523 -0.575347 -0.288929 101 54 91
0.5723 -0.779992 -0.669734 200 28 42
0.299664 -0.309478 -0.624532 166 88 48
0.25628 -0.922447 -0.102168 160 10 114
-0.516219 -0.517031 -0.44034 62 62 71
0.685433 -0.579344 -0.57685 215 54 54
-0.273052 -0.371186 -0.0727012 93 80 118
-0.50355 -0.253777 -0.296628 63 95 90
0.706937 -0.595119 -0.206087 218 52 101
-0.435835 -0.243275 -0.539671 72 96 59
-0.168983 -0.143237 -0.112773 106 109 113
0.800395 -0.721949 -0.437821 230 35 72
-0.341852 -0.723467 -0.243361 84 35 96
0.700598 -0.86791 -0.0609318 217 17 120
0.285509 -0.138706 -0.498473 164 110 64
0.223709 -0.634404 -0.324286 156 47 86
-0.269743 0.413913 -0.140645 93 180 110
-0.125711 -0.817412 -0.306977 111 23 88
-0.564054 -0.556166 -0.676752 56 57 41
0.794746 -0.773919 -0.508192 229 29 63
-0.0795714 -0.582054 -0.234814 117 53 98
0.335697 -0.933867 -0.101332 170 8 115
-0.204344 0.704183 -0.464793 101 217 68
-0.091981 -0.708513 -0.377383 116 37 79
0.0952135 -0.899129 -0.0517034 140 13 121
-0.372817 -0.853476 -0.373696 80 19 80
-0.606638 0.583641 -0.022815 50 202 125
-0.366996 0.322592 -0.258381 81 169 95
0.765033 -0.847159 -0.629103 225 19 47
0.791695 -0.656643 -0.320859 228 44 87
0.197765 -0.999543 -0.680006 153 0 41
-0.168895 0.389838 -0.510692 106 177 62
0.175925 -0.512189 -0.581173 150 62 53
0.436789 -0.803894 -0.671583 183 25 42
-0.321793 0.281616 -0.143186 86 163 109
-0.333731 -0.555594 -0.748741 85 57 32
0.126189 0.143867 -0.0277064 144 146 124
0.522948 -0.137166 -0.496867 194 110 64
0.632717 -0.924412 -0.0497408 208 10 121
-0.347487 -0.855889 0.634248 83 18 208
-0.438485 -0.38293 -0.555557 72 79 57
-0.310431 -0.953883 0.784677 88 6 228
0.778854 -0.723402 -0.572861 227 35 54
0.432958 -0.110066 -0.47553 183 113 67
-0.726671 0.759694 -0.0473031 35 224 121
-0.129741 -0.829775 -0.407684 111 22 76
-0.297819 0.515544 -0.251884 90 193 95
0.310931 -0.240007 -0.58828 167 97 52
0.815193 -0.952677 -0.157394 231 6 107
0.184503 -0.321521 -0.0765459 151 87 118
-0.45204 -0.489326 -0.547489 70 65 58
-0.382235 0.105494 -0.026695 79 141 124
0.0740354 -0.526848 -0.581173 137 60 53
0.461623 -0.829714 -0.0890335 186 22 116
0.172347 -0.0932774 -0.260335 149 116 94
-0.34034 0.559079 -0.406488 84 199 76
-0.237489 -0.611997 -0.664986 97 49 43
-0.104243 -0.281716 -0.638468 114 92 46
-0.341224 -0.589975 -0.236353 84 52 97
-0.000492415 -0.0637374 -0.43454 127 119 72
0.62995 -0.216909 -0.537436 208 100 59
-0.360449 -0.604069 0.0999744 82 50 140
-0.285178 0.322592 -0.398213 91 169 77
0.658814 -0.674398 -0.639911 211 42 46
-0.256137 -0.867032 0.648275 95 17 210
-0.111981 -0.610561 -0.429716 113 50 73
-0.276254 -0.918889 0.70183 92 10 217
-0.178324 -0.962342 -0.216233 105 5 100
-0.123265 -0.526397 -0.639682 112 60 46
-0.00300344 0.283417 -0.0367594 127 164 123
0.192105 -0.894734 -0.1043 152 13 114
0.135559 -0.622988 -0.574405 145 48 54
0.69341 -0.380505 -0.234603 216 79 98
-0.00590728 -0.613216 -0.453289 127 49 70
0.0596824 -0.692019 -0.64505 135 39 45
-0.314797 -0.641598 -0.426725 87 46 73
-0.514654 -0.47154 -0.284356 62 67 91
0.0862802 0.00347277 -0.343596 139 128 84
-0.21186 -0.643057 0.248984 100 46 159
0.628869 -0.110035 -0.259298 208 113 94
-0.198671 0.517951 -0.252413 102 194 95
-0.175776 -0.628807 -0.795169 105 47 26
-0.310548 -0.753744 -0.441429 88 31 71
0.14394 -0.594964 -0.430214 146 52 73
-0.0667973 0.0297372 -0.526489 119 131 60
-0.368352 -0.741375 -0.179106 81 33 105
0.56128 -0.311841 -0.139319 199 88 110
0.0868677 -0.655888 -0.0731708 139 44 118
-0.482021 -0.0559043 -0.0236525 66 120 124
0.77741 -0.877097 -0.110927 227 16 113
-0.319052 -0.111106 -0.607834 87 113 50
0.680002 -0.318846 -0.301356 214 87 89
0.531859 -0.34488 -0.581174 195 84 53
0.020142 -0.336609 -0.581175 130 85 53
-0.55806 -0.528448 -0.383547 56 60 79
0.636873 -0.0276694 -0.342673 209 124 84
-0.339432 -0.724018 -0.341496 84 35 84
-0.134101 -0.599267 0.154249 110 51 147
0.526187 -0.860273 -0.0890335 195 18 116
-0.0413736 0.0761601 -0.253698 122 137 95
0.62765 -0.0801634 -0.392409 208 117 77
-0.490084 0.574038 -0.060475 65 201 120
0.053389 -0.246643 -0.592365 134 96 52
-0.418017 -0.555594 -0.6775 74 57 41
-0.598605 0.512021 -0.0197373 51 193 125
-0.586083 -0.555807 -0.568504 53 57 55
-0.134446 -0.821931 0.289229 110 23 164
-0.711643 -0.628992 -0.302111 37 47 89
-0.37093 -0.954085 -0.535322 80 6 59
-0.165989 -0.905188 0.686164 106 12 215
-0.551375 -0.634471 -0.61631 57 47 49
0.0575539 0.792433 -0.059728 135 229 120
0.570753 -0.668081 -0.0716252 200 42 118
-0.548799 -0.194667 -0.365451 58 103 81
-0.0508845 -0.947388 -0.635416 121 7 46
-0.11827 0.392272 -0.280145 112 178 92
-0.132386 0.562261 -0.0228175 111 199 125
-0.0390311 -0.100211 -0.498125 123 115 64
-0.150789 -0.761156 0.379267 108 30 176
0.111635 -0.850583 -0.107196 142 19 114
0.127372 -0.588608 -0.102155 144 52 114
0.0391898 -0.417473 -0.581174 132 74 53
0.351064 -0.776812 -0.653213 172 28 44
-0.669428 -0.599243 -0.370564 42 51 80
-0.149881 -0.74585 -0.229316 108 32 98
-0.447192 0.10989 -0.464042 70 142 68
0.0602557 -0.554894 -0.134784 135 57 110
0.566916 -0.474198 -0.1337 200 67 110
0.00852478 -0.766937 -0.0724184 129 30 118
-0.407721 0.570901 -0.266186 76 200 94
-0.384359 0.306492 -0.0586791 78 167 120
0.232076 -0.868872 -0.0540522 157 17 121
-0.14154 0.831199 -0.0100439 109 233 126
0.807321 -0.984521 -0.604677 230 2 50
0.0966307 0.094676 -0.0642786 140 140 119
0.379964 -0.790281 -0.0603246 176 27 120
-0.105214 0.596229 -0.453649 114 204 70
-0.331434 0.418588 -0.165862 85 181 106
0.46017 -0.437525 -0.581173 186 72 53
-0.110501 -0.922274 -0.227946 113 10 98
-0.13994 -0.539363 0.0508623 110 59 134
0.107439 -0.7542 -0.0629541 141 31 119
0.335453 -0.658106 -0.120728 170 44 112
-0.422206 -0.0878348 -0.538506 74 116 59
-0.513247 -0.380589 -0.425852 62 79 73
0.13876 -0.405779 -0.581174 145 76 53
-0.203534 -0.631097 -0.407543 102 47 76
0.434711 -0.623171 -0.083408 183 48 117
-0.148717 0.322592 -0.392104 109 169 78
0.81915 -0.85357 -0.447185 232 19 70
-0.605057 -0.555594 -0.306563 50 57 88
-0.316622 -0.500129 -0.0784075 87 64 118
-0.0699086 0.662104 -0.0230796 119 212 125
0.0396196 0.0537968 -0.35558 133 134 82
-0.670448 -0.628483 -0.49173 42 47 65
-0.332804 0.660332 -0.307377 85 212 88
0.50658 -0.594964 -0.164731 192 52 106
-0.594286 -0.613213 -0.409415 52 49 75
-0.279526 -0.666909 0.273699 92 42 162
-0.445519 -0.443452 -0.667871 71 71 42
-0.103142 0.936676 -0.00773976 114 247 127
0.507805 -0.361742 -0.139727 192 81 110
0.108299 -0.933406 -0.665311 141 8 43
-0.0766941 -0.832841 -0.5978 118 21 51
-0.317847 -0.744181 0.190928 87 33 152
-0.566736 -0.425954 -0.379598 55 73 79
0.346089 -0.594964 -0.327171 172 52 86
0.461617 -0.991762 -0.670337 186 1 42
-0.443212 -0.622935 -0.719761 71 48 36
0.297088 -0.241895 -0.130224 165 97 111
0.183357 -0.317626 -0.640688 151 87 46
-0.175367 -0.892037 -0.483231 105 14 66
-0.0511581 -0.377724 -0.0705193 121 79 119
-0.234141 -0.835382 -0.24043 98 21 97
-0.255315 -0.555594 -0.760354 95 57 31
0.0986715 0.219593 -0.0468841 140 155 122
0.244772 -0.810231 -0.67209 159 24 42
0.816589 -0.781907 -0.381724 232 28 79
-0.475598 -0.613019 -0.612091 67 49 49
-0.183949 0.188704 -0.137249 104 152 110
-0.423205 -0.593673 -0.241696 74 52 97
-0.729759 0.568306 -0.0286645 34 200 124
-0.201097 0.257461 -0.581131 102 160 53
0.170988 -0.0245827 -0.324278 149 124 86
0.296931 -0.760855 -0.114896 165 30 113
-0.472499 0.217367 -0.402524 67 155 76
-0.278845 -0.689883 -0.2822 92 40 92
0.370713 -0.594964 -0.199867 175 52 102
-0.530466 0.62331 -0.0453087 60 207 122
0.453076 -0.422386 -0.126211 185 74 111
0.0211133 -0.335105 -0.085038 130 85 117
0.731541 -0.579737 -0.490025 221 54 65
-0.151393 -0.711083 -0.350099 108 37 83
-0.355709 0.0960046 -0.60118 82 140 51
0.638049 -0.749729 -0.115495 209 32 113
-0.0823158 -0.965907 -0.338179 117 4 84
-0.655418 0.687368 -0.0596052 44 215 120
-0.0330235 0.851586 -0.0316774 123 236 123
-0.0992289 0.202737 -0.556358 115 153 57
-0.802296 0.657432 -0.0243433 25 211 124
-0.398044 -0.283588 -0.633193 77 91 47
-0.407296 -0.0927503 -0.154954 76 116 108
0.239758 -0.938604 -0.68204 158 8 41
0.526305 0.0143605 -0.367233 195 129 81
-0.245923 -0.47162 -0.636121 96 67 46
-0.141527 -0.999389 -0.41404 109 0 75
-0.344469 0.538767 -0.292496 84 196 90
-0.3498 -0.726139 -0.583666 83 35 53
0.326832 -0.727769 -0.0653006 169 35 119
-0.0555112 0.257234 -0.469793 120 160 68
0.794497 -0.614059 -0.390306 229 49 78
-0.132141 0.566576 -0.333873 111 200 85
-0.295986 0.643205 -0.256233 90 210 95
-0.0769808 -0.157319 -0.572955 118 107 54
0.0768221 -0.244295 -0.128778 137 96 111
-0.127451 0.322653 -0.230219 111 169 98
0.271838 -0.448253 -0.592199 162 70 52
-0.479259 0.0715449 -0.305861 66 137 89
0.310781 0.215324 -0.0108949 167 155 126
-0.138121 -0.599333 0.0871296 110 51 139
-0.317758 -0.945203 0.296434 87 7 165
-0.0430627 -0.584341 -0.000750248 122 53 127
-0.207627 -0.740811 0.415611 101 33 180
-0.694664 -0.54033 -0.38493 39 59 78
0.311588 -0.83585 -0.674091 167 21 42
-0.291939 0.266209 -0.0576684 90 161 120
0.566062 -0.998856 -0.67714 200 0 41
-0.360849 -0.0341517 -0.113255 81 123 113
-0.251279 -0.251072 -0.0776137 95 95 118
0.489417 -0.594964 -0.251976 190 52 95
-0.403279 -0.74081 -0.352492 76 33 83
-0.458203 0.310973 -0.465713 69 167 68
-0.269774 0.322592 -0.47146 93 169 67
-0.263774 0.288031 -0.595523 94 164 52
-0.420791 0.0295887 -0.199035 74 131 102
0.623414 -0.594964 -0.567942 207 52 55
0.488641 -0.74438 -0.113382 190 33 113
0.62266 -0.550993 -0.368971 207 57 80
-0.322189 -0.612323 0.226211 86 49 156
-0.150899 -0.000517443 -0.598733 108 127 51
-0.595447 -0.361642 -0.374538 52 81 80
-0.286979 0.460618 -0.0621871 91 186 120
-0.463537 0.318376 -0.272549 68 168 93
-0.126821 -0.794523 0.103758 111 26 141
-0.0752886 -0.575451 -0.551301 118 54 57
-0.043396 -0.655132 -0.664228 122 44 43
-0.0572847 -0.555869 -0.764946 120 57 30
0.5026 -0.594964 -0.515445 192 52 62
-0.124841 -0.927098 -0.30748 112 9 88
-0.630569 -0.482032 -0.378711 47 66 79
0.498582 -0.195225 -0.549691 191 103 57
-0.366519 0.22004 -0.599388 81 156 51
0.789664 -0.824913 -0.188447 228 22 103
-0.0246662 -0.487912 -0.0269078 124 65 124
-0.0200631 -0.619322 -0.353232 125 49 82
0.234468 -0.633506 -0.387445 157 47 78
-0.413433 -0.990006 -0.335823 75 1 85
-0.102453 -0.577864 -0.343191 114 54 84
-0.525642 -0.555594 -0.267081 60 57 93
0.274493 -0.953176 -0.0475078 162 6 121
-0.0582539 0.164569 -0.239412 120 148 97
-0.166027 0.671548 -0.328455 106 213 86
0.594555 -0.747328 -0.0635843 203 32 119
-0.38343 0.444242 -0.42874 79 184 73
0.623543 -0.338386 -0.175821 207 84 105
-0.0225238 -0.944064 -0.0777796 125 7 118
-0.247151 -0.10433 -0.607233 96 114 50
-0.580299 0.440756 -0.0328749 54 184 123
-0.592547 -0.613215 -0.273126 52 49 93
-0.382555 -0.684646 -0.0735014 79 40 118
-0.0157945 0.256977 -0.322011 125 160 86
-0.560749 -0.73769 -0.342044 56 33 84
-0.151189 0.374954 -0.0223699 108 175 125
0.00869818 0.280166 -0.384286 129 163 79
-0.0817817 -0.751574 -0.130281 117 32 111
-0.326504 -0.579641 -0.174051 86 54 105
-0.163529 -0.555594 -0.680283 107 57 41
0.529625 -0.671318 -0.119994 195 42 112
0.813935 -0.876443 -0.233517 231 16 98
-0.464392 -0.603367 -0.542869 68 51 58
-0.377 -0.581771 -0.433089 79 53 72
-0.395087 -0.707495 -0.13264 77 37 111
-0.0941923 -0.731677 -0.43636 115 34 72
0.0883039 -0.184238 -0.18152 139 104 104
-0.0754836 0.199368 -0.0460354 118 153 122
-0.17124 -0.746853 0.273296 106 32 162
-0.451438 -0.763745 -0.38662 70 30 78
-0.469433 0.395255 -0.0315397 68 178 123
-0.264509 -0.740765 0.364156 94 33 174
-0.0296608 -0.514273 -0.706051 124 62 37
0.114992 -0.714445 -0.116038 142 36 113
-0.361658 0.0756271 -0.115093 81 137 113
0.352113 -0.856758 -0.054973 172 18 120
0.263002 -0.0211041 -0.32641 161 125 86
-0.368626 -0.613217 -0.555904 81 49 57
-0.0738155 0.319787 -0.0459938 118 168 122
-0.361639 -0.781005 0.303011 81 28 166
0.849378 -0.998817 -0.273009 236 0 93
-0.698852 0.479262 -0.0154417 38 189 126
-0.302187 -0.633794 -0.745053 89 47 33
-0.11875 0.727881 -0.0266763 112 220 124
-0.0358746 -0.922886 -0.33735 123 10 84
0.216181 -0.692382 -0.0691067 155 39 119
-0.0814277 -0.0916541 -0.157092 117 116 107
-0.131389 -0.719766 0.496044 111 36 191
0.741832 -0.76549 -0.119109 222 30 112
0.562277 -0.460862 -0.581173 199 69 53
-0.285169 0.649661 -0.444454 91 210 71
-0.54007 -0.555594 -0.618642 59 57 49
-0.0844427 -0.718004 -0.242323 117 36 97
-0.356882 -0.819113 -0.507952 82 23 63
-0.0288795 -0.71189 -0.128024 124 37 111
-0.464159 -0.352944 -0.506808 68 82 63
-0.522553 -0.308062 -0.321644 61 88 86
0.0287036 -0.161575 -0.516858 131 107 62
-0.105862 0.47367 -0.466091 114 188 68
0.144708 -0.267633 -0.112401 146 93 113
-0.205375 0.333199 -0.0534682 101 170 121
0.752074 -0.667054 -0.566914 223 42 55
-0.51773 0.155656 -0.368064 61 147 81
0.304858 -0.704369 -0.646538 166 38 45
0.312763 -0.594964 -0.56308 167 52 56
-0.306002 0.501834 -0.488469 88 191 65
-0.572769 0.705492 -0.051212 54 217 121
-0.131169 -0.6103 -0.204324 111 50 101
-0.0678935 -0.737009 -0.628403 119 34 47
-0.490417 -0.471453 -0.478429 65 67 67
-0.126797 -0.651834 0.252964 111 44 160
-0.465039 -0.60688 -0.292296 68 50 90
0.180935 -0.243288 -0.590593 151 96 52
0.691311 -0.746939 -0.641259 216 32 46
0.0872804 0.698947 -0.0765425 139 217 118
0.255222 -0.759286 -0.0625385 160 31 120
-0.336479 -0.555594 -0.668212 85 57 42
-0.182985 0.521715 -0.464976 104 194 68
-0.301288 -0.583111 0.0911977 89 53 139
-0.217124 -0.597752 0.198522 100 51 153
-0.476183 -0.667907 -0.00560768 67 42 127
-0.15389 0.467863 -0.221417 108 187 99
0.334916 -0.994501 -0.684418 170 1 40
0.181582 -0.634471 -0.260031 151 47 94
0.805145 -0.729918 -0.222546 230 34 99
-0.463152 -0.166089 -0.240528 68 106 97
-0.234216 -0.610613 -0.095321 98 50 115
-0.363271 -0.613217 -0.302024 81 49 89
-0.362267 -0.71827 0.295622 81 36 165
0.0665368 -0.0947512 -0.258757 136 115 95
-0.40492 -0.598529 -0.360684 76 51 82
-0.319766 0.382072 -0.240926 87 176 97
-0.412155 -0.888948 -0.297356 75 14 90
-0.506835 -0.27364 -0.421658 63 93 74
-0.168918 -0.835843 0.544344 106 21 197
0.150964 -0.967001 -0.0464346 147 4 122
0.253716 -0.323045 -0.581174 160 86 53
-0.282792 0.322592 -0.335387 91 169 85
0.155055 0.790159 -0.0786985 147 228 117
0.408962 -0.680242 -0.643954 180 41 45
0.363633 -0.60335 -0.636488 174 51 46
-0.0112835 -0.22965 -0.577396 126 98 54
0.0286094 -0.633721 -0.0648916 131 47 119
0.625289 -0.331407 -0.327585 207 85 86
-0.0768915 -0.0252416 -0.552506 118 124 57
-0.165206 0.62149 -0.0426334 106 207 122
0.191524 -0.578585 -0.592278 152 54 52
0.340983 -0.31188 -0.139332 171 88 110
-0.202489 -0.575347 -0.541115 102 54 59
-0.355872 0.541663 -0.486616 82 197 65
0.696583 -0.543474 -0.454634 216 58 70
-0.649417 0.795642 -0.0640398 45 229 119
-0.472426 -0.454089 -0.21212 67 70 100
-0.075449 0.486929 -0.0607358 118 190 120
-0.249021 0.0520249 -0.126787 96 134 111
-0.533953 -0.630181 -0.385564 59 47 78
-0.13052 -0.394765 -0.629941 111 77 47
-0.464272 -0.59981 -0.0457216 68 51 122
-0.309673 0.581034 -0.24685 88 202 96
-0.0318107 -0.584403 -0.640549 123 53 46
0.584609 -0.883319 -0.102464 202 15 114
-0.469098 -0.55544 -0.71897 68 57 36
-0.297353 -0.64738 -0.485469 90 45 66
-0.124888 -0.613217 -0.709648 112 49 37
0.162539 -0.740519 -0.650279 148 33 45
0.482 -0.479144 -0.135938 189 66 110
-0.421505 0.0737297 -0.0610906 74 137 120
0.107545 -0.0283612 -0.400757 141 124 76
-0.154316 -0.220049 -0.107565 108 99 114
-0.464271 -0.346441 -0.213758 68 83 100
-0.42471 0.0318782 -0.516084 73 132 62
0.848785 -0.972737 -0.482476 236 3 66
-0.333861 -0.684826 -0.38795 85 40 78
-0.128167 0.256926 -0.597213 111 160 51
-0.529951 -0.601536 -0.0949176 60 51 115
-0.157637 -0.19416 -0.614441 107 103 49
0.671631 -0.821445 -0.103546 213 23 114
-0.443633 -0.0994067 -0.217485 71 115 100
-0.325248 -0.774963 -0.274736 86 29 92
-0.4196 -0.489953 -0.103977 74 65 114
-0.389162 0.240942 -0.141869 78 158 109
0.47184 -0.354409 -0.581174 188 82 53
0.765735 -0.640787 -0.510654 225 46 62
0.0995545 -0.743503 -0.650552 140 33 45
-0.16369 -0.575347 -0.598969 107 54 51
-0.0562362 -0.663793 -0.152914 120 43 108
0.0244151 -0.594964 -0.175009 131 52 105
-0.115053 -0.924133 -0.49041 113 10 65
-0.326934 -0.712201 0.0936084 86 37 139
-0.0867318 -0.628254 -0.289602 116 47 91
-0.239658 0.691404 -0.277903 97 216 92
-0.364402 -0.555594 -0.0484456 81 57 121
0.178053 -0.737402 -0.116563 150 33 113
0.437894 -0.0274535 -0.319792 183 124 87
0.26766 -0.090739 -0.263052 162 116 94
0.701345 -0.856914 -0.651228 217 18 44
0.560865 -0.594964 -0.369079 199 52 80
-0.0631708 -0.686314 -0.573276 119 40 54
0.558112 -0.0589726 -0.431191 199 120 73
-0.53777 0.0390226 -0.0465915 59 132 122
0.701869 -0.584021 -0.146998 217 53 109
0.39725 -0.443284 -0.581173 178 71 53
-0.245987 0.71965 -0.371508 96 219 80
-0.125021 -0.613217 -0.103844 112 49 114
-0.669904 -0.555594 -0.325245 42 57 86
0.580834 -0.535981 -0.139726 202 59 110
-0.0686861 -0.362774 -0.12619 119 81 111
-0.406652 0.376981 -0.2152 76 176 100
-0.397183 -0.396977 -0.0500521 77 77 121
-0.236687 0.442403 -0.500276 97 184 64
-0.179539 0.60996 -0.40654 105 205 76
-0.33468 -0.557877 0.174002 85 56 150
-0.25463 -0.0197935 -0.121381 95 125 112
0.272735 -0.448172 -0.127003 162 70 111
-0.50777 -0.125801 -0.324669 63 111 86
-0.449085 0.186362 -0.449221 70 151 70
-0.0267231 -0.642394 -0.775863 124 46 29
0.743346 -0.75734 -0.607392 222 31 50
0.785077 -0.854949 -0.566407 228 18 55
0.200496 -0.0916006 -0.457493 153 116 69
0.227964 -0.594964 -0.493029 157 52 65
0.623543 -0.216269 -0.344516 207 100 84
-0.296616 -0.685955 -0.225184 90 40 99
-0.120447 -0.416622 -0.076226 112 74 118
-0.184076 0.267464 -0.0649142 104 162 119
0.743772 -0.578858 -0.393813 222 54 77
0.469749 -0.959234 -0.0727573 187 5 118
0.804127 -0.664461 -0.456742 230 43 69
-0.590016 -0.555594 -0.183558 52 57 104
-0.448563 -0.127421 -0.499061 70 111 64
-0.213389 -0.575733 -0.384202 100 54 79
0.582393 -0.403502 -0.58122 202 76 53
-0.150114 -0.836992 -0.501707 108 21 64
-0.595137 -0.555594 -0.441747 52 57 71
0.832115 -0.934989 -0.211709 234 8 101
0.623588 -0.540245 -0.276979 207 59 92
-0.179495 -0.700107 -0.42816 105 38 73
-0.273941 -0.204439 -0.107482 93 101 114
0.709022 -0.332481 -0.411846 218 85 75
-0.37998 0.461168 -0.344156 79 186 84
-0.108203 -0.606888 -0.596515 114 50 51
-0.0211907 -0.599351 -0.0623969 125 51 120
-0.433366 -0.721497 -0.641685 72 36 46
-0.492019 -0.587218 -0.388993 65 53 78
-0.0968164 0.152921 -0.171299 115 147 106
-0.300671 0.330329 -0.210404 89 170 101
0.487689 -0.304661 -0.136531 190 89 110
0.780158 -0.640754 -0.20954 227 46 101
-0.0643499 0.13913 -0.50521 119 145 63
0.110238 0.311236 -0.0297773 142 167 124
0.364092 -0.985855 -0.0972741 174 2 115
-0.0196592 0.676513 -0.0570378 125 214 120
-0.299705 -0.785687 -0.207068 89 27 101
-0.112461 -0.00120337 -0.110242 113 127 113
0.0151747 -0.555594 -0.683352 129 57 40
-0.382259 0.601965 -0.403288 79 204 76
-0.0783098 -0.865051 -0.412701 118 17 75
0.242151 -0.227842 -0.575493 158 98 54
-0.279129 -0.632588 -0.380283 92 47 79
-0.0749746 -0.397292 -0.609369 118 77 50
-0.316448 -0.90514 -0.179802 87 12 105
0.380945 -0.0229549 -0.395096 176 125 77
-0.379455 0.367223 -0.333957 79 174 85
-0.316103 -0.422454 -0.0785135 87 74 117
0.0648928 -0.94833 -0.064209 136 7 119
-0.0937187 -0.104794 -0.615307 116 114 49
0.0109511 -0.327975 -0.642563 129 86 46
-0.220609 0.322592 -0.53376 99 169 59
-0.154096 -0.804523 0.643608 108 25 210
0.602514 -0.140972 -0.499777 204 110 64
-0.129695 -0.611209 -0.487003 111 50 65
-0.182697 -0.55434 0.0906871 104 57 139
-0.531392 -0.00300815 -0.372301 60 127 80
-0.167769 -0.757296 0.20233 106 31 153
-0.127719 0.160917 -0.605049 111 148 50
-0.184708 -0.621961 -0.248351 104 48 96
-0.198535 0.301915 -0.123833 102 166 112
-0.314785 -0.887989 -0.242257 87 14 97
-0.422287 -0.503873 -0.60113 74 63 51
-0.486607 -0.0866899 -0.426706 65 116 73
-0.423537 0.264418 -0.235777 73 161 97
-0.00514478 -0.00285079 -0.423224 127 127 74
0.102528 -0.559972 -0.657858 141 56 44
-0.447995 -0.0134995 -0.481764 70 126 66
-0.0934379 0.371857 -0.478973 116 175 66
-0.0935021 0.0789383 -0.565411 116 138 55
-0.5284 -0.420335 -0.315915 60 74 87
-0.207302 -0.458269 -0.0785135 101 69 117
-0.150849 0.547187 -0.276352 108 197 92
-0.516268 -0.555594 -0.200046 62 57 102
0.624813 -0.574839 -0.127126 207 54 111
0.424052 -0.562151 -0.584752 182 56 53
-0.504223 -0.716567 -0.344588 63 36 84
0.623544 -0.428057 -0.533925 207 73 59
-0.445208 0.195311 -0.26669 71 152 93
0.336732 -0.207332 -0.16568 170 101 106
0.614932 -0.441283 -0.125648 206 71 111
-0.13123 -0.954534 0.789312 111 6 228
-0.0217169 0.200549 -0.308089 125 153 88
-0.0301855 0.746815 -0.0228147 124 223 125
-0.256507 0.510177 -0.131958 95 193 111
-0.00877372 -0.741518 -0.633303 126 33 47
-0.0804384 -0.838236 -0.13721 117 21 110
0.180239 -0.546288 -0.139726 150 58 110
0.162575 -0.634471 -0.4879 148 47 65
-0.357523 -0.949584 0.13412 82 6 145
-0.213992 -0.209058 -0.615687 100 101 49
-0.190475 -0.774214 -0.510306 103 29 62
-0.349448 -0.830676 -0.424324 83 22 73
-0.428684 0.292673 -0.515471 73 165 62
-0.363622 0.409374 -0.0253378 81 180 124
-0.00116456 -0.148149 -0.211306 127 109 101
-0.0430818 -0.667564 0.0195781 122 42 130
-0.124392 -0.53001 -0.0737903 112 60 118
-0.620483 -0.616622 -0.140417 48 49 110
-0.113519 -0.752607 -0.184575 113 32 104
-0.369047 0.322592 -0.406935 80 169 76
-0.110184 -0.98568 -0.201262 113 2 102
-0.329123 -0.848362 -0.193066 86 19 103
-0.369825 0.24483 -0.059457 80 159 120
-0.00682758 -0.546968 -0.581173 127 58 53
-0.0591383 -0.983895 -0.390031 120 2 78
-0.409036 -0.808114 -0.389909 75 24 78
-0.0923501 0.357036 -0.318046 116 173 87
-0.2545 0.412055 -0.0838256 95 180 117
-0.669847 -0.569474 -0.192452 42 55 103
-0.299112 -0.303592 -0.623219 89 89 48
-0.216547 -0.680523 -0.279892 100 41 92
-0.148511 -0.121791 -0.608568 109 112 50
0.226873 -0.995109 -0.0464395 156 1 122
-0.648488 0.597306 -0.0601172 45 204 120
-0.358738 -0.947259 0.544261 82 7 197
0.475781 -0.594964 -0.309914 188 52 88
-0.49974 -0.63426 -0.694795 64 47 39
0.838658 -0.951405 -0.398456 234 6 77
-0.319482 -0.995201 -0.176999 87 1 105
-0.116566 -0.76884 -0.601526 113 29 51
0.433042 -0.690619 -0.0691827 183 39 119
-0.242369 -0.633778 -0.452938 97 47 70
-0.192187 -0.918114 0.739802 103 10 222
0.206411 -0.865813 -0.676389 154 17 41
0.774303 -0.943343 -0.118006 226 7 112
