ply
format ascii 1.0
comment Created by Open3D
element vertex 1204
property double x
property double y
property double z
property uchar red
property uchar green
property uchar blue
end_header
-0.249487 -0.302572 -0.623104 96 89 48
0.720808 -0.947954 -0.0574394 219 7 120
0.559321 -0.594964 -0.302573 199 52 89
-0.181784 -0.689058 -0.275817 104 40 92
0.48227 -0.822872 -0.070353 189 23 119
-0.420356 -0.473118 -0.0866991 74 67 116
0.126189 0.143867 -0.0277064 144 146 124
-0.308016 -0.800403 -0.524845 88 25 61
0.623543 -0.221481 -0.363308 207 99 81
-0.362332 0.246718 -0.0374715 81 159 123
0.37494 -0.724648 -0.665079 175 35 43
0.231238 -0.166311 -0.51931 157 106 61
0.132581 -0.34673 -0.581174 144 83 53
0.526578 -0.594964 -0.510625 195 52 62
-0.0902797 -0.516317 -0.655421 116 62 44
-0.796768 0.659436 -0.0470033 26 212 122
-0.473982 -0.190277 -0.255453 67 103 95
-0.569441 -0.609748 -0.169779 55 50 106
-0.758736 0.660001 -0.0251683 31 212 124
-0.50089 -0.091158 -0.0239559 64 116 124
-0.288577 0.486034 -0.47225 91 189 67
0.489417 -0.594964 -0.251976 190 52 95
0.282321 -0.670852 -0.0877537 163 42 116
0.544544 -0.816567 -0.672546 197 23 42
-0.0800244 -0.866646 -0.294799 117 17 90
0.165762 -0.834095 -0.673927 149 21 42
-0.406595 -0.0701301 -0.563865 76 119 56
-0.147475 0.371143 -0.514412 109 175 62
0.328884 -0.820784 -0.672931 169 23 42
0.734137 -0.998412 -0.0663555 221 0 119
-0.379671 -0.591957 -0.631057 79 52 47
-0.373573 0.611263 -0.26417 80 205 94
0.493629 -0.500167 -0.581173 190 64 53
-0.671164 -0.556158 -0.281922 42 57 92
-0.373378 0.113445 -0.0418759 80 142 122
0.696431 -0.669505 -0.102018 216 42 114
-0.442247 -0.88643 -0.351328 71 14 83
-0.171264 -0.532507 -0.0785135 106 60 117
-0.12887 0.447166 -0.323724 111 185 86
0.537661 -0.0166884 -0.331231 196 125 85
-0.255934 0.123267 -0.13215 95 143 111
-0.135819 0.48494 -0.386918 110 189 78
-0.402864 0.233398 -0.525283 76 157 61
-0.0498241 0.0554424 -0.235756 121 135 97
-0.0849502 -0.556166 -0.800967 117 57 25
0.0665368 -0.0947512 -0.258757 136 115 95
-0.366899 0.5849 -0.297984 81 202 90
-0.423695 -0.918519 -0.34795 73 10 83
-0.206026 0.321109 -0.130606 101 168 111
0.529712 -0.455022 -0.581173 195 69 53
0.671378 -0.585164 -0.607878 213 53 50
0.57839 -0.665789 -0.658754 201 43 44
-0.191193 -0.107941 -0.114746 103 114 113
0.545189 -0.179325 -0.532898 197 105 60
-0.464849 -0.582189 -0.671879 68 53 42
-0.016815 -0.702745 -0.616044 125 38 49
-0.279438 -0.88038 0.674899 92 15 214
0.597558 -0.594964 -0.588041 204 52 53
-0.334199 -0.815836 0.28887 85 23 164
-0.317726 0.262897 -0.141 87 161 110
-0.370438 0.581618 -0.426251 80 202 73
0.553461 -0.355022 -0.139727 198 82 110
0.596396 -0.888558 -0.661836 204 14 43
0.554783 -0.944271 -0.682483 198 7 40
-0.000188022 0.737665 -0.054063 127 222 121
-0.305316 0.355536 -0.518227 89 173 61
-0.431917 -0.847801 -0.350412 72 19 83
0.476586 -0.707477 -0.101743 188 37 115
-0.390172 0.557769 -0.387477 78 199 78
-0.717746 0.763421 -0.0640178 36 225 119
-0.293931 -0.445212 -0.634267 90 71 47
0.58449 -0.395358 -0.138174 202 77 110
0.753068 -0.908786 -0.658925 224 12 43
0.0299189 0.844506 -0.0228146 131 235 125
-0.263985 -0.397285 -0.630505 94 77 47
-0.315631 0.481974 -0.244346 87 189 96
-0.101985 -0.762665 -0.412422 114 30 75
0.62266 -0.471878 -0.386193 207 67 78
-0.0536759 0.250904 -0.261606 121 159 94
0.709383 -0.332507 -0.318009 218 85 87
0.679279 -0.838023 -0.0583646 214 21 120
0.412502 -0.594964 -0.508951 180 52 63
-0.118472 -0.838987 -0.36098 112 21 81
-0.16987 -0.639954 0.0996815 106 46 140
-0.273475 0.663451 -0.436929 93 212 72
-0.228646 -0.407514 -0.631278 98 76 47
0.771157 -0.703117 -0.537058 226 38 59
0.816086 -0.85651 -0.531665 232 18 60
-0.236633 -0.109463 -0.114631 97 114 113
0.623543 -0.128827 -0.34211 207 111 84
-0.362267 -0.71827 0.295622 81 36 165
-0.134119 -0.907927 0.746225 110 12 223
0.00265488 -0.530567 0.0250413 128 60 131
-0.126555 -0.556166 -0.77255 111 57 29
-0.409203 -0.894759 -0.390037 75 13 78
-0.419647 -0.69974 -0.108822 74 38 114
-0.58394 -0.131551 -0.0581579 53 111 120
-0.4191 -0.611181 0.0159276 74 50 130
0.646246 -0.943739 -0.682438 210 7 40
-0.258949 -0.483901 -0.0726225 94 66 118
-0.3557 0.322658 -0.162058 82 169 107
0.0281054 -0.63105 0.0327095 131 47 132
-0.204822 -0.884669 0.71535 101 15 219
-0.117238 0.114717 -0.119162 113 142 112
-0.279526 -0.666909 0.273699 92 42 162
-0.491305 -0.318238 -0.265355 65 87 94
-0.327125 -0.42702 -0.632871 86 73 47
-0.0964407 -0.729382 -0.414169 115 35 75
0.66385 -0.340135 -0.32877 212 84 86
-0.330374 -0.717318 0.465346 85 36 187
-0.0303931 -0.555594 -0.0783771 124 57 118
-0.160052 0.323256 -0.130598 107 169 111
-0.0920685 0.237481 -0.543895 116 158 58
-0.382815 0.181513 -0.131131 79 151 111
0.0850814 -0.618391 -0.544362 138 49 58
-0.331196 0.157664 -0.0310133 85 148 124
-0.146648 -0.67763 -0.389871 109 41 78
-0.527224 -0.59231 -0.258762 60 52 95
0.0783207 0.692787 -0.052429 137 216 121
0.606183 -0.28361 -0.624696 205 91 48
0.303045 -0.155603 -0.513922 166 108 62
0.602053 -0.84976 -0.0889443 204 19 116
-0.239887 -0.883483 0.716392 97 15 219
-0.456813 -0.215627 -0.498942 69 100 64
-0.216282 0.322592 -0.393118 100 169 77
-0.187458 -0.234148 -0.105246 104 98 114
0.781842 -0.664336 -0.240354 227 43 97
-0.109675 -0.95807 -0.5196 114 5 61
-0.15281 0.00820747 -0.124398 108 129 112
0.61372 -0.493174 -0.125624 206 65 111
0.507088 -0.594964 -0.456384 192 52 69
0.436097 -0.711451 -0.101576 183 37 115
-0.0817198 -0.633355 0.0241754 117 47 131
-0.408924 -0.114055 -0.01271 75 113 126
-0.295451 -0.665235 0.235488 90 43 158
-0.145586 0.534262 -0.403244 109 196 76
0.650117 -0.594964 -0.202269 210 52 102
0.563247 -0.679178 -0.660155 199 41 43
0.635256 -0.329755 -0.484492 208 85 66
-0.0609995 -0.639359 -0.230164 120 46 98
-0.0842005 -0.241227 -0.623676 117 97 48
0.333704 -0.788159 -0.654085 170 27 44
-0.1254 -0.960356 -0.545478 112 5 58
-0.293775 -0.804603 -0.216099 90 25 100
-0.356144 0.513074 -0.0629108 82 193 119
-0.164718 -0.5328 -0.640328 106 60 46
-0.398292 0.247364 -0.538554 77 159 59
-0.414495 -0.555594 -0.698443 75 57 38
-0.353561 0.0465132 -0.598363 82 133 51
-0.252377 0.526205 -0.0385617 95 195 123
-0.0134526 0.318146 -0.429488 126 168 73
-0.171286 -0.743158 0.254797 106 33 160
-0.0891278 -0.718057 -0.671555 116 36 42
-0.524774 0.486572 -0.0377529 61 190 123
0.133423 -0.680859 -0.103165 145 41 114
0.528723 -0.71852 -0.117488 195 36 113
-0.131677 -0.610791 -0.309003 111 50 88
0.132347 0.00541876 -0.344281 144 128 84
0.533674 -0.373254 -0.139727 196 80 110
-0.427697 -0.555594 -0.72119 73 57 36
0.650977 -0.010636 -0.339164 210 126 84
0.531197 -0.696958 -0.0684093 195 39 119
-0.271751 -0.61585 -0.387895 93 49 78
-0.0983514 -0.988385 -0.123507 115 1 112
0.189078 -0.366363 -0.139727 152 81 110
-0.164713 -0.555594 -0.708556 106 57 37
0.0803172 -0.273135 -0.612679 138 93 49
-0.0814277 -0.0916541 -0.157092 117 116 107
-0.588389 0.553142 -0.0517102 52 198 121
0.843312 -0.918425 -0.266474 235 10 94
-0.0262543 -0.625526 0.0738401 124 48 137
0.730323 -0.594964 -0.415567 221 52 75
-0.240659 0.513183 -0.157591 97 193 107
0.496847 -0.746389 -0.650746 191 32 45
0.563088 -0.792329 -0.670683 199 26 42
-0.167094 -0.259273 -0.619718 106 94 48
-0.162089 -0.755449 -0.545977 107 31 58
-0.00961451 -0.393588 -0.139727 126 77 110
-0.470985 -0.4832 -0.708976 67 66 37
-0.0328803 0.322661 -0.441389 123 169 71
0.440419 -0.104644 -0.248227 184 114 96
0.854044 -0.968024 -0.297008 236 4 90
0.303234 -0.318647 -0.131375 166 87 111
-0.0583114 -0.368364 -0.642977 120 81 46
-0.0719633 -0.324189 -0.63491 118 86 47
-0.226704 0.57193 -0.0158686 99 200 125
0.0112244 -0.556081 0.0179193 129 57 130
0.04305 -0.58998 -0.651591 133 52 44
-0.51962 -0.627698 -0.0802793 61 47 117
-0.0158071 -0.683403 -0.611304 125 40 50
-0.35329 -0.822849 -0.45815 82 23 69
0.204578 -0.812279 -0.655912 154 24 44
-0.109008 0.324163 -0.425265 114 169 73
0.49735 -0.386243 -0.581174 191 78 53
0.310851 -0.931537 -0.665166 167 9 43
0.34515 -0.982782 -0.669144 172 2 42
-0.0758113 0.180172 -0.0459303 118 150 122
0.797375 -0.722579 -0.463707 229 35 68
0.737383 -0.810728 -0.101286 222 24 115
-0.464159 -0.352944 -0.506808 68 82 63
-0.217052 -0.720073 0.471354 100 36 188
-0.403766 -0.598526 -0.375108 76 51 80
0.623543 -0.335784 -0.189036 207 85 103
-0.0811677 -0.575347 -0.662191 117 54 43
0.62995 -0.316843 -0.144819 208 87 109
-0.29663 -0.575347 -0.642494 90 54 46
0.605453 -0.194206 -0.176063 205 103 105
0.719544 -0.616629 -0.150757 219 49 108
-0.113427 0.362343 -0.244237 113 174 96
0.589935 -0.315599 -0.134856 203 87 110
-0.552433 -0.287429 -0.380878 57 91 79
0.751573 -0.62448 -0.52843 223 48 60
-0.347636 -0.77725 -0.588707 83 28 52
0.735326 -0.598458 -0.230881 221 51 98
0.521001 -0.436056 -0.581173 194 72 53
0.0315984 0.921611 -0.0394507 132 245 122
0.179963 -0.877075 -0.660938 150 16 43
0.126894 -0.624898 -0.133873 144 48 110
0.0402956 -0.969252 -0.0625848 133 4 120
0.591928 -0.216822 -0.155733 203 100 108
-0.524783 -0.617466 0.02534 61 49 131
-0.027465 -0.595598 -0.431645 124 52 72
-0.0712422 -0.297206 -0.11897 118 90 112
0.0788424 -0.809285 -0.672001 138 24 42
-0.251279 -0.251072 -0.0776137 95 95 118
-0.0940892 0.0332437 -0.573454 116 132 54
-0.257302 0.322592 -0.288676 95 169 91
-0.556516 -0.704489 -0.387487 57 38 78
-0.408448 0.327261 -0.28758 75 169 91
-0.00742275 -0.505322 -0.732398 127 63 34
-0.167381 -0.736067 -0.222026 106 34 99
0.180885 -0.8019 -0.0952814 151 25 115
-0.0445545 0.322661 -0.274296 122 169 93
0.784747 -0.86913 -0.607273 228 17 50
-0.631033 -0.575988 -0.28179 47 54 92
0.486201 -0.754706 -0.0890335 189 31 116
-0.052653 -0.876262 -0.0882265 121 16 116
0.738716 -0.774299 -0.0850351 222 29 117
-0.186784 -0.599273 -0.446171 104 51 71
-0.127575 -0.792166 0.296229 111 26 165
-0.3407 0.557237 -0.28897 84 199 91
-0.0954538 0.176334 -0.553844 115 150 57
0.69168 -0.324266 -0.359535 216 86 82
0.379964 -0.790281 -0.0603246 176 27 120
0.208613 -0.799445 -0.0954879 154 26 115
-0.103826 -0.707381 -0.271026 114 37 93
0.442855 -0.632758 -0.105608 184 47 114
0.660976 -0.594964 -0.479707 212 52 66
-0.37998 0.461168 -0.344156 79 186 84
-0.0595269 -0.89809 -0.331594 120 13 85
-0.202814 -0.673349 -0.4517 102 42 70
0.816849 -0.769103 -0.360725 232 29 82
0.391125 -0.347293 -0.133742 177 83 110
-0.558663 -0.594381 -0.465377 56 52 68
-0.231174 0.749102 -0.323566 98 223 86
-0.304632 0.330657 -0.0354666 89 170 123
0.615478 -0.74626 -0.66712 206 32 42
-0.361744 -0.575276 0.178676 81 54 150
-0.31091 -0.708504 -0.453952 88 37 70
0.0396196 0.0537968 -0.35558 133 134 82
-0.125028 -0.896985 -0.344523 112 13 84
0.206975 -0.628992 -0.447193 154 47 70
-0.158908 0.322592 -0.483586 107 169 66
-0.148846 0.60987 -0.249503 109 205 96
0.570585 -0.98206 -0.669089 200 2 42
0.38675 -0.691493 -0.0855109 177 39 117
0.519352 -0.616299 -0.0863136 194 49 116
-0.232985 0.322592 -0.28654 98 169 91
-0.284893 -0.575347 -0.0968054 91 54 115
0.0682696 0.661666 -0.0560507 136 212 120
-0.128988 -0.636193 0.131891 111 46 144
-0.0413673 -0.279047 -0.10108 122 92 115
0.66778 -0.591036 -0.112596 213 52 113
-0.387827 0.426104 -0.0468366 78 182 122
-0.520012 -0.555594 -0.65592 61 57 44
-0.10369 -0.606419 -0.737522 114 50 33
-0.721381 -0.612731 -0.407091 36 49 76
-0.407144 0.57172 -0.33477 76 200 85
0.780217 -0.844124 -0.607257 227 20 50
-0.154772 -0.726874 0.566026 108 35 200
-0.246847 -0.155418 -0.111172 96 108 113
0.195259 -0.629431 -0.63229 152 47 47
0.623543 -0.252785 -0.264005 207 95 94
0.25913 -0.735946 -0.116674 161 34 113
0.20263 -0.901491 -0.0874466 153 13 116
0.704899 -0.957469 -0.678936 217 5 41
-0.0529298 -0.555603 0.0367738 121 57 132
0.785012 -0.96016 -0.630385 228 5 47
0.23277 -0.370114 -0.581174 157 80 53
0.01046 -0.634471 -0.719529 129 47 36
-0.57852 -0.599449 -0.475675 54 51 67
-0.466182 -0.115969 -0.25421 68 113 95
0.623544 -0.471416 -0.547772 207 67 58
-0.0395738 0.0794775 -0.47094 122 138 67
-0.0733573 -0.555912 0.041008 118 57 133
-0.12839 -0.720106 0.131332 111 36 144
-0.431774 0.209232 -0.476909 72 154 67
-0.137177 -0.761224 0.450363 110 30 185
0.702087 -0.877178 -0.653379 217 16 44
-0.000202543 -0.634497 -0.633093 127 47 47
0.314993 -0.438041 -0.152154 168 72 108
-0.500636 -0.2159 -0.297854 64 100 90
-0.0703458 -0.575347 -0.397829 119 54 77
-0.290399 -0.612876 -0.471999 90 49 67
-0.309546 -0.845744 -0.252212 88 20 95
-0.347126 -0.585733 -0.65304 83 53 44
-0.144611 -0.963871 0.802819 109 5 230
-0.461882 -0.577735 -0.102624 69 54 114
0.227297 -0.457334 -0.581173 156 69 53
-0.0617363 -0.681829 -0.156223 120 41 108
-0.171129 -0.575774 -0.118126 106 54 112
-0.0034713 -0.295002 -0.087623 127 90 116
-0.435343 -0.955707 -0.37365 72 6 80
-0.0898926 -0.929019 -0.603862 116 9 51
-0.396323 0.380993 -0.343004 77 176 84
-0.607927 -0.633252 -0.34232 50 47 84
-0.289927 0.25925 -0.580881 91 161 53
-0.281895 -0.579624 -0.0413142 92 54 122
-0.759281 -0.560925 -0.352626 31 56 83
-0.303848 0.322646 -0.583634 89 169 53
0.00539771 -0.572756 -0.81379 128 54 24
0.587392 -0.479919 -0.581503 202 66 53
-0.223379 0.6179 -0.0225342 99 206 125
-0.49053 0.129483 -0.333582 65 144 85
-0.0909318 -0.418036 -0.678696 116 74 41
0.0511362 -0.875617 -0.660825 134 16 43
0.395555 -0.594964 -0.432611 178 52 72
-0.205748 0.362613 -0.516381 101 174 62
-0.482234 -0.61319 -0.267935 66 49 93
0.784571 -0.66363 -0.478916 228 43 66
0.0817454 -0.927169 -0.0495268 138 9 121
-0.458279 -0.0925549 -0.244282 69 116 96
0.249671 -0.569945 -0.586331 159 55 53
0.265464 -0.594964 -0.33284 161 52 85
-0.280448 -0.596124 -0.749002 92 51 32
-0.577934 -0.555594 -0.423219 54 57 74
-0.647558 0.623281 -0.0605548 45 207 120
0.671631 -0.821445 -0.103546 213 23 114
-0.378726 -0.579193 -0.703987 79 54 38
-0.442588 -0.471226 -0.157102 71 67 107
0.787199 -0.756221 -0.566187 228 31 55
-0.42506 -0.418059 -0.0178455 73 74 125
-0.278845 -0.689883 -0.2822 92 40 92
0.0325519 -0.628936 -0.0829838 132 47 117
-0.451462 -0.555594 -0.726365 70 57 35
-0.0753898 -0.620534 -0.491179 118 48 65
-0.134678 -0.760629 0.276442 110 31 163
-0.329948 -0.941086 -0.536321 85 8 59
0.33133 -0.903033 -0.662966 170 12 43
-0.06367 0.307977 -0.522469 119 167 61
-0.244621 -0.94806 0.761556 96 7 225
-0.0688571 -0.437252 -0.63113 119 72 47
0.0540699 -0.594964 -0.257175 134 52 95
0.612901 -0.589896 -0.625397 206 52 48
-0.415621 -0.302435 -0.617219 75 89 49
-0.167207 -0.728101 -0.436231 106 35 72
-0.594286 -0.613213 -0.409415 52 49 75
-0.363055 -0.848982 -0.496551 81 19 64
0.264291 0.0213619 -0.062649 161 130 120
-0.258324 0.685019 -0.423503 95 215 74
-0.434348 -0.0120998 -0.0446222 72 126 122
-0.404858 -0.634471 -0.769845 76 47 29
0.520831 -0.71145 -0.101563 194 37 115
0.726618 -0.970406 -0.657117 220 4 44
0.66851 -0.735219 -0.663254 213 34 43
-0.500845 -0.0419569 -0.0603388 64 122 120
-0.636828 -0.626478 -0.387042 46 48 78
-0.203428 0.525356 -0.0246064 102 194 124
-0.525704 -0.555205 -0.441067 60 57 71
-0.203147 0.284979 -0.0405094 102 164 122
0.126148 -0.766296 -0.0620152 144 30 120
-0.331673 -0.950809 0.789768 85 6 228
0.162359 -0.361544 -0.581174 148 81 53
-0.234071 0.716815 -0.397646 98 219 77
0.781624 -0.676603 -0.497034 227 41 64
-0.0567132 -0.634471 -0.767395 120 47 30
-0.124995 -0.613217 -0.158116 112 49 107
0.633301 -0.297102 -0.425521 208 90 73
0.583932 -0.676487 -0.103487 202 41 114
0.786619 -0.855204 -0.168163 228 18 106
-0.313812 -0.974712 0.771379 87 3 226
-0.151788 -0.760551 -0.571974 108 31 55
0.778598 -0.604561 -0.47222 227 50 67
-0.0342478 -0.0215161 -0.477708 123 125 67
0.428338 -0.651328 -0.639209 182 44 46
-0.0577447 -0.892047 -0.611409 120 14 50
0.736016 -0.853235 -0.0902523 221 19 116
-0.534043 0.619266 -0.0625844 59 206 120
0.471228 -0.304218 -0.581924 188 89 53
0.176765 -0.416712 -0.139727 150 74 110
-0.238808 -0.849395 0.681877 97 19 214
0.543942 -0.245649 -0.127962 197 96 111
-0.435835 -0.243275 -0.539671 72 96 59
-0.422275 -0.766889 -0.370359 74 30 80
-0.127144 -0.900345 -0.364296 111 13 81
-0.020266 0.287777 -0.44203 125 164 71
-0.729956 -0.62113 -0.392241 34 48 77
-0.269814 0.695 -0.239773 93 216 97
0.433522 -0.463431 -0.128149 183 68 111
-0.425437 0.192196 -0.232753 73 152 98
-0.125571 0.588809 -0.4309 111 203 73
-0.431071 0.0872728 -0.496384 73 139 64
0.583868 -0.914593 -0.680182 202 11 41
0.109037 -0.952763 -0.0836393 141 6 117
0.675335 -0.786941 -0.66748 214 27 42
-0.266062 0.0842977 -0.129217 94 138 111
-0.0380791 -0.596083 -0.541837 123 51 58
-0.132829 -0.870652 -0.428882 111 16 73
-0.357891 0.221336 -0.0410303 82 156 122
0.00869818 0.280166 -0.384286 129 163 79
0.329999 -0.864331 -0.659973 170 17 43
-0.153101 0.655588 -0.263711 108 211 94
0.40324 -0.388706 -0.152993 179 78 108
-0.251616 0.515417 -0.251849 95 193 95
-0.171204 -0.965848 0.305667 106 4 166
-0.0931728 0.308702 -0.0252668 116 167 124
-0.379383 0.605509 -0.425888 79 205 73
0.249995 -0.826151 -0.0934039 159 22 116
0.521715 -0.720607 -0.0822863 194 36 117
-0.126797 -0.63482 0.235981 111 47 158
0.742808 -0.613421 -0.577376 222 49 54
-0.190222 -0.752852 0.536175 103 32 196
-0.392338 0.372893 -0.196014 77 175 103
-0.267156 -0.875487 0.691113 93 16 216
-0.0186514 -0.163494 -0.51784 125 107 61
-0.327215 -0.539997 0.12747 86 59 144
0.493721 -0.300412 -0.59981 190 89 51
-0.0672659 -0.63441 -0.785634 119 47 27
0.600267 -0.380462 -0.593428 204 79 52
0.189997 0.822358 -0.0574366 152 232 120
-0.350813 -0.609427 0.137686 83 50 145
0.281832 -0.467437 -0.593453 163 68 52
0.0233109 -0.839788 -0.670947 130 20 42
-0.416446 -0.600857 -0.794122 74 51 26
0.19363 -0.605498 -0.092434 152 50 116
-0.143275 -0.766414 0.0926716 109 30 139
-0.449151 -0.00768957 -0.0245602 70 127 124
-0.294507 -0.194951 -0.108196 90 103 114
-0.328911 0.0591433 -0.12773 86 135 111
0.625534 -0.389825 -0.443839 207 78 71
-0.180022 -0.698527 -0.495942 105 38 64
0.792088 -0.856575 -0.54891 228 18 58
-0.433887 -0.0948847 -0.51923 72 115 61
0.306564 0.0632953 -0.0610134 167 136 120
-0.375415 -0.609747 -0.328736 80 50 86
0.62995 -0.240763 -0.162491 208 97 107
-0.384695 -0.894843 -0.261095 78 13 94
0.241455 -0.949238 -0.100055 158 6 115
-0.364826 0.494145 -0.0592547 81 191 120
-0.652957 -0.634471 -0.475261 44 47 67
-0.403924 -0.433913 -0.679662 76 72 41
0.755418 -0.930311 -0.660142 224 9 43
0.689685 -0.594964 -0.461537 215 52 69
-0.341017 -0.906037 0.0920801 84 12 139
0.629444 -0.578043 -0.343796 208 54 84
-0.463978 -0.636384 -0.0284742 68 46 124
-0.179504 0.616418 -0.39141 105 206 78
0.819219 -0.751639 -0.267727 232 32 93
-0.23254 -0.740389 0.39782 98 33 178
-0.22954 -0.595609 -0.113813 98 52 113
-0.576547 -0.688235 -0.387867 54 40 78
-0.109354 0.514435 -0.24924 114 193 96
-0.0434934 -0.720088 -0.145331 122 36 109
-0.177542 0.597522 -0.322804 105 204 86
-0.134688 -0.800234 -0.496615 110 25 64
0.559735 -0.696622 -0.645619 199 39 45
-0.247638 -0.613217 -0.19247 96 49 103
0.053673 -0.556286 -0.00319013 134 57 127
-0.387546 0.224078 -0.1588 78 156 107
-0.135037 -0.760273 0.165667 110 31 149
-0.402567 0.565021 -0.0675134 76 200 119
-0.140675 0.503496 -0.442115 110 192 71
-0.366418 0.527702 -0.298653 81 195 89
-0.0791017 -0.701844 -0.029551 117 38 124
-0.224631 0.322609 -0.58901 99 169 52
0.389164 -0.323265 -0.13607 177 86 110
0.593474 -0.594964 -0.173611 203 52 105
0.131528 -0.00381999 -0.0786556 144 127 117
-0.31915 -0.791299 -0.181175 87 27 104
0.630373 -0.799618 -0.0594304 208 26 120
-0.404063 0.0391696 -0.552092 76 132 57
-0.156979 -0.556166 -0.772511 107 57 29
-0.407285 -0.873928 -0.390669 76 16 78
0.180187 -0.586728 -0.620972 150 53 48
-0.217001 0.183551 -0.136688 100 151 110
-0.563152 -0.679439 -0.369099 56 41 80
-0.0962144 -0.180633 -0.624514 115 104 48
-0.234494 -0.763395 0.559507 98 30 199
-0.363502 -0.720258 -0.619782 81 36 48
-0.401585 -0.908749 -0.33187 76 12 85
-0.266651 0.471643 -0.242018 94 188 97
-0.708386 -0.526723 -0.37961 37 60 79
0.527631 -0.0951974 -0.461344 195 115 69
-0.44655 -0.621746 -0.00201781 71 48 127
-0.528475 -0.245121 -0.384751 60 96 78
-0.521479 -0.584181 -0.0547999 61 53 121
0.206188 -0.860432 -0.0547075 154 18 121
-0.115925 -0.752402 -0.0965027 113 32 115
-0.145482 -0.914878 -0.366525 109 11 81
0.0467836 -0.594964 -0.485326 133 52 66
-0.616313 -0.555594 -0.417508 49 57 74
0.110086 -0.855769 -0.659284 142 18 43
0.0591339 0.868609 -0.041662 135 238 122
-0.0457882 -0.452885 -0.000559971 122 70 127
0.154451 -0.680752 -0.103181 147 41 114
0.823886 -0.752156 -0.303357 233 32 89
-0.327447 -0.580984 -0.339492 86 53 84
-0.170441 -0.902541 0.100137 106 12 140
-0.181507 -0.719901 0.464138 104 36 187
0.62266 -0.465496 -0.331452 207 68 85
0.17959 -0.635128 -0.121833 150 47 112
-0.0355618 -0.997995 -0.0634955 123 0 119
-0.373036 0.538727 -0.258987 80 196 94
-0.272602 -0.841453 -0.193875 93 20 103
-0.151178 -0.761267 0.416614 108 30 181
0.354575 -0.208296 -0.555198 173 101 57
-0.596377 0.024391 -0.055742 51 131 120
-0.396225 -0.305649 -0.636806 77 89 46
0.417537 -0.711228 -0.0833335 181 37 117
0.3906 -0.702878 -0.646378 177 38 45
-0.232038 0.583279 -0.247369 98 202 96
0.75759 -0.621844 -0.558414 224 48 56
0.452241 -0.575083 -0.126088 185 54 111
-0.413955 -0.653288 -0.70829 75 44 37
-0.359168 0.628976 -0.341052 82 208 84
-0.102695 -0.649009 -0.374729 114 45 80
-0.235984 -0.364271 -0.627909 97 81 47
-0.119725 0.322548 -0.134095 112 169 110
-0.0529588 -0.625554 -0.177074 121 48 105
-0.335016 -0.768745 0.314227 85 29 168
0.80115 -0.71167 -0.221156 230 37 99
-0.296574 -0.614525 -0.251098 90 49 95
-0.298242 0.059652 -0.0316526 89 135 123
-0.524278 -0.634468 -0.0630911 61 47 119
0.442041 -0.782121 -0.669893 184 28 42
-0.101158 -0.953493 -0.541451 115 6 58
-0.17853 0.341869 -0.0610904 105 171 120
0.623544 -0.394985 -0.515611 207 77 62
-0.307305 -0.623489 -0.471567 88 48 67
0.246108 -0.862924 -0.0708384 159 17 118
0.582734 -0.600392 -0.120304 202 51 112
0.470262 -0.798164 -0.654794 187 26 44
0.273803 -0.777581 -0.0972412 162 28 115
-0.0103319 -0.197356 -0.167848 126 102 106
0.753666 -0.701345 -0.154051 224 38 108
-0.0956685 -0.675744 -0.652465 115 41 44
-0.432763 -0.399254 -0.150639 72 77 108
0.230296 -0.594964 -0.56752 157 52 55
-0.0452185 -0.332759 -0.591712 122 85 52
0.445102 -0.594964 -0.236642 184 52 97
-0.347222 -0.716148 0.177733 83 36 150
0.362737 -0.150848 -0.510939 174 108 62
0.166841 -0.30497 -0.581234 149 89 53
0.240798 -0.598144 -0.603545 158 51 51
0.120457 -0.360493 -0.139728 143 82 110
-0.191318 0.285796 -0.0615938 103 164 120
0.646886 -0.616439 -0.642889 210 49 46
-0.0145639 -0.968916 -0.0555557 126 4 120
-0.00296192 -0.615377 -0.0275951 127 49 124
-0.0365324 -0.696485 -0.143191 123 39 109
-0.637953 -0.555594 -0.348758 46 57 83
-0.36221 0.163775 -0.605071 81 148 50
-0.251007 0.348291 -0.113509 95 172 113
-0.449906 -0.978722 -0.354784 70 3 82
-0.360421 -0.848463 0.32522 82 19 169
-0.143277 -0.913265 0.549545 109 11 198
-0.329571 -0.582422 -0.0804493 85 53 117
-0.174755 -0.925551 0.730798 105 9 221
-0.237617 -0.916556 0.699292 97 11 217
-0.1281 -0.84663 -0.280406 111 20 92
-0.538613 -0.71416 -0.387367 59 36 78
0.623543 -0.161852 -0.336911 207 107 85
-0.39508 0.152476 -0.174542 77 147 105
-0.152152 -0.727524 -0.460659 108 35 69
-0.403279 -0.74081 -0.352492 76 33 83
-0.26549 -0.63469 0.229085 94 47 157
-0.150073 -0.582527 -0.435519 108 53 72
0.480326 -0.888345 -0.0890335 189 14 116
0.318031 -0.976056 -0.0816822 168 3 117
-0.389123 -0.895521 -0.286155 78 13 91
0.193948 -0.655558 -0.104494 152 44 114
0.564648 -0.710432 -0.0670293 199 37 119
-0.208045 -0.84468 0.659264 101 20 212
-0.291416 -0.574742 0.118762 90 54 143
0.817588 -0.9066 -0.547867 232 12 58
-0.137952 -0.867411 0.0923728 110 17 139
0.629528 -0.403369 -0.262801 208 76 94
0.481027 -0.0320478 -0.314669 189 123 87
-0.222792 -0.555569 -0.654467 99 57 44
0.541426 -0.683841 -0.644278 197 40 45
-0.270492 -0.948265 0.744419 93 7 222
-0.35375 -0.730088 0.569119 82 34 200
0.38798 -0.104755 -0.471025 177 114 67
-0.126949 0.539494 -0.33687 111 196 85
-0.084599 0.324301 -0.374166 117 169 80
0.522948 -0.137166 -0.496867 194 110 64
0.820749 -0.847399 -0.215702 232 19 100
-0.343839 -0.625419 0.179295 84 48 150
0.498854 -0.918637 -0.0890335 191 10 116
0.809513 -0.853633 -0.182426 231 19 104
-0.331485 -0.382912 -0.0741636 85 79 118
-0.110793 -0.825308 -0.310965 113 22 88
-0.478713 -0.171225 -0.266924 66 106 93
-0.447556 -0.500008 -0.556802 70 64 57
-0.070156 -0.641032 -0.00994363 119 46 126
-0.0977013 -0.475956 -0.653569 115 67 44
-0.143314 -0.82654 -0.208053 109 22 101
0.633002 -0.733961 -0.666 208 34 43
0.0569011 -0.765166 -0.0621029 135 30 120
-0.149123 -0.730653 -0.256747 108 34 95
-0.707941 -0.549675 -0.335895 37 57 85
-0.145113 -0.933074 -0.50666 109 9 63
-0.356807 0.575025 -0.342783 82 201 84
0.210245 -0.547168 -0.139726 154 58 110
-0.168209 -0.808611 0.133236 106 24 144
-0.308136 0.513262 -0.23162 88 193 98
0.606939 -0.0288091 -0.401094 205 124 76
-0.301181 -0.231557 -0.10544 89 98 114
-0.0790688 -0.939459 -0.108741 117 8 114
-0.103348 -0.883077 -0.175503 114 15 105
0.135553 -0.0414145 -0.307337 145 122 88
-0.229584 0.747285 -0.342923 98 223 84
-0.201651 -0.875339 0.695615 102 16 216
-0.368661 -0.988722 -0.520054 80 1 61
-0.583238 -0.555594 -0.484765 53 57 66
-0.0114267 0.133641 -0.411635 126 145 75
-0.0807363 -0.111919 -0.154913 117 113 108
-0.244729 0.218092 -0.0392999 96 155 122
-0.184416 -0.867993 0.65389 104 17 211
0.676329 -0.99769 -0.0568502 214 0 120
0.319272 -0.645091 -0.0763426 168 45 118
-0.360903 -0.849244 0.128487 81 19 144
-0.146533 -0.807192 0.585422 109 25 202
-0.109495 0.353099 -0.336016 114 173 85
0.244317 -0.710658 -0.647194 159 37 45
0.133645 -0.30425 -0.110761 145 89 113
0.704339 -0.666429 -0.643146 217 43 45
-0.29643 0.135499 -0.0186411 90 145 125
0.461623 -0.829714 -0.0890335 186 22 116
-0.232394 -0.2967 -0.0785135 98 90 117
0.0641434 0.725384 -0.06393 136 220 119
0.75667 -0.583612 -0.443299 224 53 71
0.111799 -0.197515 -0.167686 142 102 106
-0.168705 -0.961933 0.796816 106 5 229
0.65499 -0.594964 -0.223829 211 52 99
-0.187337 -0.933576 -0.514091 104 8 62
-0.485122 -0.269402 -0.458576 66 93 69
-0.346569 0.523602 -0.27667 83 194 92
0.062683 -0.653343 -0.0916215 135 44 116
-0.204493 -0.658531 -0.293851 101 44 90
-0.19401 -0.634456 -0.278247 103 47 92
0.785828 -0.908676 -0.144228 228 12 109
-0.704734 0.631784 -0.0230424 38 208 125
-0.204712 -0.264532 -0.620171 101 94 48
-0.113825 -0.711695 -0.594303 113 37 52
0.0094475 -0.596978 -0.330935 129 51 85
-0.0728129 -0.646932 -0.264926 118 45 94
0.775499 -0.7497 -0.548142 226 32 58
-0.288777 -0.62188 0.0159258 91 48 130
0.14035 -0.740708 -0.0803942 145 33 117
0.42658 -0.432514 -0.581173 182 72 53
-0.236113 0.322592 -0.423888 97 169 73
0.62266 -0.342919 -0.312767 207 84 88
-0.182185 -0.75159 -0.463501 104 32 68
0.521406 -0.0424679 -0.306202 194 122 88
0.152277 -0.637037 -0.121721 147 46 112
0.222803 -0.850935 -0.0914386 156 19 116
-0.431085 0.122986 -0.0571579 73 143 120
-0.4534 -0.261616 -0.512226 70 94 62
0.463227 -0.904468 -0.0890335 187 12 116
-0.0625878 -0.486532 -0.702377 120 65 38
0.466609 -0.810097 -0.0890335 187 24 116
-0.522993 0.0949242 -0.34942 61 140 83
0.349962 -0.815207 -0.672506 172 24 42
0.623727 -0.424275 -0.16769 207 73 106
0.802232 -0.691676 -0.346826 230 39 83
-0.335893 0.480519 -0.492927 85 189 65
0.208614 -0.299308 -0.115324 154 89 113
-0.135809 -0.597692 -0.812064 110 51 24
-0.391588 -0.556166 -0.781117 78 57 28
0.625269 -0.922131 -0.664436 207 10 43
-0.364099 0.193919 -0.0601807 81 152 120
-0.087324 -0.765785 -0.181964 116 30 104
-0.274392 -0.658058 0.232247 93 44 157
-0.493857 -0.256377 -0.279217 65 95 92
0.388905 -0.719507 -0.0661243 177 36 119
0.404452 -0.6224 -0.629281 179 48 47
-0.167721 -0.92896 0.292221 106 9 165
-0.329666 -0.671272 0.0931236 85 42 139
-0.0620248 -0.997331 -0.655436 120 0 44
-0.0457197 -0.687079 -0.599947 122 40 51
-0.289672 -0.698887 -0.456302 91 38 69
0.841176 -0.867543 -0.307925 235 17 88
0.0454655 0.922096 -0.0524143 133 245 121
-0.484944 0.0718183 -0.404149 66 137 76
-0.447771 -0.404791 -0.670224 70 76 42
0.00767353 -0.0512555 -0.422889 128 121 74
0.628262 -0.594964 -0.231571 208 52 98
-0.365184 -0.987116 -0.171053 81 2 106
0.782365 -0.887771 -0.615468 227 14 49
-0.408519 0.063589 -0.0256765 75 136 124
-0.375094 -0.328992 -0.0828387 80 86 117
0.0652155 -0.90224 -0.679217 136 12 41
-0.202792 -0.701017 0.30164 102 38 166
-0.556372 0.468307 -0.0381405 57 187 123
-0.150445 -0.77519 -0.258719 108 29 95
-0.208864 -0.690222 -0.440776 101 39 71
-0.33022 -0.61564 -0.797083 85 49 26
-0.270654 -0.655178 -0.46656 93 44 68
0.761216 -0.633203 -0.168878 225 47 106
-0.0780264 0.53533 -0.452751 118 196 70
0.00628962 -0.21209 -0.558908 128 100 56
-0.256689 -0.622465 -0.79707 95 48 26
-0.0980392 0.110892 -0.572228 115 142 55
-0.136782 -0.627408 -0.316468 110 48 87
-0.106958 0.43246 -0.424423 114 183 73
0.110144 0.161478 -0.0233285 142 148 125
-0.447765 0.31661 -0.480446 70 168 66
0.342385 -0.924499 -0.0857459 171 10 117
-0.362746 -0.87814 0.687629 81 16 215
-0.558064 -0.581299 -0.557774 56 53 56
0.434865 -0.407112 -0.581173 183 76 53
0.181143 0.229035 -0.015736 151 157 125
-0.112692 0.364789 -0.276422 113 174 92
0.740652 -0.579749 -0.452633 222 54 70
0.14228 -0.274063 -0.6136 146 93 49
0.855879 -0.99797 -0.402245 237 0 76
-0.428215 -0.554955 -0.649185 73 57 45
-0.00359306 -0.651679 -0.747101 127 44 32
-0.672079 0.523566 -0.0148968 42 194 126
-0.653592 -0.603754 -0.385352 44 51 78
-0.577464 -0.592156 -0.378884 54 52 79
-0.112431 0.66966 -0.0434433 113 213 122
-0.316534 -0.577439 -0.748814 87 54 32
0.374356 -0.496394 -0.139726 175 64 110
-0.0211751 -0.599945 -0.634586 125 51 47
-0.0685508 0.297949 -0.05232 119 165 121
0.262469 -0.677489 -0.0870509 161 41 116
-0.285178 0.322592 -0.398213 91 169 77
0.693928 -0.594964 -0.220156 216 52 99
-0.31026 0.608995 -0.333347 88 205 85
0.200648 -0.436478 -0.581174 153 72 53
-0.126821 -0.794523 0.103758 111 26 141
-0.407129 0.127169 -0.0581693 76 144 120
-0.0934669 0.364151 -0.460514 116 174 69
0.162154 -0.600352 -0.120426 148 51 112
-0.17372 0.238484 -0.140596 105 158 110
-0.650817 -0.60111 -0.340064 45 51 84
-0.385107 -0.740028 -0.167056 78 33 106
-0.131193 -0.602476 0.135216 111 51 145
-0.134556 -0.976351 -0.18675 110 3 104
-0.102281 -0.597264 0.0715555 114 51 137
-0.027482 -0.636183 -0.573765 124 46 54
-0.536086 -0.508613 -0.317028 59 63 87
0.746685 -0.598971 -0.183204 223 51 104
-0.313072 -0.69229 -0.47099 88 39 67
0.288015 -0.329013 -0.126207 164 86 111
0.320395 -0.761615 -0.652029 168 30 44
-0.153873 -0.735414 0.205169 108 34 154
0.550239 -0.581883 -0.124962 198 53 112
-0.508805 -0.445912 -0.442917 63 71 71
-0.0967084 -0.647761 -0.312264 115 45 88
-0.0878735 -0.806265 -0.349084 116 25 83
-0.214566 0.72924 -0.432449 100 220 72
-0.0992468 0.394987 -0.268109 115 178 93
0.777047 -0.60905 -0.238471 227 50 97
-0.114574 0.472593 -0.446923 113 188 71
-0.637972 -0.556195 -0.561403 46 57 56
-0.33961 -0.886161 -0.502074 84 15 63
-0.227755 -0.850162 -0.191595 98 19 103
-0.347487 -0.855889 0.634248 83 18 208
0.376063 -0.582942 -0.609715 175 53 50
0.431749 -0.415919 -0.130957 183 74 111
-0.329123 -0.848362 -0.193066 86 19 103
-0.313935 0.504182 -0.066285 87 192 119
-0.32279 -0.782104 -0.249941 86 28 96
0.623548 -0.176014 -0.262717 207 105 94
-0.208424 -0.868392 0.661375 101 17 212
-0.267741 -0.575347 -0.542546 93 54 58
-0.485869 0.555399 -0.0553858 66 198 120
-0.377794 0.321672 -0.132305 79 169 111
0.610832 -0.917852 -0.680429 205 10 41
0.168738 -0.648918 -0.655462 149 45 44
-0.327804 -0.871464 -0.467459 86 16 68
0.317151 -0.718516 -0.66442 168 36 43
-0.507703 -0.55602 0.0282343 63 57 131
-0.62742 -0.556166 -0.518276 48 57 61
-0.180006 -0.837278 0.61832 105 21 206
0.623543 -0.391837 -0.190132 207 78 103
-0.337938 0.654696 -0.408096 84 211 75
0.199043 -0.308625 -0.625597 153 88 48
-0.480461 -0.0980168 -0.28222 66 115 92
0.255641 -0.490697 -0.581173 160 65 53
-0.10164 0.491014 -0.0431774 115 190 122
0.172498 -0.964977 -0.0824419 149 4 117
-0.38343 0.444242 -0.42874 79 184 73
0.358594 -0.821118 -0.0740569 173 23 118
-0.546048 -0.424971 -0.383967 58 73 79
0.310781 0.215324 -0.0108949 167 155 126
-0.233976 0.281554 -0.0426615 98 163 122
-0.00427523 0.323378 -0.0368709 127 169 123
0.112671 0.2219 -0.029477 142 156 124
-0.107353 -0.804557 -0.30769 114 25 88
-0.361591 -0.879288 0.539948 81 15 196
-0.334877 0.199649 -0.0600206 85 153 120
0.00530218 -0.30508 -0.581175 128 89 53
-0.0971015 0.444816 -0.477899 115 184 67
0.632619 -0.594964 -0.27429 208 52 93
-0.287868 -0.555594 0.0240867 91 57 131
-0.200166 -0.805982 -0.493993 102 25 65
-0.059086 -0.841843 -0.59655 120 20 51
0.0920344 -0.630862 -0.651009 139 47 44
-0.277641 -0.722642 -0.450899 92 35 70
-0.526645 -0.576537 -0.329396 60 54 86
-0.214483 -0.681589 -0.469128 100 41 68
-0.301465 0.322661 -0.559162 89 169 56
-0.0485268 0.282381 -0.466843 121 164 68
-0.674797 -0.47544 -0.373765 41 67 80
0.489156 -0.594964 -0.293468 190 52 90
0.0459488 0.630989 -0.0610439 133 208 120
0.584664 -0.420172 -0.581348 202 74 53
0.80835 -0.647287 -0.339833 231 45 84
-0.102468 -0.771918 -0.555792 114 29 57
-0.38586 0.327468 -0.278247 78 169 92
-0.0873619 0.330443 -0.401047 116 170 76
-0.130321 -0.556704 -0.803918 111 57 25
0.351542 -0.684682 -0.103059 172 40 114
0.625897 -0.691615 -0.0691619 207 39 119
-0.164431 -0.652552 -0.24969 107 44 96
-0.645735 -0.0250469 -0.079529 45 124 117
-0.273867 -0.656731 -0.250699 93 44 96
-0.0131721 -0.63471 -0.138686 126 47 110
-0.133969 0.633377 -0.297097 110 208 90
-0.118211 0.493914 -0.345929 112 190 83
0.511897 -0.731696 -0.649296 193 34 45
-0.33863 -0.804896 0.30595 84 25 167
0.109932 -0.594964 -0.482676 142 52 66
-0.244614 0.270345 -0.142616 96 162 109
-0.173765 0.413406 -0.128113 105 180 111
0.208029 -0.172722 -0.193722 154 105 103
-0.106791 0.336884 -0.470559 114 170 68
-0.0430627 -0.584341 -0.000750248 122 53 127
-0.22116 -0.875969 0.681388 99 16 214
0.134069 -0.562501 -0.607665 145 56 50
-0.492388 -0.525375 -0.482825 65 61 66
0.811153 -0.934662 -0.153607 231 8 108
-0.34998 0.422373 -0.0253523 83 181 124
0.574261 -0.803575 -0.655247 201 25 44
0.783304 -0.699505 -0.503931 227 38 63
-0.362746 -0.798921 0.599765 81 26 204
0.189131 -0.579538 -0.128057 152 54 111
0.128665 -0.690689 -0.661402 144 39 43
0.300877 -0.977362 -0.685048 166 3 40
-0.243007 -0.699159 0.257276 97 38 160
-0.266726 0.24983 -0.0231467 93 159 125
-0.800742 0.536913 -0.0238818 25 196 124
-0.479077 -0.613205 -0.503872 66 49 63
-0.480124 -0.633979 -0.371845 66 47 80
-0.318918 -0.729357 0.558813 87 35 199
0.559477 -0.662303 -0.641927 199 43 46
-0.492771 -0.600366 -0.278531 65 51 92
-0.276537 -0.879637 -0.540177 92 15 59
0.320696 -0.483859 -0.139204 168 66 110
-0.202865 -0.125213 -0.113446 102 112 113
-0.18442 -0.554167 0.120762 104 57 143
0.272942 0.0469833 -0.0574477 162 133 120
-0.0502397 -0.729385 -0.123703 121 35 112
-0.374166 -0.143487 -0.00889444 80 109 126
0.575147 -0.827352 -0.657091 201 22 44
-0.131654 -0.0958432 -0.114737 111 115 113
-0.371312 0.505684 -0.448114 80 192 70
-0.0317557 -0.605009 -0.210183 123 50 101
-0.361826 -0.97226 -0.214868 81 4 100
-0.174945 -0.842865 -0.532939 105 20 60
0.597858 -0.837295 -0.108931 204 21 114
0.45502 -0.947161 -0.0713749 186 7 118
-0.176555 -0.897664 -0.537852 105 13 59
-0.0860343 -0.687994 -0.214767 117 40 100
0.207284 -0.265001 -0.115012 154 94 113
-0.0874494 -0.93019 -0.123038 116 9 112
0.650679 -0.84251 -0.0918385 210 20 116
0.801318 -0.686562 -0.376626 230 40 79
-0.326447 0.0785034 -0.0364638 86 138 123
0.210553 -0.136445 -0.496116 154 110 64
0.743812 -0.579914 -0.295427 222 54 90
-0.156386 -0.712046 0.137893 108 37 145
-0.151189 0.374954 -0.0223699 108 175 125
0.521719 -0.867592 -0.676493 194 17 41
0.837735 -0.885401 -0.468844 234 15 68
-0.128641 0.198114 -0.12378 111 153 112
-0.157723 -0.804124 -0.238955 107 25 97
-0.529991 -0.480329 -0.310245 60 66 88
-0.34872 0.641664 -0.397276 83 209 77
0.440459 -0.299374 -0.632272 184 89 47
-0.323853 -0.759711 -0.248303 86 31 96
-0.39226 0.411279 -0.474192 77 180 67
-0.0330543 -0.513003 -0.764815 123 62 30
-0.224384 0.322592 -0.46698 99 169 68
0.320123 -0.631313 -0.0977403 168 47 115
-0.343252 0.426895 -0.478835 84 182 66
0.298931 0.223407 -0.0254027 166 156 124
-0.0840305 -0.634041 -0.252463 117 47 95
-0.0391013 -0.116527 -0.500754 123 113 64
-0.0529944 -0.762765 -0.118244 121 30 112
-0.351024 -0.737873 -0.333026 83 33 85
-0.282921 0.378916 -0.513379 91 176 62
-0.0721641 -0.713589 -0.166469 118 37 106
0.733639 -0.343798 -0.363938 221 84 81
0.769667 -0.585734 -0.335211 226 53 85
-0.12893 -0.972276 -0.439069 111 4 72
-0.0814874 -0.640347 -0.348732 117 46 83
0.521325 -0.32107 -0.139727 194 87 110
-0.352145 0.322592 -0.303739 83 169 89
-0.143292 -0.780414 0.28887 109 28 164
-0.155926 0.478151 -0.0570998 108 188 120
-0.41588 -0.260321 -0.141983 74 94 109
-0.686568 0.49679 -0.0318625 40 191 123
-0.410419 0.567735 -0.291667 75 200 90
-0.181582 -0.820515 -0.234485 104 23 98
-0.57858 -0.601296 -0.262634 54 51 94
-0.0145956 -0.555594 -0.661559 126 57 43
0.825413 -0.906862 -0.459531 233 12 69
0.29669 -0.580762 -0.602092 165 53 51
-0.408169 0.0812473 -0.185562 75 138 104
-0.338666 -0.954144 -0.185497 84 6 104
0.800395 -0.721949 -0.437821 230 35 72
0.0882452 -0.634471 -0.155233 139 47 108
0.767921 -0.680872 -0.53406 225 41 59
-0.0292953 -0.945359 -0.668139 124 7 42
-0.238019 -0.582492 0.188209 97 53 151
-0.26333 0.585432 -0.247877 94 202 96
-0.399992 -0.102132 -0.584417 77 114 53
-0.153629 -0.302636 -0.0737811 108 89 118
-0.290515 0.670023 -0.408179 90 213 75
-0.126797 -0.898402 0.111371 111 13 142
-0.480667 -0.479214 -0.49644 66 66 64
0.649307 -0.578688 -0.337296 210 54 84
-0.32106 -0.963531 -0.499574 87 5 64
-0.478754 -0.617761 -0.0145283 66 49 126
-0.190552 -0.575347 -0.436185 103 54 72
0.231467 0.26303 -0.0289844 157 161 124
-0.503631 0.0777001 -0.0615797 63 137 120
-0.5154 0.297712 -0.356501 62 165 82
-0.60929 -0.597159 -0.12566 50 51 111
-0.119777 -0.992379 -0.507745 112 1 63
0.297226 -0.283612 -0.623071 165 91 48
-0.425156 0.102787 -0.0533873 73 141 121
0.192509 -0.666092 -0.642438 152 43 46
-0.497555 -0.0162583 -0.396464 64 125 77
0.547875 -0.447031 -0.136422 197 71 110
0.211497 -0.118627 -0.242082 154 112 97
0.0632091 -0.633726 -0.598158 136 47 51
0.616664 -0.513626 -0.125698 206 62 111
0.434091 -0.058615 -0.288819 183 120 91
0.350408 -0.909584 -0.067207 172 12 119
-0.149755 -0.59739 -0.319928 108 51 87
0.758766 -0.781235 -0.110231 224 28 113
0.658898 -0.771387 -0.669009 212 29 42
0.80246 -0.774354 -0.486674 230 29 65
0.354517 -0.463614 -0.581173 173 68 53
0.399412 0.00389889 -0.343669 178 128 84
0.381117 -0.395861 -0.581174 176 77 53
-0.36215 -0.625648 0.122677 81 48 143
0.00444349 -0.609842 -0.276832 128 50 92
-0.0645983 -0.615793 0.0159258 119 49 130
0.711896 -0.357322 -0.317271 218 82 87
-0.127023 -0.727518 0.184458 111 35 151
-0.114408 0.473049 -0.392299 113 188 77
0.834592 -0.822842 -0.419373 234 23 74
-0.230919 0.560868 -0.45698 98 199 69
0.201788 -0.923044 -0.680832 153 10 41
-0.482761 0.191715 -0.388686 66 152 78
-0.166483 0.204215 -0.138422 106 154 110
0.153135 -0.789482 -0.0765403 147 27 118
-0.429739 0.0641395 -0.502231 73 136 63
-0.448866 -0.549496 -0.561842 70 57 56
-0.239241 0.758633 -0.305996 97 224 88
-0.540416 -0.581487 -0.754008 59 53 31
0.301819 -0.863017 -0.054497 166 17 121
-0.485603 -0.555838 0.0609875 66 57 135
0.00515346 -0.614482 -0.796419 128 49 26
-0.54411 -0.141793 -0.364789 58 109 81
-0.058531 -0.875768 -0.63434 120 16 47
-0.497952 -0.0711613 -0.316204 64 118 87
-0.406683 0.345352 -0.220585 76 172 99
-0.146353 -0.961363 -0.308527 109 5 88
0.16289 -0.247841 -0.592998 148 96 52
-0.229276 0.322592 -0.334073 98 169 85
-0.217934 0.230443 -0.140218 100 157 110
0.557573 -0.158323 -0.203981 199 107 101
0.274179 -0.258514 -0.121446 162 95 112
-0.143258 0.578194 -0.0233847 109 201 125
-0.315818 0.256005 -0.0610904 87 160 120
0.0321776 0.196077 -0.0348882 132 152 123
-0.0525825 -0.618846 -0.233666 121 49 98
-0.431487 0.464657 -0.0296685 72 187 124
0.571746 -0.594964 -0.208456 200 52 101
-0.382626 -0.893801 -0.321379 79 14 87
-0.426885 -0.551216 -0.114906 73 57 113
-0.278368 0.422198 -0.504556 92 181 63
0.687104 -0.322183 -0.40096 215 86 76
0.846367 -0.997921 -0.242636 235 0 97
0.176671 -0.815638 -0.672494 150 24 42
0.266777 -0.843341 -0.092058 162 20 116
-0.277228 -0.610943 0.223512 92 50 156
-0.0147471 -0.611441 -0.282396 126 50 91
-0.558207 -0.354325 -0.337748 56 82 84
-0.107499 -0.599584 -0.28406 114 51 91
-0.0787422 -0.910186 -0.372531 117 11 80
0.109114 -0.70284 -0.662708 141 38 43
-0.0981442 -0.593169 -0.457558 115 52 69
-0.0834488 0.57328 -0.403742 117 201 76
0.244158 -0.33918 -0.581174 159 84 53
-0.115974 0.388761 -0.397423 113 177 77
-0.126861 -0.748693 0.335343 111 32 170
-0.320161 0.260266 -0.580666 87 161 53
0.148878 -0.76645 -0.078327 146 30 118
0.0269313 -0.683686 -0.635012 131 40 47
-0.467602 -0.0448366 -0.0541366 68 122 121
-0.317947 -0.80522 0.634469 87 25 208
-0.394068 0.553513 -0.425362 77 198 73
-0.269125 -0.594881 -0.799966 93 52 26
0.115551 0.191824 -0.0406756 142 152 122
-0.0409534 -0.610421 -0.564283 122 50 56
0.246983 -0.839148 -0.108705 159 21 114
-0.0591993 -0.594194 -0.802526 120 52 25
-0.0157032 0.186996 -0.410356 125 151 75
0.286768 -0.586712 -0.109241 164 53 114
-0.229305 -0.606821 0.0801805 98 50 138
0.377324 -0.803919 -0.655316 176 25 44
-0.298228 -0.632505 -0.401651 89 47 76
0.0833395 -0.555047 -0.134653 138 57 110
-0.065036 0.550557 -0.337041 119 198 85
0.822629 -0.829119 -0.387529 232 22 78
-0.538 0.700309 -0.0557551 59 217 120
-0.345903 0.403296 -0.0259633 83 179 124
-0.182684 -0.655248 -0.238139 104 44 97
-0.0373798 -0.677387 -0.150267 123 41 108
-0.416742 0.40232 -0.0406652 74 179 122
-0.275072 -0.746543 -0.249498 92 32 96
-0.154823 0.327677 -0.15506 108 169 108
0.721812 -0.578688 -0.268011 220 54 93
-0.0740131 -0.798737 -0.179679 118 26 105
-0.293676 -0.919863 0.738093 90 10 222
-0.389641 0.413773 -0.314664 78 180 87
-0.0678108 -0.477796 -0.116646 119 67 113
0.294292 -0.594964 -0.181811 165 52 104
-0.474371 -0.251572 -0.24589 67 95 96
-0.493042 -0.555594 -0.10674 65 57 114
0.634176 -0.577998 -0.205716 208 54 101
-0.152711 -0.627928 0.0730879 108 47 137
0.493212 -0.594964 -0.531661 190 52 60
0.302374 0.04255 -0.0273985 166 133 124
0.74678 -0.717288 -0.591095 223 36 52
-0.377373 -0.100077 -0.0109699 79 115 126
-0.0425939 -0.893622 -0.36161 122 14 81
-0.150789 -0.761156 0.379267 108 30 176
0.597615 -0.806638 -0.671807 204 25 42
-0.166104 -0.992989 0.131431 106 1 144
0.0750151 0.711991 -0.0719123 137 218 118
0.82223 -0.721484 -0.33037 232 36 85
-0.334741 0.358236 -0.498354 85 173 64
-0.135826 -0.60617 -0.649208 110 50 45
-0.17595 -0.787424 -0.500546 105 27 64
0.119187 -0.230781 -0.141036 143 98 110
-0.448011 -0.425008 -0.669991 70 73 42
0.050673 -0.575923 -0.619229 134 54 49
-0.674159 0.7895 -0.0606653 42 228 120
-0.482414 -0.0470224 -0.293503 66 122 90
0.0741356 -0.0308912 -0.317066 137 124 87
0.194047 -0.785392 -0.112915 152 27 113
-0.154847 -0.693447 -0.33872 108 39 84
-0.550051 -0.555594 -0.582601 57 57 53
0.158918 -0.595268 -0.418971 148 52 74
-0.0467517 -0.913787 -0.658342 122 11 44
-0.0797444 -0.634471 0.0562206 117 47 135
-0.311491 -0.598277 -0.353887 88 51 82
0.682743 -0.944725 -0.0482818 215 7 121
-0.334747 -0.721627 -0.262029 85 35 94
0.589184 -0.917664 -0.0507622 203 10 121
-0.347498 -0.693797 -0.355464 83 39 82
0.62801 -0.230262 -0.57054 208 98 55
0.498967 -0.537218 -0.139726 191 59 110
0.601522 -0.623361 -0.629761 204 48 47
0.234069 -0.400797 -0.139727 157 76 110
0.119148 -0.471148 -0.581173 143 67 53
0.384618 -0.658194 -0.640998 177 44 46
-0.470957 0.322661 -0.311118 67 169 88
-0.412336 -0.937622 -0.39008 75 8 78
-0.122755 -0.739381 -0.390985 112 33 78
-0.189865 -0.68818 0.267842 103 40 162
-0.0102039 0.693793 -0.0543859 126 216 121
0.0313215 -0.957205 -0.683483 131 5 40
-0.192358 -0.65349 -0.488662 103 44 65
0.629949 -0.0817511 -0.410916 208 117 75
-0.42586 -0.941061 -0.331667 73 8 85
-0.484071 -0.651238 0.000334901 66 44 128
-0.33969 -0.894826 0.333359 84 13 170
-0.29759 -0.148618 -0.610855 90 109 50
-0.0709314 -0.642211 -0.466576 118 46 68
-0.0684514 0.281559 -0.236336 119 163 97
-0.0228359 -0.997919 -0.363908 125 0 81
0.217842 -0.907786 -0.0510314 155 12 121
-0.378872 -0.772094 -0.54421 79 29 58
0.09007 -0.389182 -0.581174 139 78 53
-0.418302 0.206503 -0.0450895 74 154 122
-0.412133 -0.272329 -0.115737 75 93 113
0.305422 -0.106751 -0.472816 166 114 67
-0.121999 -0.802406 -0.431772 112 25 72
-0.0781494 0.986333 -0.00217913 118 253 127
-0.0984435 -0.827785 -0.349142 115 22 83
-0.0473205 -0.582612 -0.0716665 121 53 118
-0.283589 0.529522 -0.46337 91 195 68
-0.15627 0.28935 -0.0579111 108 164 120
-0.273242 -0.211887 -0.615959 93 100 49
0.745965 -0.905963 -0.641852 223 12 46
-0.411639 -0.555594 -0.750832 75 57 32
-0.132548 -0.865222 -0.519572 111 17 61
0.629862 -0.377022 -0.151738 208 79 108
-0.352965 -0.995217 -0.499442 82 1 64
-0.154153 -0.817042 -0.494825 108 23 64
-0.788963 0.512199 -0.0120718 27 193 126
-0.449859 -0.320074 -0.526827 70 87 60
0.64947 -0.959068 -0.0633754 210 5 119
-0.4234 -0.576102 -0.640322 74 54 46
0.207458 -0.472642 -0.133627 154 67 110
-0.131649 -0.83519 -0.389706 111 21 78
0.433042 -0.690619 -0.0691827 183 39 119
0.0896436 -0.0512303 -0.296761 139 121 90
0.554355 -0.987131 -0.685807 198 2 40
0.262587 -0.814183 -0.110679 161 24 113
-0.359069 -0.922607 -0.503283 82 10 63
-0.464457 -0.605278 -0.164329 68 50 107
0.49885 -0.650388 -0.655885 191 45 44
-0.0520821 -0.261616 -0.11837 121 94 112
0.303881 -0.358786 -0.587629 166 82 53
0.0444264 -0.821628 -0.0740486 133 23 118
-0.221009 -0.57577 -0.722478 99 54 35
-0.0867927 -0.0320589 -0.5989 116 123 51
-0.265165 0.322592 -0.344789 94 169 84
-0.510063 -0.117082 -0.0282106 62 113 124
-0.0906114 -0.746592 -0.146069 116 32 109
0.570109 -0.645796 -0.654557 200 45 44
0.637395 -0.89689 -0.678801 209 13 41
-0.0891759 -0.719092 -0.356773 116 36 82
-0.0940033 -0.807835 -0.182056 116 25 104
0.454537 -0.944117 -0.66614 185 7 43
-0.509236 0.04575 -0.383556 63 133 79
-0.341852 -0.723467 -0.243361 84 35 96
-0.332264 0.356983 -0.142409 85 173 109
-0.568719 -0.00356334 -0.0491187 55 127 121
-0.245826 0.456653 -0.140051 96 186 110
0.81862 -0.809496 -0.398324 232 24 77
-0.37599 0.384198 -0.397122 80 176 77
-0.578472 -0.593129 -0.280794 54 52 92
-0.332278 0.371358 -0.155103 85 175 108
0.430789 -0.928382 -0.0890335 182 9 116
-0.371032 -0.855994 -0.324488 80 18 86
-0.234764 0.520463 -0.020096 98 194 125
-0.606973 -0.602586 -0.0628869 50 51 119
-0.141234 0.0405946 -0.596257 109 133 51
0.364518 -0.65409 -0.0737359 174 44 118
0.30002 -0.649359 -0.638641 166 45 46
0.625788 -0.301776 -0.545476 207 89 58
-0.612051 -0.648945 -0.356998 49 45 82
-0.433678 0.540599 -0.405452 72 196 76
-0.153196 0.074268 -0.129258 108 137 111
0.103006 -0.876584 -0.6609 141 16 43
0.835052 -0.940647 -0.308891 234 8 88
-0.535344 -0.348014 -0.38559 59 83 78
-0.19207 -0.714578 -0.457929 103 36 69
-0.189738 -0.78388 -0.210514 103 28 101
0.177813 -0.884471 -0.0887754 150 15 116
-0.368031 -0.319959 -0.626288 81 87 48
0.816677 -0.97865 -0.150956 232 3 108
0.683336 -0.578688 -0.369687 215 54 80
-0.0836604 0.268183 -0.525766 117 162 60
0.788142 -0.726055 -0.550295 228 35 57
-0.0251398 -0.809703 -0.0970211 124 24 115
-0.333458 -0.539089 0.100187 85 59 140
0.0553468 -0.469006 -0.581174 135 68 53
0.286376 -0.794415 -0.0761374 164 26 118
-0.359031 -0.105011 -0.0106049 82 114 126
0.552684 -0.594964 -0.344934 198 52 84
0.0211376 -0.600925 -0.109306 130 51 114
0.60842 -0.28114 -0.0997758 205 92 115
0.724091 -0.583957 -0.17875 220 53 105
0.798989 -0.648388 -0.463653 229 45 68
-0.18235 -0.325732 -0.0785135 104 86 117
-0.282845 -0.740722 0.473261 91 33 188
-0.522608 0.413576 -0.0288435 61 180 124
-0.00720749 -0.613178 0.0779856 127 49 137
-0.0411484 0.284657 -0.25683 122 164 95
-0.19516 -0.698257 -0.223981 103 38 99
-0.285245 -0.824768 -0.490707 91 22 65
0.118136 0.103803 -0.0425827 143 141 122
0.375997 -0.133807 -0.493366 175 110 65
0.165377 0.0780779 -0.0400002 149 137 122
0.800159 -0.715189 -0.297432 230 36 90
0.00508501 -0.66589 -0.626263 128 43 48
0.309144 -0.299922 -0.122365 167 89 112
-0.0507783 -0.579364 -0.443166 121 54 71
0.376812 -0.295433 -0.118212 176 90 112
-0.603356 0.619034 -0.0500728 51 206 121
