ply
format ascii 1.0
comment Created by Open3D
element vertex 1207
property double x
property double y
property double z
property uchar red
property uchar green
property uchar blue
end_header
-0.472125 -0.753293 0.303174 67 31 166
0.543511 -0.107812 0.0996847 197 114 140
-0.217794 -0.644915 -0.49938 100 45 64
0.0735811 -0.70397 -0.628592 137 38 47
-0.483195 0.504579 0.0344253 66 192 132
-0.290249 0.480631 -0.0992735 90 189 115
-0.00866367 0.29983 -0.574223 126 166 54
0.345884 0.0436724 -0.402394 172 133 76
-0.116017 -0.241564 0.235159 113 97 157
-0.283259 0.1418 0.112404 91 146 142
0.522969 -0.766522 -0.290721 194 30 90
0.229532 -0.615936 -0.572808 157 49 54
-0.0144851 -0.605411 -0.54368 126 50 58
0.0871042 0.152932 0.614264 139 147 206
0.403314 -0.472379 0.293063 179 67 165
0.0546574 -0.112747 0.376877 134 113 176
-0.469875 -0.988437 0.311634 68 1 167
0.560285 -0.812786 -0.194999 199 24 103
-0.314046 0.0275766 -0.304502 87 131 89
-0.418556 0.417088 -0.205985 74 181 101
0.331781 -0.995707 -0.0147393 170 1 126
0.401985 -0.881805 -0.477147 179 15 67
-0.342133 -0.989256 -0.0972182 84 1 115
0.527698 0.0836361 0.0802142 195 138 138
0.35646 0.446921 -0.327362 173 184 86
-0.244257 0.249982 -0.333037 96 159 85
-0.17896 -0.00824828 0.300961 105 126 166
-0.0392495 0.0718667 0.590941 122 137 203
0.523784 0.591932 -0.0142108 194 203 126
-0.456741 -0.579707 -0.0431095 69 54 122
-0.602536 -0.730426 0.22697 51 34 156
-0.568642 -0.955498 0.246925 55 6 159
-0.104512 -0.195109 -0.212219 114 103 100
0.130844 0.315541 -0.610158 144 168 50
0.400628 -0.203829 0.0888839 179 102 139
0.569574 0.232131 -0.193597 200 157 103
0.507138 -0.144931 -0.172419 192 109 106
0.0600721 0.0228196 -0.51198 135 130 62
0.461632 0.0463573 0.214057 186 133 155
0.623928 0.309779 -0.15578 207 167 108
0.425772 0.151226 -0.0959912 182 147 115
-0.627822 -0.870524 0.411494 47 17 180
-0.323102 -0.815395 0.371496 86 24 175
-0.481926 -0.903128 0.0388337 66 12 132
0.385215 -0.996138 0.0791887 177 0 138
-0.208584 0.109043 -0.400936 101 141 76
-0.445289 -0.366336 0.100097 71 81 140
-0.364451 0.265861 -0.104056 81 161 114
-0.417624 0.304229 0.0948654 74 166 140
0.346628 0.0301131 0.358171 172 131 173
0.194819 -0.617282 0.233148 152 49 157
-0.339426 -0.558529 -0.40856 84 56 75
0.150876 -0.459967 0.358179 147 69 173
-0.179283 0.777956 0.0656109 105 227 136
-0.0567114 -0.183194 -0.438257 120 104 72
0.302259 -0.995268 0.245582 166 1 159
-0.191438 0.0573012 -0.426588 103 135 73
-0.312497 -0.117514 -0.105001 88 113 114
-0.259089 -0.145883 -0.278481 94 109 92
0.40564 0.59058 -0.305971 179 203 88
-0.469322 0.374745 0.0339849 68 175 132
0.00209995 -0.67934 -0.562772 128 41 56
0.372626 -0.283661 0.051846 175 91 134
-0.294465 -0.99078 -0.410785 90 1 75
0.411647 -0.690108 0.203468 180 40 153
-0.311524 -0.557688 0.218487 88 56 155
0.313267 0.335058 0.316373 167 170 168
-0.154495 -0.522806 0.182896 108 61 151
-0.0356186 0.531671 0.168819 123 195 149
0.374273 0.212716 0.152444 175 155 147
0.0574051 -0.390746 -0.507559 135 78 63
0.0871471 -0.332035 -0.468467 139 85 68
0.315594 0.182326 -0.307811 168 151 88
0.591768 -0.63213 -0.0778722 203 47 118
0.131851 -0.681929 -0.585326 144 41 53
0.437804 0.102886 0.12727 183 141 144
0.334027 0.286053 -0.415163 170 164 75
-0.15149 0.63236 0.117391 108 208 142
-0.432718 -0.277945 0.0608662 72 92 135
-0.569652 0.329152 -0.0926758 55 169 116
0.0962828 -0.931367 0.222741 140 9 156
0.142101 0.60768 0.169098 146 205 149
-0.311233 -0.753256 0.37685 88 31 176
-0.251658 -0.532221 0.214536 95 60 155
0.0154247 0.40805 -0.672176 129 180 42
-0.278425 0.118066 0.146815 92 143 146
-0.0393971 -0.111937 -0.254184 122 113 95
0.297067 -0.0763911 -0.416698 165 118 74
-0.418187 -0.166446 0.210924 74 106 154
0.526503 0.679428 -0.216521 195 214 100
-0.63553 -0.815085 0.181714 46 24 151
0.059882 -0.99363 -0.321066 135 1 87
0.0687986 -0.992372 -0.128836 136 1 111
-0.312146 0.191471 0.222321 88 152 156
0.669185 0.271633 -0.137927 213 162 110
-0.145775 -0.935263 0.395439 109 8 178
0.0252483 -0.992994 0.262636 131 1 161
0.129988 0.370897 0.33034 144 175 170
0.33171 0.263395 -0.476582 170 161 67
-0.137652 0.357339 -0.373376 110 173 80
0.165611 -0.118031 -0.230374 149 112 98
0.472953 -0.881628 0.377146 188 15 176
-0.517145 -0.716832 0.269721 62 36 162
-0.399871 0.632039 -0.0818244 77 208 117
-0.447948 -0.955739 0.036298 70 6 132
-0.0508101 -0.477572 -0.012976 121 67 126
-0.188209 -0.372111 0.0317314 104 80 132
0.524783 0.523398 -0.0177661 194 194 125
-0.452022 0.384329 -0.147938 70 177 109
0.472374 -0.3242 0.253292 188 86 160
-0.245019 0.467001 -0.0332907 96 187 123
0.0159843 -0.843236 -0.622937 130 20 48
-0.0119865 -0.585991 0.356207 126 53 173
-0.426473 -0.329068 -0.179429 73 86 105
-0.356484 -0.367879 0.196699 82 81 153
-0.199409 0.418537 0.0866335 102 181 139
-0.274008 -0.463645 -0.433488 93 68 72
-0.340462 -0.980928 -0.172033 84 2 106
-0.190929 0.369514 -0.588922 103 175 52
0.350672 0.616504 0.186913 172 206 151
0.516748 -0.0700697 0.133515 193 119 145
-0.416789 -0.198248 0.0864709 74 102 139
0.256436 -0.552686 0.195167 160 57 152
-0.0701706 -0.484293 0.24936 119 66 159
-0.103806 -0.445941 -0.00533219 114 71 127
0.368392 -0.995716 -0.150293 174 1 108
0.403318 -0.826676 -0.478264 179 22 67
-0.0828177 0.710107 0.133316 117 218 144
0.406638 0.162354 -0.293196 179 148 90
0.240238 -0.559595 0.236178 158 56 158
-0.132739 -0.594394 0.127387 111 52 144
-0.29795 -0.51144 -0.421939 90 62 74
0.0957713 -0.572693 0.00192497 140 54 128
-0.519738 -0.987568 0.255232 61 2 160
-0.446706 -0.962931 0.0849236 71 5 138
0.501768 0.269067 -0.103404 191 162 114
0.527394 0.0452203 -0.020609 195 133 125
0.558308 -0.51597 0.144011 199 62 146
0.309952 0.531946 -0.43376 167 195 72
-0.422065 -0.837653 0.481468 74 21 189
-0.399269 0.702441 -0.195443 77 217 103
-0.449397 -0.877837 -0.317099 70 16 87
0.493259 -0.523716 -0.258529 190 61 95
0.055538 0.383911 0.311411 135 176 167
-0.32968 0.582998 0.172383 85 202 149
-0.420947 -0.756742 -0.381523 74 31 79
-0.0766375 -0.745594 0.199163 118 32 153
0.172536 -0.174448 -0.198435 149 105 102
0.509619 0.461732 -0.0011741 192 186 127
0.34421 0.540424 -0.403377 171 196 76
0.368714 0.558856 -0.427813 175 199 73
0.229262 0.233269 -0.452379 157 157 70
0.036957 -0.934025 0.178852 132 8 150
0.464947 0.538587 -0.443019 187 196 71
0.0495842 -0.804703 -0.634457 134 25 47
-0.00285672 0.798341 0.274796 127 229 163
-0.195902 -0.991117 0.30772 103 1 167
0.379645 0.399755 -0.482062 176 178 66
0.0845891 0.1226 -0.507561 138 143 63
0.235651 -0.658588 0.175972 158 44 150
-0.584647 -0.79475 0.147579 53 26 146
-0.0110971 0.795535 0.117125 126 229 142
0.571452 -0.575297 -0.160513 200 54 107
-0.467277 -0.519784 -0.0183819 68 61 125
-0.00991626 -0.0914131 -0.475704 126 116 67
0.428997 -0.996641 0.10069 182 0 140
0.369409 -0.995913 -0.0919369 175 1 116
0.091796 -0.153731 0.533906 139 108 196
0.324221 0.226124 -0.399909 169 156 77
0.336804 -0.617311 0.251897 170 49 160
0.41931 -0.737512 0.216804 181 33 155
0.145553 0.359543 -0.588223 146 173 53
0.400207 0.650974 0.0971058 179 210 140
-0.415812 -0.185094 -0.022061 74 104 125
-0.0270874 -0.19613 -0.448969 124 102 70
-0.339119 -0.854687 0.36122 84 19 174
0.504882 0.460855 -0.2562 192 186 95
-0.210083 0.209178 -0.227524 101 154 98
-0.0427202 0.304433 -0.62486 122 166 48
0.26091 -0.884323 0.146671 161 15 146
-0.291636 0.0770701 0.142293 90 137 146
-0.257817 0.331429 -0.0328034 95 170 123
-0.0427939 -0.992764 -0.37784 122 1 79
-0.379606 0.403248 -0.294786 79 179 90
0.497931 -0.558806 -0.378601 191 56 79
0.00676271 -0.516204 -0.0153672 128 62 126
0.393877 0.237098 0.177411 178 158 150
0.00591759 -0.298166 -0.121198 128 89 112
0.324721 -0.809199 0.334501 169 24 170
-0.432332 -0.296059 -0.00341664 72 90 127
0.458722 0.0077774 0.183917 186 128 151
-0.397559 -0.518296 -0.253361 77 61 95
0.161711 -0.993553 0.142679 148 1 146
0.572634 -0.813145 -0.105673 201 24 114
-0.306752 -0.0538604 -0.142226 88 121 109
-0.499227 -0.759805 0.101501 64 31 140
-0.360176 0.552365 0.20518 82 198 154
-0.0560684 -0.43589 -0.0307377 120 72 124
-0.080102 -0.991791 0.26607 117 1 161
-0.53643 0.348248 -0.0627212 59 172 120
-0.0520512 -0.693796 -0.539867 121 39 59
0.490628 0.395586 -0.195312 190 178 103
-0.298969 -0.650462 -0.482246 89 45 66
-0.496656 -0.684634 0.272915 64 40 162
-0.310085 0.215876 0.00508158 88 155 128
-0.0156886 -0.369958 -0.46597 125 80 68
0.459053 0.401424 -0.301422 186 179 89
0.455474 0.157793 0.118753 186 148 143
0.573758 -0.701231 0.080518 201 38 138
-0.177388 0.465653 -0.600824 105 187 51
-0.179695 -0.831132 -0.602983 105 22 51
-0.180782 -0.510475 0.104911 104 62 141
-0.349543 -0.898207 -0.486463 83 13 65
0.571195 0.36229 0.111981 200 174 142
-0.226981 0.372679 -0.19743 99 175 102
-0.351061 -0.989169 0.0326984 83 1 132
0.131669 -0.87999 0.0633583 144 15 136
0.0506469 -0.992549 0.172595 134 1 150
-0.180968 0.341018 0.37699 104 171 176
0.18309 -0.642847 0.245056 151 46 159
-0.371542 0.157674 -0.130778 80 148 111
0.316705 0.181372 -0.416534 168 151 74
0.268499 -0.310604 0.242734 162 88 158
-0.449981 -0.720834 -0.171485 70 36 106
-0.213068 -0.67775 0.200066 100 41 153
-0.549125 -0.831327 0.291706 57 22 165
-0.0280499 -0.99259 -0.248857 124 1 96
0.108466 0.523783 0.191661 141 194 152
-0.0529846 -0.558579 0.34447 121 56 171
0.10073 -0.994045 -0.281451 140 1 92
-0.26029 -0.989709 -0.450758 94 1 70
-0.260632 0.391315 -0.204808 94 177 101
-0.0418948 0.387888 0.261896 122 177 161
0.0641803 -0.684812 0.0224962 136 40 130
-0.261298 0.093995 0.333627 94 139 170
0.473196 0.384254 -0.436566 188 176 72
-0.306207 -0.047308 0.097655 88 121 140
0.26696 0.562681 0.302754 162 199 166
0.0314656 0.117778 -0.295546 132 143 90
-0.110708 0.894564 0.107622 113 242 141
-0.349284 -0.170133 -0.037213 83 106 123
-0.346439 -0.233416 -0.059557 83 98 120
-0.0431426 0.243354 0.530726 122 159 195
0.159989 -0.99324 -0.0833249 148 1 117
0.227581 -0.387523 -0.0576562 157 78 120
0.0505159 -0.675592 -0.601978 134 41 51
0.00817303 0.136827 0.608286 129 145 205
0.371651 0.596705 -0.0300102 175 204 124
-0.231193 -0.131681 0.152375 98 111 147
-0.0059524 -0.991491 0.332125 127 1 170
-0.414006 -0.631238 0.305221 75 47 166
-0.141117 -0.991137 -0.140015 110 1 110
0.01624 -0.440657 0.389038 130 71 177
0.510906 -0.408286 0.0755662 193 75 137
-0.173191 -0.0249617 -0.425687 105 124 73
0.0123391 -0.117755 0.385204 129 112 177
0.220869 0.0285923 -0.311151 156 131 88
0.201541 -0.707802 0.299228 153 37 166
0.515465 -0.744494 0.15359 193 33 147
0.539895 0.612336 -0.243752 196 206 96
0.552442 -0.795395 0.107805 198 26 141
0.3291 0.330729 0.253695 169 170 160
0.0537895 0.528858 -0.648018 134 195 45
0.0373023 -0.539987 0.374319 132 59 175
-0.290241 0.314172 0.161077 90 168 148
-0.146577 -0.414774 0.0209704 109 75 130
-0.201394 0.227877 0.424356 102 157 182
-0.0888736 0.774837 0.109875 116 226 142
0.269343 -0.302471 -0.0755819 162 89 118
0.408431 0.320358 -0.0860828 180 168 117
-0.4511 0.182148 0.211197 70 151 154
-0.0141472 -0.992894 -0.428344 126 1 73
0.36786 0.879363 0.060603 174 240 135
0.433443 0.507125 0.123686 183 192 143
0.275411 0.298432 0.396347 163 166 178
-0.513829 -0.869283 0.139367 62 17 145
0.408154 -0.0889515 0.275963 180 116 163
-0.0374689 -0.144638 0.535007 123 109 196
0.54391 -0.146314 0.113951 197 109 142
-0.273046 -0.28791 0.0172977 93 91 130
0.355734 -0.420765 0.180625 173 74 151
0.32532 0.0439015 -0.278118 169 133 92
-0.300649 0.549349 -0.105378 89 198 114
-0.0532566 -0.0398929 0.647234 121 122 210
-0.147059 0.617982 0.276708 109 206 163
0.293552 0.213059 0.314629 165 155 168
-0.425961 -0.988876 0.265092 73 1 161
-0.19948 -0.824821 0.37913 102 22 176
-0.409916 0.654688 -0.260305 75 211 94
-0.0102245 0.38205 -0.454014 126 176 70
0.220291 0.24277 0.497395 156 158 191
-0.241947 0.297883 0.248679 97 165 159
0.40069 0.698943 0.180581 179 217 151
-0.595548 -0.898062 0.200217 52 13 153
0.374833 0.773648 0.181726 175 226 151
0.143761 -0.140688 -0.464756 146 110 68
-0.0364353 0.122203 -0.290027 123 143 91
-0.211402 -0.916252 0.405932 101 11 179
0.208466 -0.821955 -0.548091 154 23 58
0.330685 -0.163242 -0.18172 170 107 104
-0.166042 0.841061 0.136352 106 235 145
0.512568 -0.342195 -0.116751 193 84 113
-0.0367794 0.0215042 -0.493452 123 130 65
-0.356364 0.244695 -0.141187 82 159 109
0.462605 -0.736474 0.247563 186 34 159
-0.135857 -0.632663 -0.533758 110 47 59
0.379736 0.503799 -0.516092 176 192 62
-0.548651 0.223712 -0.167131 58 156 106
-0.0171989 -0.991575 0.0920453 125 1 139
0.249542 -0.297592 0.348736 159 90 172
0.105074 0.0600984 0.369369 141 135 175
-0.305631 -0.874812 -0.498703 89 16 64
0.0832086 0.337119 -0.615588 138 170 49
-0.00532686 -0.985526 -0.597421 127 2 51
0.289838 0.0126844 0.514729 164 129 193
0.54329 -0.0136134 0.0362287 197 126 132
-0.409991 -0.0979304 -0.151338 75 115 108
0.181983 -0.371861 -0.0832776 151 80 117
0.397182 0.0514928 0.127837 178 134 144
0.241273 0.735373 0.0681081 158 221 136
-0.157312 0.232608 0.305661 107 157 166
0.538906 0.0325129 0.0683437 196 132 136
0.0593386 -0.988159 0.348625 135 2 172
0.0647061 -0.511485 -0.554094 136 62 57
0.100025 0.246032 0.349043 140 159 172
0.103326 -0.950815 -0.549822 141 6 57
0.126335 -0.0321008 0.383242 144 123 176
-0.450026 -0.92104 0.131314 70 10 144
0.0566851 0.336375 -0.639056 135 170 46
0.0491012 -0.660337 0.344701 134 43 171
0.31654 0.738355 0.00383328 168 222 128
-0.278836 -0.557095 -0.478321 92 56 67
0.190228 -0.543766 0.227043 152 58 156
0.416183 0.632543 0.132453 181 208 144
-0.156416 0.261332 -0.23332 108 161 98
0.507155 -0.886366 -0.191537 192 14 103
-0.147151 -0.54887 0.205025 109 58 154
-0.294606 -0.107699 -0.261367 90 114 94
0.411936 0.675577 0.027354 180 214 131
0.0926091 -0.738041 0.327601 139 33 169
0.102162 -0.993504 0.251842 141 1 160
0.0784967 0.477787 0.229509 138 188 157
0.113969 -0.152222 -0.213368 142 108 100
0.289058 0.694109 0.0443504 164 216 133
0.318196 -0.238458 -0.0927403 168 97 116
0.301634 -0.455392 0.208273 166 69 154
0.397954 0.178658 0.151884 178 150 147
-0.40449 -0.340687 -0.254192 76 84 95
-0.102318 0.292075 0.407019 114 165 179
-0.398858 -0.260932 -0.169743 77 94 106
-0.132411 0.860743 0.178184 111 237 150
0.446064 0.275349 -0.191697 184 163 103
-0.0484785 -0.991058 -0.0852815 121 1 117
-0.192885 -0.120079 0.363925 103 112 174
-0.0908922 0.65278 0.149172 116 211 147
0.33315 -0.908273 0.376604 170 12 176
-0.19323 -0.332625 -0.392862 103 85 77
0.303552 0.00156517 0.282421 166 128 164
-0.22509 -0.75976 -0.496796 99 31 64
-0.270646 -0.0993 0.0904024 93 115 139
-0.00227175 -0.91226 0.0819944 127 11 138
0.241428 0.25159 0.360723 158 160 173
0.0551952 -0.0610589 -0.273375 135 120 93
-0.445637 -0.0129792 0.109235 71 126 141
0.574948 -0.759761 0.0756767 201 31 137
0.518173 -0.960562 0.063748 194 5 136
-0.329284 -0.75375 0.425464 86 31 182
-0.0376351 -0.953507 -0.560784 123 6 56
-0.296163 0.0677793 -0.159432 90 136 107
0.242162 -0.0668233 0.543388 158 119 197
-0.348983 -0.854255 -0.501192 83 19 64
-0.210449 0.356755 -0.228397 101 173 98
0.480073 0.608083 -0.346822 189 205 83
-0.213026 -0.927743 -0.477519 100 9 67
-0.0470531 0.527275 0.292544 122 195 165
-0.399237 0.517878 0.146174 77 194 146
-0.303568 0.321865 -0.230501 89 169 98
-0.209679 0.870434 0.0702672 101 238 136
0.573263 -0.634688 -0.226584 201 47 99
0.470732 -0.693644 0.111148 188 39 142
0.322544 0.00946436 0.203171 169 129 153
-0.302412 0.562935 0.232903 89 199 157
0.427413 -0.115926 0.278524 182 113 163
0.447307 0.618848 -0.282529 185 206 91
0.301194 0.0307677 -0.321263 166 131 87
-0.371075 -0.989089 0.163506 80 1 148
-0.143233 -0.399596 0.246695 109 77 159
0.457104 -0.403863 0.272154 186 76 162
-0.366568 -0.395156 -0.31892 81 77 87
-0.269502 0.492886 -0.0414111 93 190 122
0.55276 0.214603 0.173582 198 155 150
0.557065 0.271317 0.0706296 199 162 137
0.0879061 -0.395998 0.340048 139 77 171
0.0509915 0.134078 0.609703 134 145 205
-0.0354751 -0.992432 0.267383 123 1 162
0.0935335 -0.062775 0.38586 139 119 177
0.140861 0.128526 0.356362 145 144 173
-0.101584 -0.734732 -0.586931 115 34 53
0.565835 0.111032 -0.172046 200 142 106
0.495052 0.593753 -0.167699 191 203 106
-0.00356854 -0.163718 0.379159 127 107 176
-0.346182 -0.798046 -0.427728 83 26 73
0.474941 -0.997223 -0.146572 188 0 109
0.607292 0.167277 -0.200406 205 149 102
-0.0240888 -0.333868 -0.447013 124 85 71
0.536565 -0.557108 -0.232883 196 56 98
0.555336 -0.412365 -0.0470855 198 75 121
-0.447395 -8.07241e-05 -0.0113853 70 127 126
-0.226707 0.218104 -0.367633 99 155 81
0.144457 -0.183785 -0.454989 146 104 69
0.287412 -0.0161386 0.505139 164 125 192
0.497622 -0.155086 0.275862 191 108 163
-0.0949097 -0.223012 -0.413205 115 99 75
-0.288772 -0.659559 0.305789 91 43 166
0.416429 0.365375 0.189924 181 174 152
0.0208627 -0.154938 0.539366 130 108 196
0.36036 0.404871 0.066964 173 179 136
-0.0242675 0.305598 -0.385798 124 166 78
-0.201501 0.373686 -0.321525 102 175 87
-0.515617 0.203387 -0.0597047 62 153 120
0.0457576 0.970263 0.141136 133 251 145
-0.268495 0.457236 0.211543 93 186 154
0.0296021 -0.708758 0.238241 131 37 158
0.144973 -0.835874 0.342536 146 21 171
0.228973 0.739237 0.280106 157 222 163
0.129983 -0.83166 0.25725 144 21 160
-0.406952 0.136102 0.0679692 76 145 136
0.451085 -0.524633 -0.401208 185 61 76
-0.131703 -0.333332 -0.0727388 111 85 118
-0.418507 -0.172943 -0.0843629 74 105 117
0.463159 0.491822 0.204942 187 190 154
0.381892 0.377248 -0.0364696 176 176 123
0.17182 0.368581 -0.429123 149 174 73
-0.363672 0.0875991 -0.181715 81 139 104
-0.351563 -0.124376 0.204556 83 112 154
0.512668 -0.368907 -0.087433 193 80 116
0.42879 0.559171 0.234709 182 199 157
0.0859661 -0.992565 0.0757917 138 1 137
0.456891 0.441825 0.0298593 186 184 131
-0.31763 -0.410877 0.218343 87 75 155
-0.320022 -0.662865 -0.432989 87 43 72
-0.113342 0.294789 -0.598948 113 165 51
0.225714 -0.264893 0.265794 156 94 161
-0.351764 -0.453848 -0.356136 83 70 82
0.39409 -0.410698 0.337934 178 75 171
0.0961884 -0.102659 0.631212 140 114 208
-0.522621 -0.894249 0.515985 61 13 193
0.420599 0.33782 -0.0211035 181 171 125
-0.688973 -0.894031 0.394027 40 14 178
-0.165808 -0.639844 -0.505512 106 46 63
-0.0319263 -0.991681 0.131859 123 1 144
-0.439727 -0.0771736 0.157098 71 118 148
0.561048 0.223847 0.0970086 199 156 140
0.349894 0.120041 0.364078 172 143 174
-0.302691 0.486974 -0.245707 89 190 96
-0.330174 -0.746691 -0.522731 85 32 61
-0.08757 -0.830633 0.335269 116 22 170
0.112086 0.52927 -0.644219 142 195 45
0.174432 -0.127774 0.544213 150 111 197
0.342863 -0.525463 0.210042 171 61 154
0.445478 0.145212 0.00666849 184 146 128
0.389482 -0.0912118 0.11027 177 116 142
0.248252 -0.857212 0.136098 159 18 145
-0.188404 -0.266737 -0.113293 103 93 113
-0.379155 0.556224 0.171972 79 198 149
-0.341927 -0.0118089 0.297808 84 126 165
0.202967 0.102187 0.352379 153 141 172
0.135583 0.259545 0.507742 145 161 192
0.327048 -0.593089 -0.527105 169 52 60
0.277254 -0.349908 0.350918 163 83 172
-0.436855 -0.270798 0.0118865 72 93 129
-0.331399 -0.656054 0.303897 85 44 166
0.0588152 0.18442 -0.508713 135 151 63
0.0159915 0.483693 0.344506 130 189 171
-0.335201 0.114302 -0.00954243 85 142 126
-0.113966 0.759663 0.241708 113 224 158
-0.383711 -0.457691 0.208427 79 69 154
0.446054 0.234733 -0.0684172 184 157 119
-0.0393377 0.568297 0.160571 122 200 148
-0.498115 -0.40617 0.175983 64 76 150
-0.438171 -0.375512 -0.0343424 72 80 123
-0.541659 -0.609249 0.111566 58 50 142
-0.42344 0.426747 0.167688 74 182 149
-0.520779 -0.988156 0.352435 61 2 172
-0.341612 0.0002277 0.260236 84 128 161
0.480251 0.553973 -0.0530798 189 198 121
0.137341 -0.992868 -0.0622311 145 1 120
0.421252 0.816908 0.062335 181 232 135
0.545438 -0.952592 0.144331 197 6 146
0.0543213 0.459792 0.237318 134 186 158
0.422106 0.340985 -0.443726 181 171 71
-0.34777 -0.916273 -0.441616 83 11 71
0.54754 -0.470662 -0.121452 197 67 112
-0.163583 -0.147152 -0.251804 107 109 95
-0.345217 -0.987184 -0.225004 83 2 99
-0.0108256 -0.915964 0.382257 126 11 176
0.520156 -0.65824 0.123266 194 44 143
-0.0494685 -0.206878 0.308309 121 101 167
0.43219 0.553236 0.201619 183 198 153
0.493241 0.195026 0.202517 190 152 153
-0.195808 -0.596781 0.135086 103 51 145
-0.41502 -0.414479 0.198806 75 75 153
0.260184 -0.148723 0.316811 161 109 168
0.558024 -0.664141 -0.165269 199 43 106
-0.498252 0.152973 -0.128874 64 147 111
-0.16821 0.251312 0.429374 106 160 182
0.118767 -0.868921 -0.57741 143 17 54
-0.168466 0.23998 0.188106 106 158 151
0.3288 0.839399 0.0230671 169 235 130
0.495061 -0.0135316 -0.178758 191 126 105
-0.465483 -0.431018 0.0185516 68 73 130
0.109426 0.00561722 -0.280889 141 128 92
-0.491941 -0.61097 0.240073 65 50 158
0.395787 0.319286 0.128342 178 168 144
0.523971 -0.216274 0.10944 194 100 141
0.311607 0.879892 0.111086 167 240 142
-0.480184 -0.73839 0.0340808 66 33 132
-0.455287 -0.321138 0.0322522 69 87 132
-0.317709 0.00957788 0.0942893 87 129 140
-0.449184 -0.988897 0.334277 70 1 170
-0.33577 -0.989549 0.252535 85 1 160
0.22898 0.226696 0.348139 157 156 172
-0.01045 -0.745386 -0.551323 126 32 57
-0.446581 0.160204 0.187413 71 148 151
0.0252622 -0.371474 0.332479 131 80 170
-0.100226 -0.550509 0.30329 115 57 166
0.364202 0.112405 -0.231494 174 142 98
0.390153 -0.172845 -0.0232853 177 105 125
-0.309922 0.495943 -0.20873 88 191 101
-0.0542846 0.695186 0.258017 121 216 160
0.268429 0.91951 0.118679 162 245 143
0.226105 -0.594845 0.0483405 156 52 134
0.0774601 0.505763 0.341654 137 192 171
0.36694 -0.996204 0.0258836 174 0 131
-0.388794 -0.819333 -0.25426 78 23 95
-0.081544 0.0753697 -0.289585 117 137 91
-0.233922 -0.0878749 -0.383849 98 116 79
-0.0612744 0.292506 -0.326217 120 165 86
-0.494447 -0.850185 0.403191 64 19 179
-0.228595 0.692212 0.193746 98 216 152
-0.228983 0.390513 -0.54536 98 177 58
-0.439878 0.364608 -0.0196898 71 174 125
-0.0494897 -0.535388 0.0207828 121 59 130
0.259747 -0.0874723 0.322186 161 116 169
0.337129 0.616579 0.24382 170 206 159
-0.0045082 -0.312939 0.330359 127 88 170
0.593418 -0.813712 -0.0451017 203 24 122
-0.434412 -0.337075 0.0790687 72 85 138
0.0874194 -0.220241 -0.461398 139 99 69
0.054171 -0.150017 0.551209 134 108 198
0.205988 0.461328 0.322696 154 186 169
0.417467 0.726304 -0.125097 181 220 112
-0.340778 -0.963963 0.310869 84 5 167
-0.445623 0.726418 -0.145529 71 220 109
0.378761 -0.317901 0.102052 176 87 141
0.220201 -0.385478 -0.489714 156 78 65
-0.395064 -0.770929 -0.260697 77 29 94
-0.283968 -0.257088 -0.0696661 91 95 119
0.408157 0.531338 -0.11368 180 195 113
-0.407795 -0.245088 0.230393 76 96 157
-0.425427 0.199129 0.0862158 73 153 138
-0.145047 0.269356 0.414648 109 162 180
-0.288144 0.336421 -0.374446 91 170 80
0.19392 0.92512 0.221241 152 245 156
0.62354 0.261746 -0.0642275 207 161 119
-0.592469 -0.928771 0.237229 52 9 158
-0.0397209 0.425316 0.223141 122 182 156
0.0509912 -0.105772 0.636459 134 114 209
0.450691 -0.997407 0.245765 185 0 159
-0.253376 0.295853 0.0382056 95 165 132
0.467321 0.57213 0.134002 187 200 145
0.124674 -0.806885 0.346667 143 25 172
-0.0954225 0.886159 0.216051 115 240 155
0.0411984 -0.993303 -0.263714 133 1 94
-0.155128 0.035107 0.414972 108 132 180
-0.289573 -0.256545 0.258867 91 95 161
-0.544423 -0.519725 0.152549 58 61 147
-0.241822 0.324417 -0.367895 97 169 81
-0.0731185 0.329841 0.397833 118 170 178
0.516948 -0.970104 -0.329191 193 4 86
0.0595333 -0.188151 0.366645 135 104 174
-0.354743 -0.989063 0.0763588 82 1 137
0.565506 -0.500777 -0.110687 200 64 113
0.526193 0.52819 0.0148549 195 195 129
-0.608044 -0.983952 0.385037 50 2 177
0.342189 -0.35797 0.0542539 171 82 134
0.542476 -0.0722196 0.0826983 197 118 138
-0.183525 0.292442 -0.470729 104 165 67
-0.375188 -0.613451 -0.419831 80 49 74
0.272655 -0.994621 0.0641799 162 1 136
-0.1525 -0.498261 0.0725564 108 64 137
0.519546 0.502885 -0.0753383 194 192 118
-0.197869 0.391723 0.280936 102 177 163
0.477095 -0.808278 -0.366246 188 24 81
0.531811 -0.999831 0.305812 195 0 166
-0.434371 -0.750006 -0.325156 72 32 86
-0.319193 -0.990043 -0.280658 87 1 92
-0.273143 -0.0530265 0.135107 93 121 145
0.0528878 -0.870366 0.247743 134 17 159
0.0154258 -0.661179 0.244389 129 43 159
-0.0934492 0.543415 0.249471 116 197 159
0.12802 0.226316 0.531651 144 156 195
0.0920291 -0.992954 0.153629 139 1 147
-0.360076 -0.0667386 0.204666 82 119 154
-0.367178 -0.724915 0.391902 81 35 177
0.411052 -0.484654 -0.410539 180 66 75
-0.401364 0.606093 0.00289368 76 205 128
0.27404 -0.463491 0.0275462 162 68 131
0.221336 -0.247635 -0.454941 156 96 69
-0.408019 -0.411504 -0.231997 75 75 98
0.25372 -0.0805338 -0.447995 160 117 70
-0.244022 -0.0640758 0.31366 96 119 167
0.34892 -0.654938 0.17493 172 44 150
0.416058 0.338115 -0.401163 181 171 76
-0.323496 0.651406 -0.1185 86 211 112
0.496231 0.342931 -0.299435 191 171 89
0.573338 -0.779261 0.276466 201 28 163
0.218354 0.170707 0.342885 155 149 171
-0.220316 -0.990969 -0.342488 99 1 84
0.352341 -0.54857 0.146619 172 58 146
-0.289174 -0.30504 -0.360249 91 89 82
0.19715 0.169349 -0.478034 153 149 67
-0.249413 0.337539 -0.00535361 96 171 127
-0.533433 -0.925918 0.172655 59 9 150
-0.256818 0.570226 -0.507202 95 200 63
0.465708 0.101057 0.226193 187 140 156
0.108659 0.633926 0.281479 141 208 163
-0.447526 -0.496355 -0.133417 70 64 110
0.332245 0.376179 -0.317841 170 175 87
0.48115 -0.444969 0.233588 189 71 157
-0.520496 -0.456017 0.180719 61 69 151
-0.421464 -0.853353 -0.263851 74 19 94
-0.085919 -0.554814 -0.523525 117 57 61
0.0395263 0.220427 0.351932 133 156 172
0.126994 -0.41656 0.329432 144 74 170
-0.362056 0.521293 -0.461987 81 194 69
-0.153081 -0.0860472 0.508455 108 117 192
0.361743 0.456412 -0.495602 174 186 64
0.302497 -0.960273 -0.525708 166 5 60
0.439483 -0.311942 -0.264737 184 88 94
-0.224178 -0.184572 -0.365043 99 104 81
0.495691 0.304764 -0.0620509 191 166 120
0.554368 0.448255 -0.111497 198 185 113
-0.304774 0.21661 -0.0829808 89 155 117
-0.27866 0.531731 -0.0572611 92 195 120
-0.402194 -0.94346 0.395766 76 7 178
0.149767 0.421495 -0.469024 147 181 68
-0.0943735 -0.154607 0.463922 115 108 187
0.344758 0.657497 0.171062 171 211 149
0.506892 0.539085 -0.286508 192 196 91
-0.291662 0.0569862 -0.356707 90 135 82
-0.0784039 0.150524 0.559103 118 147 199
0.237413 -0.242113 0.25164 158 97 160
0.48704 -0.76635 0.325331 190 30 169
0.100546 0.809532 0.112311 140 231 142
0.388955 0.0257585 0.116614 177 131 142
-0.190897 -0.990398 0.239513 103 1 158
0.514002 -0.222128 0.0328475 193 99 132
0.0561672 -0.991969 -0.00293132 135 1 127
-0.257972 -0.0121305 0.321179 95 126 168
-0.389837 -0.0518789 -0.181866 78 121 104
-0.204737 0.347189 -0.201379 101 172 102
0.271773 0.71655 0.264782 162 219 161
-0.232092 0.673696 0.0318217 98 213 132
-0.254253 -0.0947861 0.275016 95 115 163
0.0848441 0.695859 0.229824 138 216 157
0.243104 -0.918752 0.207587 158 10 154
0.234972 -0.00984626 0.578606 157 126 201
0.0679691 0.86099 0.170826 136 237 149
-0.185513 -0.805628 -0.588722 104 25 52
0.059714 -0.746956 -0.604557 135 32 50
0.101555 -0.611706 -0.583204 140 50 53
-0.195853 0.166946 0.489797 103 149 190
0.351444 -0.257147 -0.377565 172 95 79
0.0149211 -0.347801 0.397351 129 83 178
0.399919 0.17083 0.245801 178 149 159
0.475027 0.252537 -0.141429 188 160 109
0.540069 -0.91998 -0.307272 196 10 88
0.263214 0.386432 -0.393542 161 177 77
-0.239574 0.443244 -0.060486 97 184 120
-0.523316 -0.770163 0.268823 61 29 162
-0.278163 0.140669 0.28479 92 145 164
0.522654 0.483917 0.0142598 194 189 129
-0.529173 -0.628234 0.248953 60 47 159
-0.549778 -0.667499 0.103649 57 42 141
0.527548 -0.684423 0.0991049 195 40 140
-0.0128579 0.00258573 0.652386 126 128 211
-0.170897 -0.0681941 -0.298859 106 119 89
-0.0118363 -0.595222 0.0165685 126 52 130
-0.459119 -0.318628 0.186593 69 87 151
-0.159688 0.164341 0.387268 107 148 177
-0.137484 0.369369 0.204587 110 175 154
0.0991794 0.29793 -0.61411 140 165 49
-0.197186 0.338506 0.350601 102 171 172
-0.14824 -0.114648 -0.273234 109 113 93
0.398048 0.503141 -0.275384 178 192 92
0.319586 -0.221697 -0.378891 168 99 79
0.451615 0.298563 0.0233032 185 166 130
0.0463333 -0.992158 0.102826 133 1 141
0.592612 -0.768729 -0.17754 203 29 105
0.0281157 -0.345924 -0.0906131 131 83 116
-0.193452 0.937096 0.135316 103 247 145
0.193329 -0.99413 -0.145539 152 1 109
0.363024 -0.427689 -0.431021 174 73 73
0.544555 -0.586927 -0.0964628 197 53 115
-0.0748629 -0.350776 -0.439659 118 83 71
0.409674 0.55132 0.155214 180 198 147
0.413263 -0.00370034 0.204754 180 127 154
0.528317 0.522855 -0.24109 195 194 97
0.468694 0.549077 -0.353446 187 198 82
-0.414468 0.558364 -0.0675791 75 199 119
-0.0089184 -0.108222 -0.251319 126 114 95
-0.320887 -0.704075 -0.479268 87 38 66
-0.471289 0.473714 -0.0615058 67 188 120
0.0729322 -0.870382 0.361773 137 17 174
-0.0674137 -0.196527 0.40755 119 102 179
0.0667495 -0.809141 0.249502 136 24 159
-0.176818 -0.134908 -0.415711 105 110 74
0.28536 -0.650378 0.204068 164 45 154
-0.14581 0.535214 0.237525 109 196 158
0.0568192 0.454283 -0.653909 135 185 44
-0.160491 -0.587969 0.0993029 107 53 140
0.363858 -0.0948471 0.142291 174 115 146
0.334856 0.433767 0.0785769 170 183 138
0.285301 0.385334 -0.546072 164 177 58
-0.108048 0.0231161 -0.293112 114 130 90
0.490294 -0.559693 -0.28284 190 56 91
-0.338094 0.0110566 0.233535 84 129 157
0.479786 0.104981 -0.182201 189 141 104
-0.489811 -0.656453 0.271739 65 44 162
-0.343373 -0.892861 -0.361795 84 14 81
0.318865 -0.0125325 -0.281844 168 126 92
-0.0468132 -0.859165 0.233972 122 18 157
0.596371 -0.664057 0.0052071 204 43 128
0.0665237 -0.027648 -0.275184 136 124 92
0.026744 -0.991871 -0.0936303 131 1 116
-0.394765 -0.626373 -0.354561 77 48 82
0.259531 -0.995557 -0.399545 161 1 77
-0.142741 -0.209355 -0.413283 109 101 75
-0.0959902 -0.0662819 0.596067 115 119 203
0.194871 0.45359 -0.472308 152 185 67
-0.304855 -0.963607 -0.502077 89 5 63
0.244089 -0.220747 0.291393 159 99 165
0.348167 0.164307 -0.254211 172 148 95
0.0104261 -0.926938 -0.631128 129 9 47
-0.384201 -0.163252 -0.2201 79 107 99
0.171054 0.622871 0.166696 149 207 149
-0.159598 -0.0613587 0.298274 107 120 166
-0.463604 -0.0220457 0.0696724 68 125 136
-0.166235 -0.310801 0.191576 106 88 152
-0.125431 -0.990373 -0.0418099 112 1 122
0.562488 -0.632743 0.123349 199 47 143
0.00444812 0.128183 -0.294716 128 144 90
0.0780789 -0.99389 -0.445888 137 1 71
0.0939126 0.372041 0.395683 139 175 178
-0.0140521 -0.991381 0.0315486 126 1 132
0.297392 0.689798 0.239955 165 215 158
-0.410674 0.284098 0.0587019 75 164 135
0.218122 0.439795 -0.620666 155 184 48
0.296687 -0.324269 0.325278 165 86 169
0.225131 0.0395048 0.578105 156 133 201
0.216542 -0.456367 0.220123 155 69 156
-0.076363 0.111277 -0.493006 118 142 65
-0.281189 0.450635 -0.48752 92 185 65
0.158603 0.553585 -0.607666 148 198 50
-0.476108 0.458378 0.00782796 67 186 128
0.343304 0.126693 -0.402381 171 144 76
-0.19658 -0.35998 0.230241 102 82 157
-0.197608 -0.708213 0.276775 102 37 163
-0.394171 0.259276 -0.0971886 77 161 115
0.497108 -0.671679 -0.445728 191 42 71
-0.10818 -0.091633 0.559938 114 116 199
0.33607 0.258573 0.180082 170 160 150
0.373378 -0.158956 -0.358726 175 107 82
0.399025 0.433943 0.198249 178 183 153
-0.281024 -0.0710694 0.266308 92 118 161
0.200302 -0.678026 0.231248 153 41 157
0.416142 0.565201 -0.232698 181 200 98
-0.457554 -0.534075 -0.104259 69 59 114
0.308896 0.459688 0.125813 167 186 144
0.0231689 -0.183046 0.482469 130 104 189
0.0738061 -0.564545 0.26016 137 56 161
0.511133 0.516705 -0.125619 193 193 111
-0.449948 0.441031 0.165611 70 184 149
-0.0225431 0.759384 0.129064 125 224 144
-0.624468 -0.716746 0.189229 48 36 152
0.438756 0.0622745 0.260368 183 135 161
0.352048 0.171408 0.342009 172 149 171
0.339572 -0.284278 0.205499 171 91 154
-0.299846 -0.863777 0.337398 89 17 171
0.502862 -0.901451 -0.0250577 192 13 124
0.467843 0.382322 -0.131657 187 176 111
-0.369733 0.0522642 0.20658 80 134 154
0.480823 0.3795 0.0379346 189 176 132
-0.245334 -0.989688 0.110881 96 1 142
0.334064 0.167178 0.439127 170 149 183
0.0312667 -0.631804 0.351879 131 47 172
-0.427968 -0.68972 0.341531 73 40 171
-0.229378 0.356554 -0.0801502 98 173 117
0.00449853 -0.125558 0.597608 128 111 204
-0.018445 -0.828684 0.335315 125 22 170
0.126396 -0.935039 0.125613 144 8 144
-0.0238248 -0.658021 0.241204 124 44 158
0.500898 0.410841 -0.173128 191 180 105
0.269827 -0.0354847 0.524421 162 123 194
0.477428 -0.874205 -0.353692 188 16 82
0.236002 0.533896 -0.501368 158 196 64
0.330872 -0.9459 -0.486807 170 7 65
-0.0402662 0.878231 0.228496 122 239 157
-0.494649 -0.838755 -0.0187385 64 21 125
-0.271372 -0.199112 -0.164974 93 102 106
-0.4077 -0.974529 0.126757 76 3 144
-0.629885 -0.895932 0.243576 47 13 159
0.449229 -0.561895 0.240518 185 56 158
-0.218955 -0.331222 0.227793 100 85 157
-0.278725 0.46381 -0.310066 92 187 88
0.503742 0.0531312 0.119909 192 134 143
-0.0892009 -0.533902 0.238975 116 59 158
-0.0550787 0.436592 -0.587305 120 183 53
-0.42152 -0.402234 -0.179391 74 76 105
0.134104 0.43296 0.281018 145 183 163
-0.0465498 -0.444612 0.272516 122 71 162
-0.0446284 -0.605648 -0.530468 122 50 60
-0.118543 -0.524405 -0.50244 112 61 63
0.0323012 0.832824 0.193438 132 234 152
-0.350575 0.212254 -0.163181 83 155 107
-0.0647646 0.911562 0.177492 119 244 150
0.672383 0.322216 -0.179127 213 169 105
-0.420579 -0.214234 0.117104 74 100 142
-0.374882 -0.431054 -0.340267 80 73 84
0.233536 -0.798 0.101504 157 26 140
0.43591 -0.997288 -0.0735331 183 0 118
0.365405 0.337527 0.190231 174 171 152
0.119081 -0.879253 0.369881 143 15 175
-0.490427 0.293849 -0.151149 65 165 108
0.171322 -0.340343 -0.464266 149 84 68
-0.378416 0.0401741 -0.173043 79 133 105
0.409415 0.558604 -0.126929 180 199 111
-0.390376 0.32969 0.171463 78 170 149
-0.140552 -0.148194 0.419394 110 109 181
0.0136672 -0.267013 -0.45558 129 93 69
0.267083 0.81979 0.139533 162 232 145
0.522466 -0.396258 -0.190143 194 77 103
0.00152806 0.352361 -0.652773 128 172 44
-0.193053 0.105149 0.325013 103 141 169
-0.291224 0.732351 0.109314 90 221 141
0.349054 0.0905094 0.362879 172 139 174
-0.263933 -0.250683 0.0872881 94 96 139
-0.237114 -0.469184 0.197294 97 68 153
-0.208972 -0.991024 -0.223461 101 1 99
-0.0113506 0.328942 -0.615269 126 169 49
-0.165022 0.199173 -0.252124 106 153 95
0.217821 0.0991973 -0.4844 155 140 66
-0.2799 0.458378 -0.0833889 92 186 117
-0.383716 0.34323 -0.211369 79 171 101
-0.0361238 -0.336003 0.379759 123 85 176
0.278687 -0.636625 0.0909008 163 46 139
0.52596 -0.209821 0.151962 195 101 147
-0.0825666 -0.521569 -0.500423 117 61 64
-0.333866 -0.200871 -0.00459739 85 102 127
0.358041 -0.256719 0.18106 173 95 151
0.260019 0.573488 0.106705 161 201 141
0.110264 0.816093 0.235114 142 232 157
0.248186 -0.271467 -0.125375 159 93 112
0.381183 0.171625 -0.198313 176 149 102
0.378756 0.00794977 0.28328 176 129 164
-0.223102 -0.13584 -0.378668 99 110 79
0.438098 -0.392014 -0.354047 183 78 82
0.156226 -0.993306 0.0404415 147 1 133
0.195936 -0.736967 0.0700271 152 34 136
-0.41291 0.458646 -0.425769 75 186 73
-0.412953 0.117799 0.089203 75 143 139
-0.0784112 0.511311 0.287078 118 193 164
0.423333 -0.369265 0.354079 181 80 173
0.582926 0.0862482 -0.149237 202 138 108
0.460901 -0.792066 -0.46818 186 27 68
-0.333589 -0.244998 -0.0352622 85 96 123
-0.168865 -0.695412 -0.528516 106 39 60
0.443062 0.467742 0.090515 184 187 139
-0.503418 -0.98822 0.31073 63 2 167
0.491697 -0.384698 0.0545927 190 78 134
0.252835 0.267933 -0.472146 160 162 67
-0.0861597 0.295725 -0.312429 117 165 88
0.401684 0.320454 -0.45031 179 168 70
0.274102 0.141484 0.338578 162 146 171
0.199954 -0.537403 0.0214272 153 59 130
-0.414134 0.567277 -0.306918 75 200 88
0.277802 -0.59812 0.0723531 163 51 137
0.378589 -0.177317 0.183379 176 105 151
-0.199335 -0.159215 0.272814 102 107 162
-0.353676 -0.491335 -0.376662 82 65 79
-0.131524 -0.691405 0.0843132 111 39 138
0.494089 0.306119 -0.00495608 190 167 127
0.384122 -0.286477 0.108915 176 91 141
0.110821 0.49976 0.213156 142 191 155
-0.420292 -0.867796 -0.0650724 74 17 119
0.130025 0.252966 -0.506192 144 160 63
-0.243306 -0.543845 -0.472187 96 58 67
0.301554 0.187763 0.495493 166 151 191
-0.0776865 -0.346761 0.260288 118 83 161
0.0919351 0.107415 0.365 139 141 174
0.537956 -0.534456 -0.211114 196 59 101
-0.00980419 -0.243474 0.409143 126 96 180
0.0212602 -0.621535 -0.581618 130 48 53
-0.217326 0.774631 0.0409981 100 226 133
0.328353 0.796441 0.134588 169 229 145
0.5139 -0.163592 0.246779 193 107 159
-0.12145 -0.679574 -0.58889 112 41 52
0.139381 0.292117 0.445803 145 165 184
-0.355536 -0.0890564 -0.301264 82 116 89
0.226503 -0.99402 0.0886776 156 1 139
0.187826 0.0823656 0.57006 151 138 200
0.36395 -0.32707 0.0679987 174 86 136
0.492918 -0.611536 -0.430509 190 50 73
-0.509928 -0.501994 0.0902158 62 63 139
0.192982 0.139072 -0.483964 152 145 66
0.119772 -0.684608 0.338387 143 40 171
0.0261814 0.294764 -0.525799 131 165 60
-0.0269721 -0.863628 0.0829963 124 17 138
-0.0280236 -0.553442 0.357324 124 57 173
0.268512 -0.994772 -0.122461 162 1 112
-0.286733 -0.13981 0.259742 91 110 161
-0.0392009 -0.992642 -0.48639 123 1 65
-0.0473146 -0.0890621 0.622514 121 116 207
0.45359 0.436958 -0.399304 185 183 77
0.124873 -0.114002 0.600136 143 113 204
0.0520986 -0.875687 -0.617334 134 16 49
-0.339647 0.584251 -0.292926 84 202 90
0.472566 -0.613509 0.181391 188 49 151
0.286939 0.499263 -0.612605 164 191 49
0.32163 0.0949432 0.478329 169 140 188
0.359165 0.243469 0.24246 173 159 158
-0.18521 -0.770635 0.327791 104 29 169
0.2695 0.0407816 0.343107 162 133 171
-0.222327 -0.991179 -0.40388 99 1 76
-0.125792 0.307722 -0.505166 111 167 63
0.0709393 -0.993648 -0.274344 137 1 93
0.400371 0.0539939 0.310606 179 134 167
0.0746537 0.713449 0.253658 137 218 160
-0.249998 0.359404 0.217647 96 173 155
0.560156 -0.865266 0.00519367 199 17 128
-0.0651567 -0.161696 0.362009 119 107 174
-0.197101 0.206248 0.255822 102 154 160
0.508405 -0.247102 0.052738 192 96 134
-0.269213 0.77603 0.0293082 93 226 131
-0.126206 -0.978131 0.343632 111 3 171
-0.379795 -0.117928 -0.262428 79 112 94
0.29766 -0.707088 -0.573032 165 37 54
0.349371 0.117024 0.251332 172 142 160
-0.416451 0.640133 0.0749569 74 209 137
0.12581 0.324861 0.350262 144 169 172
0.444702 0.598203 0.106401 184 204 141
0.0547367 -0.0840694 -0.491215 134 117 65
-0.0659277 0.30016 0.41182 119 166 180
0.316631 0.0103695 0.45277 168 129 185
0.0288621 0.689825 0.242098 131 215 158
0.0965315 -0.977172 -0.532551 140 3 60
0.499348 0.469639 0.123721 191 187 143
0.167029 -0.215524 -0.175613 149 100 105
0.0959392 -0.371025 0.394232 140 80 178
-0.161329 -0.15203 0.225121 107 108 156
0.0990368 0.262511 -0.550704 140 161 57
-0.00613556 -0.673971 0.0272999 127 42 131
0.394487 0.287238 -0.292824 178 164 90
0.308265 -0.137974 -0.39288 167 110 77
0.17552 0.271132 -0.546216 150 162 58
-0.204551 0.449223 0.0278313 101 185 131
0.415226 0.242733 0.139272 180 158 145
0.391686 -0.199172 -0.330387 177 102 85
-0.51989 -0.825968 0.130247 61 22 144
0.414253 0.52643 -0.173406 180 195 105
0.0434853 0.38391 0.508463 133 176 192
0.517302 0.577601 0.0300345 193 201 131
0.0255099 0.478314 -0.524807 131 188 61
0.367409 -0.703346 -0.55354 174 38 57
0.292226 -0.246549 -0.120626 165 96 112
0.528772 -0.414816 0.236724 195 75 158
-0.468793 0.514685 0.0687825 68 193 136
0.111411 0.389411 0.31379 142 177 168
-0.0403288 0.28113 0.474773 122 163 188
-0.166414 0.348957 0.200582 106 172 153
0.576454 -0.646613 0.0850126 201 45 138
-0.27621 0.1252 -0.171946 92 143 106
-0.285952 -0.143517 0.0630919 91 109 136
0.248384 0.321747 -0.317556 159 169 87
0.461431 -0.37128 0.26274 186 80 161
0.47977 -0.168943 -0.196558 189 106 102
0.115906 -0.512466 0.371651 142 62 175
0.240175 -0.241136 0.323085 158 97 169
-0.0359403 0.281123 -0.486917 123 163 65
0.285496 0.335816 -0.576112 164 170 54
-0.136807 -0.0488861 0.36871 110 121 175
0.333103 -0.867947 0.368289 170 17 174
-0.398842 -0.149669 -0.163589 77 108 107
-0.24929 0.167756 0.163207 96 149 148
0.0305532 0.249281 0.347047 131 159 172
0.508436 0.443889 -0.0419404 192 184 122
-0.155149 -0.872704 -0.610917 108 16 50
-0.0307547 -0.743707 0.229058 124 33 157
-0.224756 -0.692744 -0.505858 99 39 63
0.347712 -0.964433 0.376365 172 5 175
0.149774 -0.370452 0.323825 147 80 169
0.118102 -0.982731 0.360309 143 2 173
-0.0259798 -0.162308 0.50391 124 107 192
0.344528 0.411435 0.197016 171 180 153
0.302715 -0.266764 0.225248 166 93 156
-0.669799 -0.795685 0.251473 42 26 160
-0.0795497 0.682583 0.269847 117 215 162
-0.399066 -0.382114 -0.300528 77 79 89
-0.0367852 -0.489017 -0.495796 123 65 64
-0.315051 -0.114644 0.262149 87 113 161
-0.490943 -0.810099 0.120379 65 24 143
0.523102 -0.32881 -0.0417578 194 86 122
0.427712 -0.461559 -0.378013 182 69 79
-0.184976 -0.00875063 0.502726 104 126 192
-0.241189 0.285553 -0.522322 97 164 61
-0.237129 0.516419 0.03103 97 193 131
0.101469 0.338409 0.422111 140 171 181
0.370817 0.558613 -0.391159 175 199 78
0.322375 -0.480017 0.0831125 169 66 138
0.116502 -0.929499 0.072087 142 9 137
-0.23617 -0.978152 0.336578 97 3 170
0.326747 0.523139 -0.579986 169 194 54
0.661546 0.2278 -0.214517 212 157 100
-0.255865 0.307291 -0.089972 95 167 116
-0.0621847 -0.991378 0.168936 120 1 149
0.339889 -0.142784 0.295842 171 109 165
0.409512 0.212889 0.1963 180 155 153
0.188739 -0.234639 0.349502 152 98 172
0.520995 -0.146274 -0.0966605 194 109 115
-0.134967 0.923774 0.124886 110 245 143
-0.0523939 -0.991019 -0.021355 121 1 125
0.207317 0.832847 0.0605939 154 234 135
0.57655 -0.671673 -0.202962 201 42 102
-0.385227 -0.951346 -0.234071 78 6 98
0.384716 -0.360203 0.346569 177 82 172
0.480164 0.544828 -0.110449 189 197 113
0.35156 0.69502 0.231008 172 216 157
0.575059 -0.731652 -0.17069 201 34 106
0.15381 0.679811 0.283437 147 214 164
-0.0767383 -0.99251 -0.421952 118 1 74
-0.319095 0.653935 0.091904 87 211 139
0.239713 -0.867779 0.11115 158 17 142
0.570787 -0.568317 -0.189086 200 55 103
0.44133 0.796634 0.0471793 184 229 134
-0.0630994 -0.99238 -0.461048 119 1 69
0.41177 -0.0298238 -0.34001 180 124 84
0.486704 -0.731688 -0.40161 190 34 76
0.387646 0.494297 -0.0573259 177 191 120
0.367949 0.28294 -0.460994 174 164 69
0.534185 -0.0706303 -0.0971093 196 118 115
0.486418 -0.997362 -0.291434 190 0 90
0.127046 -0.428468 -0.485028 144 73 66
-0.0394497 -0.26193 -0.155539 122 94 108
-0.220992 0.319192 -0.342305 99 168 84
-0.359778 0.362456 -0.408357 82 174 75
0.218902 -0.122336 0.342434 155 112 171
0.240193 0.528056 0.265139 158 195 161
0.302995 0.0888474 0.338894 166 139 171
-0.114068 0.248973 0.475667 113 159 188
0.132166 0.286167 0.353257 144 164 173
0.222484 -0.756708 -0.570891 156 31 55
0.411936 0.349944 0.0363495 180 172 132
-0.158225 0.390725 0.3496 107 177 172
-0.0473612 -0.508644 0.354757 121 63 173
0.595102 -0.803746 0.161281 203 25 148
-0.43572 -0.770634 -0.234738 72 29 98
-0.380889 -0.571934 -0.377498 79 55 79
-0.291901 -0.949703 0.312087 90 6 167
0.645951 -0.789918 0.0280518 210 27 131
0.19102 0.252402 -0.320371 152 160 87
0.0697793 0.288806 0.345341 136 164 172
0.511701 -0.617791 0.164932 193 49 149
-0.533204 -0.706061 0.116653 60 37 142
0.395207 -0.260785 0.0888465 178 94 139
0.246605 -0.858825 -0.5753 159 18 54
0.262731 -0.788502 -0.579714 161 27 54
-0.434943 0.205243 0.24727 72 154 159
0.0948995 -0.54895 0.370374 140 58 175
0.506641 -0.438298 -0.159757 192 72 107
-0.19077 0.27126 -0.375231 103 162 80
-0.319873 0.527642 -0.254341 87 195 95
0.321335 0.0558439 -0.425396 168 135 73
-0.254295 0.209504 -0.191316 95 154 103
0.126202 -0.776039 0.0469923 144 29 133
0.527873 0.0790034 -0.14713 195 138 109
0.0553429 0.407987 0.413137 135 180 180
-0.505636 -0.469884 0.118291 63 68 143
-0.419137 -0.622439 -0.2594 74 48 94
0.261602 -0.918836 0.174345 161 10 150
0.354194 -0.366808 0.156082 173 81 147
0.0164342 -0.841726 0.239615 130 20 158
0.223902 -0.797744 0.187749 156 26 151
0.355956 -0.740232 -0.565862 173 33 55
-0.058788 0.846308 0.0988244 120 235 140
0.194259 0.524981 0.295755 152 194 165
0.20162 0.205664 -0.469825 153 154 68
-0.382859 -0.484787 -0.292956 79 66 90
-0.527644 0.13077 -0.0591761 60 144 120
-0.396792 -0.00948026 0.144539 77 126 146
0.563593 -0.79875 0.328257 199 26 169
0.069321 -0.537677 0.267392 136 59 162
-0.255075 -0.493027 -0.445502 95 65 71
0.386541 0.648798 -0.0809737 177 210 117
0.439534 0.100035 -0.0242446 184 140 124
-0.15549 -0.659664 0.196695 108 43 153
0.119445 -0.838994 0.354021 143 21 173
-0.413588 0.223608 0.218769 75 156 155
0.200241 0.314915 -0.354857 153 168 82
-0.203364 0.16075 -0.396556 102 148 77
-0.163611 -0.990136 0.0424092 107 1 133
0.533664 -0.495436 0.0693452 196 64 136
0.324771 0.365472 0.25452 169 174 160
0.508522 -0.283122 -0.093869 192 91 116
0.171183 -0.934076 0.160881 149 8 148
-0.141661 0.0240953 -0.464948 109 131 68
-0.251919 -0.313247 -0.00697227 95 88 127
0.15004 0.555569 -0.576764 147 198 54
-0.417475 -0.163357 0.0207881 74 107 130
0.428904 0.217157 -0.111342 182 155 113
-0.0913536 -0.44726 0.225904 116 70 156
0.476966 0.612458 -0.309389 188 206 88
-0.199692 -0.0740348 -0.306422 102 118 88
-0.322059 0.133474 -0.0556997 86 145 120
0.0848275 0.182644 -0.317168 138 151 87
-0.426504 -0.571122 -0.269024 73 55 93
0.371297 -0.274816 0.156902 175 92 148
0.349825 -0.421132 0.123692 172 74 143
-0.420784 0.689363 -0.0778433 74 215 118
-0.488543 0.0966777 -0.0612359 65 140 120
0.400908 0.273225 0.127258 179 162 144
0.0592136 -0.210344 0.444237 135 101 184
0.268626 0.291111 -0.589676 162 165 52
0.562849 0.271086 0.157633 199 162 148
-0.281349 -0.900725 0.33215 92 13 170
-0.653568 -0.875968 0.266167 44 16 161
-0.0127436 -0.0382109 -0.493495 126 123 65
0.457554 0.691754 -0.205174 186 216 101
-0.444907 -0.789336 -0.145487 71 27 109
-0.465023 0.358098 0.00874611 68 173 129
-0.332277 -0.989365 0.17755 85 1 150
0.158528 -0.0465797 -0.279986 148 122 92
-0.216928 0.33946 -0.147302 100 171 109
0.261681 0.226445 0.498566 161 156 191
0.316146 -0.158429 0.219964 168 107 156
0.154117 -0.934015 0.214239 147 8 155
0.230092 0.43919 -0.446689 157 183 71
0.448088 0.135817 0.0338551 185 145 132
0.302751 -0.995726 -0.348383 166 1 83
0.321993 -0.387172 0.204862 169 78 154
-0.181663 -0.389407 0.163545 104 78 148
0.104732 -0.195989 0.449834 141 103 185
-0.0999908 -0.747548 0.168072 115 32 149
0.461258 0.205362 0.177206 186 154 150
-0.462614 -0.818776 -0.313745 69 23 87
-0.281677 0.0148328 0.153397 92 129 147
0.505921 -0.184547 0.200319 192 104 153
0.310735 -0.356282 0.00238049 167 82 128
0.336381 -0.610256 0.12012 170 50 143
-0.415252 -0.363385 -0.0473816 75 81 121
-0.0376953 -0.129552 0.566274 123 111 200
-0.527846 -0.5778 0.194322 60 54 152
0.422162 0.617655 0.0719738 181 206 137
0.106336 -0.0955285 -0.479929 141 115 66
-0.0412946 0.126946 0.591781 122 144 203
0.229636 0.50259 -0.62399 157 192 48
0.291168 0.944557 0.0790854 165 248 138
0.136061 0.65684 0.165659 145 211 149
-0.404821 -0.911192 -0.242738 76 11 97
0.445624 -0.360137 -0.338492 184 82 84
-0.0918662 -0.927468 0.175382 116 9 150
0.4165 0.819918 0.0957564 181 232 140
0.323375 0.331388 0.181577 169 170 151
-0.0168641 -0.248368 -0.171778 125 96 106
-0.513622 0.266531 -0.0554137 62 161 120
0.580305 -0.708153 -0.199959 201 37 102
0.445197 0.453867 -0.291762 184 185 90
-0.108706 -0.130434 0.288869 114 111 164
0.0247456 -0.54228 -0.592698 131 58 52
-0.469793 -0.892664 0.074357 68 14 137
-0.206001 0.658504 0.257562 101 211 160
-0.464923 -0.465652 0.0211505 68 68 130
0.51933 -0.252542 0.184501 194 95 151
-0.263454 0.706275 0.191452 94 218 152
0.278156 0.412405 -0.571819 163 180 55
0.198725 0.0605846 -0.310609 153 135 88
0.108711 0.124244 -0.305747 141 143 89
-0.458671 0.183654 0.147684 69 151 146
0.471777 0.329515 -0.100433 188 170 115
0.360419 0.428059 -0.0440623 173 182 122
0.518017 -0.095337 -0.113011 194 115 113
0.304342 0.293826 -0.533476 166 165 59
0.477877 0.0224044 0.162621 188 130 148
-0.391144 -0.458632 -0.331303 78 69 85
0.410792 0.324209 -0.351703 180 169 83
0.38892 0.676489 0.0677173 177 214 136
-0.480391 -0.866366 -0.0108936 66 17 126
-0.132787 -0.364404 -0.0414129 111 81 122
-0.456196 0.062741 0.0166886 69 135 130
-0.310279 0.254862 -0.237784 88 160 97
0.556945 0.494625 -0.160389 199 191 107
0.188612 0.39825 -0.442501 152 178 71
0.664002 -0.752975 -0.0261402 212 31 124
-0.123235 0.0818028 0.453687 112 138 185
0.237039 0.818219 0.240508 158 232 158
0.548319 -0.460223 0.135896 197 69 145
0.0739451 -0.301827 -0.123248 137 89 112
