ply
format ascii 1.0
comment Created by Open3D
element vertex 1208
property double x
property double y
property double z
property uchar red
property uchar green
property uchar blue
end_header
0.16184 -0.958383 -0.479849 148 5 66
-0.187316 -0.654924 0.159909 104 44 148
0.00601269 -0.302154 -0.458467 128 89 69
-0.296235 0.178062 -0.287491 90 150 91
0.523453 0.0391351 0.0720087 194 132 137
0.357422 0.397422 0.111508 173 178 142
-0.135811 0.592977 0.141388 110 203 146
-0.0633254 -0.198934 0.293639 119 102 165
0.134622 0.531165 0.317081 145 195 168
-0.216703 -0.488596 -0.420282 100 65 74
0.255944 0.13575 -0.33192 160 145 85
-0.204419 0.425647 0.0400978 101 182 133
-0.429256 -0.64037 0.303083 73 46 166
-0.229743 0.467011 -0.398031 98 187 77
-0.0151854 -0.782322 -0.542424 126 28 58
0.410969 0.297932 -0.251804 180 165 95
0.107363 0.486062 0.34418 141 189 171
-0.0125152 -0.24998 -0.442673 126 96 71
0.110539 -0.367302 -0.0985172 142 81 115
-0.440532 0.586291 -0.391778 71 202 78
-0.293241 0.476127 -0.280783 90 188 92
-0.632358 -0.942353 0.415872 47 7 181
0.49361 0.699975 -0.0411424 190 217 122
-0.0467312 -0.991154 0.0564255 122 1 135
0.348339 0.708654 0.249086 172 218 159
-0.291585 0.523673 -0.382619 90 194 79
0.206998 0.154543 -0.48012 154 147 66
-0.107059 -0.0235338 0.417256 114 124 181
0.397584 0.0218717 0.235162 178 130 157
-0.340001 -0.308167 0.202764 84 88 153
-0.285244 -0.990122 -0.170355 91 1 106
-0.244529 0.4954 0.00628499 96 191 128
-0.297106 -0.068042 0.264702 90 119 161
0.389609 0.0114379 0.308257 177 129 167
-0.00994846 -0.79865 0.322654 126 26 169
-0.295429 -0.0880425 -0.168393 90 116 106
0.307716 -0.624121 0.100887 167 48 140
0.0441802 -0.38309 0.399529 133 79 178
0.361657 0.37512 -0.148908 174 175 109
-0.424787 -0.824734 -0.0999989 73 22 115
-0.182824 0.34552 -0.562364 104 172 56
0.224471 -0.732954 0.270758 156 34 162
0.513196 -0.356535 -0.153285 193 82 108
0.209452 -0.269524 0.281304 154 93 163
0.243191 -0.737015 0.168633 159 34 149
0.605309 -0.914444 0.254043 205 11 160
-0.0421832 -0.240485 0.290837 122 97 165
0.520592 0.061033 0.146317 194 135 146
0.106634 0.564579 0.302129 141 199 166
-0.321086 0.131543 0.298831 87 144 166
0.32532 0.0439015 -0.278118 169 133 92
0.168391 -0.0364241 0.384228 149 123 176
0.5344 -0.165213 0.00163074 196 106 128
-0.473168 -0.771081 0.0744631 67 29 137
0.274834 -0.458758 0.278255 163 69 163
-0.217051 0.402534 -0.336208 100 179 85
0.227204 0.933142 0.112314 156 246 142
0.355004 -0.288427 0.0244184 173 91 131
-0.120449 0.272013 0.326762 112 162 169
0.16296 0.0877508 -0.305827 148 139 89
-0.466558 -0.541738 -0.0427984 68 58 122
-0.284571 0.440581 -0.121479 91 184 112
0.00607658 0.145358 -0.299051 128 146 89
0.282192 0.499471 0.0894669 163 191 139
0.593418 -0.813712 -0.0451017 203 24 122
-0.101914 -0.385932 0.320815 115 78 168
0.322655 -0.425732 0.359782 169 73 173
-0.270253 0.591772 -0.0274442 93 203 124
0.217016 -0.70904 -0.574865 155 37 54
-0.507702 -0.488659 0.100819 63 65 140
-0.472112 -0.84043 -0.146945 67 20 109
-0.049279 -0.789931 0.0685515 121 27 136
0.214579 0.926459 0.165368 155 246 149
0.127535 0.299572 -0.371432 144 166 80
-0.418419 0.393626 0.115449 74 178 142
0.131489 -0.992911 0.0549317 144 1 135
0.143959 -0.624672 -0.55374 146 48 57
0.41089 0.641359 0.0510915 180 209 134
-0.105877 -0.520687 0.208608 114 61 154
0.041705 -0.461051 -0.551823 133 69 57
0.223233 0.0904382 0.56718 156 139 200
-0.200375 0.341918 0.337285 102 171 171
-0.0547925 -0.673819 0.328585 121 42 169
-0.224454 0.233012 0.353562 99 157 173
-0.436241 -0.072367 0.0321982 72 118 132
0.214709 -0.803534 0.202802 155 25 153
-0.154334 -0.536593 -0.461705 108 59 69
-0.0775557 0.107055 0.563045 118 141 199
0.123487 -0.799261 -0.599192 143 26 51
0.0227168 -0.628219 0.0139781 130 47 129
0.212919 -0.193588 -0.186095 155 103 104
-0.558775 -0.987621 0.292296 56 2 165
-0.595328 -0.705138 0.228832 52 38 157
0.0468333 0.3641 0.330018 133 174 170
-0.1004 -0.276898 0.247559 115 92 159
-0.265742 -0.160719 -0.27157 94 107 93
0.302747 -0.610321 -0.526392 166 50 60
-0.265788 0.241777 -0.31029 94 158 88
0.0515379 -0.782539 0.315324 134 28 168
0.474224 0.537846 -0.0795755 188 196 117
0.266263 -0.994572 0.0482431 161 1 134
0.220886 0.576195 0.129097 156 201 144
-0.215582 -0.619295 -0.48861 100 49 65
-0.496969 -0.416467 0.162291 64 74 148
0.515679 -0.267007 -0.141005 193 93 110
-0.41251 0.568082 -0.432869 75 200 72
-0.320108 -0.125526 0.249466 87 111 159
0.345429 -0.494201 0.119749 172 64 143
-0.406903 0.720282 8.12542e-05 76 219 128
0.514815 -0.688004 -0.334421 193 40 85
0.460715 -0.893653 0.378461 186 14 176
0.202448 0.335473 -0.610096 153 170 50
-0.0369274 -0.402774 -0.461127 123 76 69
-0.0339686 0.584015 0.167384 123 202 149
0.0125235 0.641599 0.184182 129 209 151
-0.169453 -0.0152991 0.313391 106 126 167
0.349481 0.205254 0.325469 172 154 169
0.527709 -0.95766 0.361133 195 5 174
-0.122287 0.470813 -0.492362 112 188 65
-0.401836 0.415631 0.055977 76 180 135
0.523513 0.581748 -0.298964 194 202 89
0.0550792 -0.782276 0.244925 135 28 159
-0.0709067 -0.426518 0.347724 118 73 172
0.562205 -0.641095 -0.169536 199 46 106
0.192567 -0.13443 0.367475 152 110 174
-0.377056 0.492185 -0.321383 79 190 87
-0.322963 0.170304 -0.0403707 86 149 122
0.0254234 -0.200181 0.454894 131 102 185
0.146595 -0.377562 0.367818 146 79 174
-0.00382529 -0.361773 -0.47528 127 81 67
0.0123391 -0.117755 0.385204 129 112 177
0.33333 0.549909 -0.551308 170 198 57
0.575325 0.208682 -0.0491417 201 154 121
0.0872864 -0.11816 0.607286 139 112 205
0.521812 0.428643 -0.205217 194 182 101
-0.134656 -0.552825 0.237877 110 57 158
0.0206144 -0.526321 -0.0151325 130 60 126
0.230092 0.43919 -0.446689 157 183 71
-0.311675 0.192176 -0.0672687 88 152 119
-0.201501 0.373686 -0.321525 102 175 87
0.425465 -0.073852 0.201127 182 118 153
0.146723 0.541498 0.17271 146 197 150
-0.383637 -0.606104 -0.40637 79 50 76
-0.542541 -0.635763 0.241284 58 46 158
0.271778 -0.53199 0.0453984 162 60 133
-0.423563 0.559403 -0.344324 73 199 84
0.139858 -0.129391 0.56402 145 111 199
0.536589 -0.159991 0.0534083 196 107 134
0.269928 -0.350461 0.231879 162 83 157
-0.0188897 0.767365 0.299731 125 225 166
0.285777 0.401189 -0.552588 164 179 57
0.0538299 -0.401286 0.325422 134 76 169
-0.343992 -0.989245 -0.0661365 84 1 119
0.489779 -0.793167 -0.460359 190 26 69
0.447322 -0.99624 0.0584866 185 0 135
0.386317 0.551793 -0.426216 177 198 73
-0.282802 0.596929 0.167213 91 204 149
-0.0702777 0.576901 0.233739 119 201 157
0.433689 -0.401785 -0.340669 183 76 84
-0.335373 -0.187301 0.213383 85 104 155
0.485289 0.714218 -0.0529138 189 219 121
0.215507 -0.994606 -0.252342 155 1 95
0.34216 -0.141461 -0.22161 171 109 99
-0.0747442 -0.0339399 0.413334 118 123 180
-0.0171989 -0.991575 0.0920453 125 1 139
-0.18521 -0.770635 0.327791 104 29 169
-0.195853 0.166946 0.489797 103 149 190
0.0603545 -0.468051 0.299175 135 68 166
0.605941 -0.582973 -0.0110614 205 53 126
0.410836 0.5375 -0.131429 180 196 111
0.091796 -0.153731 0.533906 139 108 196
0.207317 0.832847 0.0605939 154 234 135
-0.0181746 -0.574961 0.0194634 125 54 130
0.319998 -0.675 0.14505 168 41 146
0.352254 0.314942 0.217175 172 168 155
-0.473847 -0.810404 0.0473321 67 24 134
-0.108996 0.748266 0.111 114 223 142
0.237039 0.818219 0.240508 158 232 158
-0.351397 0.626658 0.128301 83 207 144
-0.112191 -0.0989154 -0.277972 113 115 92
-0.221353 0.39074 -0.315923 99 177 87
0.0627633 -0.0872222 -0.255272 136 116 95
0.0446936 0.713197 0.25647 133 218 160
-0.175868 -0.394226 0.0549902 105 77 135
0.353996 -0.250156 -0.0178286 173 96 125
-0.1708 0.226856 0.469816 106 156 187
0.410059 -0.314402 -0.340854 180 87 84
0.363302 -0.881233 -0.47903 174 15 66
0.161684 0.554726 -0.589304 148 198 52
-0.439588 0.312441 -0.106159 71 167 114
0.277627 -0.224426 0.299451 163 99 166
0.13338 -0.610074 0.0277351 145 50 131
0.595706 0.0670219 -0.078481 203 136 117
-0.242328 -0.035155 0.343816 97 123 171
0.425456 -0.0989107 0.278682 182 115 163
0.382254 -0.996811 -0.43415 176 0 72
-0.449966 -0.98604 0.176262 70 2 150
0.246929 0.411257 -0.614125 159 180 49
0.0288497 -0.814542 0.242139 131 24 158
-0.162526 -0.369452 0.179623 107 80 150
0.386138 -0.0910826 -0.13442 177 116 110
-0.330694 -0.20535 0.216431 85 101 155
0.549961 0.231541 0.0324468 198 157 132
-0.208388 0.630829 0.0635733 101 208 136
-0.0562761 -0.648622 -0.539235 120 45 59
-0.364517 0.0773326 -0.211786 81 137 100
-0.0785831 0.64311 0.252753 117 209 160
-0.4334 -0.168396 0.178922 72 106 150
0.431837 -0.414619 0.3142 183 75 168
0.473351 0.0585176 0.220401 188 135 156
0.312783 0.254308 0.218732 167 160 155
-0.48819 -0.568486 0.187324 65 55 151
-0.276803 -0.192949 -0.135857 92 103 110
-0.284508 0.435784 -0.205342 91 183 101
-0.32443 -0.983714 -0.177361 86 2 105
0.0829864 -0.212521 0.361724 138 100 174
0.204131 0.030861 -0.305162 154 131 89
-0.246464 0.439858 -0.0753851 96 184 118
0.456605 -0.896615 -0.477291 186 13 67
-0.426064 -0.660686 -0.230116 73 43 98
-0.352538 0.635237 0.103481 83 208 141
0.203543 0.284076 -0.540395 153 164 59
-0.480861 -0.988512 0.266411 66 1 161
0.475575 0.57635 -0.153194 188 201 108
-0.0293996 0.411751 -0.472972 124 180 67
0.144237 0.552324 0.301402 146 198 166
-0.243345 -0.990423 0.281512 96 1 163
0.386183 0.362106 -0.0619083 177 174 120
0.463006 -0.985962 -0.220335 187 2 99
-0.610328 -0.938528 0.269832 50 8 162
-0.457755 -0.00672522 0.0179298 69 127 130
-0.33466 -0.0337264 0.0480718 85 123 134
-0.0099545 -0.635635 -0.552966 126 46 57
0.279329 -0.363121 0.36159 163 81 174
0.136477 0.380783 -0.584727 145 176 53
0.223034 0.520999 -0.617885 156 194 49
-0.191305 -0.446672 0.114402 103 71 142
-0.150917 0.492062 -0.611219 108 190 50
0.243501 -0.300579 -0.102219 159 89 114
0.142101 0.60768 0.169098 146 205 149
-0.390824 0.301806 -0.117062 78 166 113
-0.291884 0.836395 0.131774 90 234 144
-0.369593 0.508784 -0.440133 80 192 71
0.516196 -0.392967 -0.174449 193 77 105
0.323856 -0.525457 0.210506 169 61 154
0.381183 0.171625 -0.198313 176 149 102
-0.0999908 -0.747548 0.168072 115 32 149
0.598968 -0.853661 -0.166424 204 19 106
0.319887 0.0341842 0.26376 168 132 161
0.254489 0.936511 0.0962798 160 247 140
-0.120319 -0.663335 0.264337 112 43 161
0.442142 0.0596332 -0.274975 184 135 92
-0.4167 0.505995 0.094479 74 192 140
0.0419699 -0.557226 0.370766 133 56 175
0.240401 -0.462081 -0.00658035 158 69 127
0.328802 -0.490243 0.287257 169 65 164
0.200848 0.42313 -0.452851 153 181 70
-0.272617 -0.382785 0.21302 93 79 155
-0.417329 -0.773017 -0.240589 74 29 97
-0.00252686 0.2489 0.353463 127 159 173
-0.184766 -0.492104 0.194273 104 65 152
-0.490205 0.193744 -0.036503 65 152 123
0.51931 -0.163253 -0.0955697 194 107 115
-0.107331 0.722546 0.247985 114 220 159
0.487089 0.287437 -0.108158 190 164 114
-0.422065 -0.837653 0.481468 74 21 189
-0.0134453 -0.462872 0.376868 126 68 176
0.467843 0.382322 -0.131657 187 176 111
0.266137 0.304997 -0.604472 161 166 50
-0.109775 -0.93382 -0.587092 114 8 53
-0.405319 0.00322049 0.163957 76 128 148
0.0838632 -0.992932 -0.163386 138 1 107
0.254182 -0.689528 0.165515 160 40 149
-0.236368 0.285074 -0.329527 97 164 85
0.123876 -0.261131 -0.446652 143 94 71
-0.445623 0.726418 -0.145529 71 220 109
0.531157 -0.704044 -0.321339 195 38 87
-0.054419 0.496081 0.16838 121 191 149
-0.206689 -0.361198 0.0322052 101 81 132
0.0489143 0.586294 0.174329 134 202 150
-0.128889 0.499187 0.124521 111 191 143
-0.226963 0.144077 0.241276 99 146 158
0.518504 0.409235 -0.23737 194 180 97
0.315888 -0.174964 0.287222 168 105 164
0.327426 0.840316 0.116542 169 235 142
0.335003 -0.737522 -0.568596 170 33 55
-0.317247 -0.750114 0.41085 87 32 180
-0.111946 -0.169134 -0.227664 113 106 98
-0.206214 0.208424 0.241377 101 154 158
0.0444471 0.236192 0.347551 133 158 172
0.0855435 -0.637664 0.018376 138 46 130
-0.14969 -0.990727 0.186902 108 1 151
-0.0324231 -0.206684 -0.198025 123 101 102
0.393068 0.0813744 -0.365426 178 138 81
-0.292438 0.0909035 -0.155432 90 139 108
0.212027 0.645128 0.304059 155 210 166
0.418078 -0.187278 0.301424 181 104 166
0.319437 0.422239 0.240924 168 181 158
0.286957 0.413669 0.218691 164 180 155
-0.117944 -0.496043 -0.491956 112 64 65
-0.145582 -0.987939 -0.522816 109 2 61
-0.321904 -0.470099 -0.377622 86 68 79
-0.116562 -0.396979 0.298206 113 77 166
0.0582872 -0.845313 0.329255 135 20 169
0.571417 0.119128 -0.0571401 200 143 120
0.554343 0.15043 0.060683 198 147 135
0.405389 -0.996371 0.0778204 179 0 137
0.210425 -0.994073 -0.112107 154 1 113
0.103328 -0.249601 0.34515 141 96 172
0.376168 0.833902 0.131485 175 234 144
-0.0811342 0.540292 0.26088 117 196 161
-0.652294 -0.830561 0.295048 44 22 165
-0.287131 0.0453948 -0.217309 91 133 100
0.106032 0.497786 -0.655925 141 191 44
-0.326943 -0.132731 -0.218063 86 111 100
-0.058033 -0.135646 -0.24093 120 110 97
0.253291 -0.350531 -0.0609267 160 83 120
0.338833 -0.523534 0.280152 171 61 163
0.531008 -0.698169 -0.302698 195 38 89
0.57831 -0.580677 -0.0366068 201 53 123
-0.0977076 -0.794892 0.173988 115 26 150
0.126335 -0.0321008 0.383242 144 123 176
0.533686 -0.107877 0.127343 196 114 144
-0.0538703 -0.946516 0.368079 121 7 174
0.351458 0.57915 0.289534 172 201 164
0.100508 -0.0066587 0.65592 140 127 211
-0.00310749 -0.446061 -0.52154 127 71 61
0.527058 0.216677 -0.168994 195 155 106
-0.0197593 -0.723729 0.32827 125 35 169
-0.147143 -0.163564 0.368129 109 107 174
0.281933 -0.618344 0.181049 163 49 151
0.223501 -0.635334 0.0598219 156 46 135
0.550654 -0.756868 0.125285 198 31 143
0.369643 -0.00904608 0.318733 175 126 168
0.390788 -0.217418 0.0267159 177 100 131
-0.241918 -0.0258175 0.217629 97 124 155
0.277994 -0.0499099 0.352371 163 121 172
0.0244682 -0.993112 0.278985 131 1 163
-0.194609 -0.946141 0.417899 103 7 181
0.512535 -0.726813 -0.262321 193 35 94
0.251598 -0.99431 0.118646 160 1 143
0.399486 0.0123272 0.103606 178 129 141
-0.139587 -0.146097 -0.247907 110 109 96
-0.436293 0.230894 0.0496621 72 157 134
0.134176 0.242609 -0.489204 145 158 65
0.535162 -0.51942 0.164005 196 61 148
-0.0715763 -0.4593 -0.470083 118 69 68
-0.351675 -0.362721 -0.306336 83 81 88
-0.404218 0.640917 0.0613162 76 209 135
0.482731 0.560926 -0.0413569 189 199 122
0.576349 -0.803464 -0.194505 201 25 103
0.351045 0.396425 0.192182 172 178 152
0.375301 -0.0714016 -0.166694 175 118 106
0.28586 -0.914594 0.377361 164 11 176
-0.245688 -0.210658 0.279823 96 101 163
-0.269925 0.723 0.192623 93 220 152
-0.316697 -0.520405 -0.401648 87 61 76
0.394642 0.350272 0.105325 178 172 141
0.223528 0.241547 0.354524 156 158 173
-0.132619 0.521049 -0.533231 111 194 60
-0.0443934 -0.934525 0.203025 122 8 153
0.405681 -0.35698 -0.370983 179 82 80
-0.394299 0.20863 0.223968 77 154 156
0.047425 -0.910075 0.381326 134 11 176
-0.118892 -0.943748 0.365058 112 7 174
-0.0874504 0.259252 0.364107 116 161 174
0.525119 0.0943823 -0.0272554 194 140 124
-0.1551 -0.517444 -0.454825 108 62 70
-0.314932 -0.0442837 0.0833148 87 122 138
0.131358 -0.467116 -0.508583 144 68 63
-0.341927 -0.0118089 0.297808 84 126 165
0.361951 0.284022 -0.35056 174 164 83
0.0156179 -0.878472 0.0670872 129 15 136
-0.340841 0.103834 0.288852 84 141 164
0.17058 0.21701 -0.320788 149 155 87
0.250196 0.739 0.28699 159 222 164
-0.122199 0.299773 -0.589045 112 166 52
-0.359802 0.348321 -0.35452 82 172 82
0.414334 -0.0625686 0.230393 180 120 157
-0.257134 -0.066549 0.281949 95 119 163
-0.0638469 -0.700669 -0.552968 119 38 57
-0.243191 -0.330342 -0.36325 96 85 81
-0.141575 -0.250736 0.215882 109 96 155
0.461933 -0.237149 -0.199021 186 97 102
0.0228819 -0.507566 -0.581208 130 63 53
0.285133 0.309239 0.246202 164 167 159
0.00366096 0.0139026 -0.506744 128 129 63
0.144884 -0.586866 0.242233 146 53 158
0.126984 -0.940524 -0.527772 144 8 60
0.388776 0.494998 0.229875 177 191 157
-0.665683 -0.850188 0.242794 43 19 158
0.118921 -0.767553 -0.615934 143 30 49
0.16694 0.751868 0.253554 149 223 160
0.279384 0.932382 0.11404 163 246 142
0.0456547 0.596137 0.270054 133 204 162
-0.344304 -0.770283 -0.465655 84 29 68
0.254045 0.260082 0.353028 160 161 173
0.22277 -0.170259 0.348545 156 106 172
0.105745 0.0597296 0.612838 141 135 206
-0.461106 -0.484566 0.0210041 69 66 130
0.0791541 0.185415 -0.50376 138 151 63
-0.454386 -0.635459 0.28202 70 46 163
-0.348956 0.0902535 -0.236483 83 139 97
0.250025 0.38947 -0.615441 159 177 49
-0.153729 -0.616592 0.180844 108 49 151
-0.550728 -0.593416 0.197845 57 52 153
-0.454571 -0.729885 -0.227247 70 34 99
-0.113262 0.743967 0.233622 113 222 157
-0.122373 -0.468384 0.277314 112 68 163
-0.4523 -0.419297 -0.0558017 70 74 120
-0.39655 0.339373 -0.317629 77 171 87
-0.380816 0.411439 0.183686 79 180 151
0.548232 -0.421102 0.197789 197 74 153
-0.335637 0.0296524 0.0437246 85 131 133
-0.228162 -0.990489 -0.136573 98 1 110
-0.380374 -0.490057 -0.36897 79 65 80
0.639442 -0.725826 -0.0836859 209 35 117
-0.39641 0.729355 -0.116057 77 220 113
-0.0784308 0.173945 -0.484709 118 150 66
-0.234594 0.33519 0.0417368 98 170 133
-0.00617908 -0.182389 -0.208914 127 104 101
-0.452296 0.19181 0.119766 70 152 143
0.430985 0.782433 -0.0576006 182 227 120
-0.328442 -0.149087 0.226161 86 108 156
0.510583 -0.212351 0.0171487 193 100 130
0.394422 -0.156791 0.16987 178 108 149
0.417796 0.592746 -0.217889 181 203 100
0.269481 0.270131 0.336341 162 162 170
-0.396912 -0.00875305 -0.100743 77 126 115
0.471788 -0.511824 0.273168 188 62 162
0.176589 0.904998 0.110883 150 243 142
0.0289264 -0.889138 0.364286 131 14 174
0.470776 0.161286 -0.167688 188 148 106
-0.142872 -0.990396 -0.0649515 109 1 119
-0.32749 0.237522 0.190568 86 158 152
0.250334 -0.7164 0.109597 159 36 141
-0.600979 -0.869648 0.433686 51 17 183
0.381628 0.248267 -0.182209 176 159 104
-0.415917 0.543902 -0.357919 74 197 82
0.542538 0.544869 -0.228466 197 197 98
0.137055 -0.46058 0.290967 145 69 165
0.322266 0.124229 -0.421537 169 143 74
-0.124505 -0.621251 -0.539315 112 48 59
0.344497 -0.0108575 -0.231583 171 126 98
0.312021 -0.0329013 0.201347 167 123 153
0.0515625 -0.774802 -0.60849 134 29 50
-0.446356 -0.322059 0.150267 71 86 147
0.299601 0.815594 0.012064 166 231 129
-0.426258 -0.190521 -0.0961434 73 103 115
-0.20898 0.530644 -0.49398 101 195 65
0.503774 -0.632161 0.154527 192 47 147
0.5041 -0.924726 -0.224125 192 10 99
0.491855 -0.290844 -0.193615 190 90 103
-0.180782 -0.510475 0.104911 104 62 141
0.234332 0.548962 -0.54369 157 197 58
-0.409504 -0.613714 -0.339191 75 49 84
0.179741 -0.590672 0.234445 150 52 157
-0.231351 -0.180451 0.281609 98 104 163
0.119599 -0.992329 -0.462915 143 1 68
-0.176021 -0.275208 -0.40633 105 92 76
0.447485 -0.995731 -0.218858 185 1 100
0.263326 -0.398857 -0.438154 161 77 72
-0.272879 0.48835 -0.362563 93 190 81
0.262507 0.331129 -0.316046 161 170 87
-0.0289056 0.448526 -0.625587 124 185 48
0.491822 0.410634 0.156887 190 180 148
0.563923 -0.587729 0.0693214 199 53 136
0.114329 -0.929684 0.3849 142 9 177
-0.430364 -0.86662 -0.262964 73 17 94
-0.29771 0.397276 0.179346 90 178 150
0.275733 -0.149676 0.271405 163 108 162
-0.0861107 -0.659535 -0.570453 117 43 55
0.246168 -0.514513 0.199767 159 62 153
-0.358053 -0.898245 0.35164 82 13 172
-0.271266 -0.704122 0.330067 93 38 170
0.501197 0.358161 0.144798 191 173 146
0.480455 -0.679016 0.119214 189 41 143
0.312741 0.116178 0.498899 167 142 191
0.235897 -0.994547 0.226272 158 1 156
-0.213443 0.352536 -0.258044 100 172 95
0.195145 0.296614 -0.334214 152 165 85
-0.155576 -0.831476 0.385779 108 21 177
-0.0741913 0.264718 0.466676 118 161 187
-0.466874 -0.876829 -0.284707 68 16 91
-0.47408 -0.915743 -0.112426 67 11 113
-0.233922 -0.0878749 -0.383849 98 116 79
0.308112 0.512358 0.260321 167 193 161
0.484186 -0.643394 -0.403079 189 45 76
0.577582 -0.701326 0.0316553 201 38 132
-0.497122 -0.838049 0.0332475 64 21 132
0.347543 0.249769 -0.235204 172 159 98
-0.139724 -0.498587 0.148084 110 64 146
0.398053 0.678083 -0.118057 178 214 112
0.54632 0.256824 0.00943204 197 160 129
-0.220836 -0.681399 0.268472 99 41 162
-0.00139771 -0.930458 0.381609 127 9 176
0.482639 0.245427 0.163195 189 159 148
-0.23404 -0.555439 -0.47242 98 57 67
0.328174 -0.492347 0.0881597 169 65 139
0.442358 -0.251051 -0.234067 184 95 98
-0.0257793 0.61337 0.188845 124 206 152
-0.210473 -0.685949 -0.494148 101 40 64
0.0327973 0.763663 0.315421 132 225 168
0.475338 0.571099 -0.0921542 188 200 116
-0.448667 -0.0950298 0.128528 70 115 144
0.0407187 -0.904352 0.0636305 133 12 136
0.366375 0.352285 -0.125069 174 172 112
-0.295879 -0.0526117 -0.246582 90 121 96
0.402987 -0.996527 -0.084743 179 0 117
0.485637 -0.136243 0.274279 189 110 162
0.484604 0.669403 -0.244424 189 213 96
0.104692 -0.397624 0.389211 141 77 177
-0.420319 0.0682699 0.0825044 74 136 138
-0.314439 0.145676 -0.0663973 87 146 119
0.234469 -0.00145469 0.366193 157 127 174
0.279688 -0.0563543 -0.295249 163 120 90
0.492669 0.0800071 -0.15772 190 138 107
-0.0575659 0.389595 -0.449711 120 177 70
0.215191 -0.545986 -0.555181 155 58 57
-0.364655 0.205669 0.221485 81 154 156
0.199118 -0.169216 0.409744 153 106 180
-0.284577 0.638498 -0.0466241 91 209 122
-0.151685 0.0379915 0.552017 108 132 198
-0.123302 0.32539 -0.599967 112 169 51
-0.0604628 -0.320992 -0.0925721 120 87 116
-0.0263557 -0.99283 -0.301286 124 1 89
0.317657 -0.435892 0.304591 168 72 166
0.407697 0.47355 -0.114427 179 188 113
0.359704 -0.996025 0.0714898 173 1 137
0.570673 -0.56478 -0.020087 200 55 125
-0.184976 -0.00875063 0.502726 104 126 192
0.479356 -0.678488 -0.35916 189 41 82
0.355188 0.599367 -2.68919e-05 173 204 127
0.17508 -0.0174498 0.625095 150 125 207
0.347784 -0.523826 0.131489 172 61 144
0.211968 -0.477132 0.293202 155 67 165
0.335114 0.791036 -0.028447 170 228 124
0.347173 0.68806 0.215717 172 215 155
0.544368 -0.0933244 -0.0107604 197 116 126
-0.301987 0.398955 -0.469785 89 178 68
-0.423814 0.0981951 0.170588 73 140 149
0.433899 0.0449948 0.0915299 183 133 139
-0.176135 0.395687 -0.599064 105 178 51
-0.497699 -0.778235 -0.0488002 64 28 121
0.53121 -0.492535 -0.0160023 195 65 125
0.600249 -0.597517 -0.0496556 204 51 121
0.539381 -0.62573 -0.242903 196 48 97
0.427927 0.610515 -0.376727 182 205 79
-0.000674239 0.360888 0.324959 127 174 169
-0.0637623 -0.21241 -0.430453 119 100 73
0.635873 0.212906 -0.127492 209 155 111
0.248971 0.408497 0.256605 159 180 160
0.273844 0.591823 0.313695 162 203 167
0.466052 0.552295 0.135381 187 198 145
0.359165 0.243469 0.24246 173 159 158
-0.338188 0.395244 -0.457494 84 178 69
-0.332654 -0.96173 -0.398887 85 5 77
0.386284 -0.0308449 -0.356703 177 124 82
0.0968239 0.217621 0.351235 140 155 172
0.52603 -0.37975 -0.0761331 195 79 118
-0.209396 0.54609 -0.553862 101 197 57
0.0503557 -0.315033 0.346432 134 87 172
0.343284 -0.8936 -0.487894 171 14 65
-0.051358 -0.593671 0.242269 121 52 158
-0.144492 -0.0345323 0.363921 109 123 174
0.25967 -0.137777 -0.220538 161 110 99
-0.576399 -0.977286 0.41006 54 3 180
-0.274218 0.409504 -0.16596 93 180 106
-0.336146 -0.125913 -0.0810686 85 111 117
0.5128 0.689731 -0.0814648 193 215 117
-0.128527 -0.645165 -0.552931 111 45 57
0.549217 -0.586608 0.153435 198 53 147
0.409833 0.465136 -0.469554 180 187 68
0.108541 -0.497155 0.277057 141 64 163
0.419814 -0.996541 -0.127524 181 0 111
0.372659 -0.306766 0.314079 175 88 168
-0.34934 -0.217478 -0.0431307 83 100 122
0.227664 -0.187819 0.25255 157 104 160
0.0287168 -0.0168916 -0.279098 131 125 92
0.467864 -0.740262 0.272103 187 33 162
0.0486145 -0.568614 -0.00557302 134 55 127
-0.191901 -0.991185 -0.305472 103 1 89
-0.285353 -0.574633 0.244747 91 54 159
0.605197 0.224026 -0.0847627 205 156 117
-0.251608 0.186571 0.32792 95 151 169
0.652183 -0.749522 0.00330484 211 32 128
-0.307032 -0.199324 -0.246964 88 102 96
0.647534 0.144391 -0.159451 210 146 107
-0.392637 -0.423086 -0.271969 77 74 93
-0.0536421 0.758881 0.238718 121 224 158
-0.0231147 0.487336 0.18653 125 190 151
-0.250616 -0.00726534 -0.301028 96 127 89
-0.396136 0.327779 -0.299801 77 169 89
-0.0475978 0.286437 -0.587342 121 164 53
0.40564 0.59058 -0.305971 179 203 88
0.0105699 0.354778 0.584706 129 173 202
0.579913 -0.780876 -0.131948 201 28 111
0.211491 -0.933853 0.172702 154 8 150
0.226154 0.186097 0.342889 156 151 171
0.0948952 -0.935357 0.161802 140 8 148
-0.0535592 -0.00524928 0.636463 121 127 209
0.166811 0.936106 0.154907 149 247 147
-0.214325 -0.201467 0.185418 100 102 151
0.145031 -0.3185 -0.44895 146 87 70
-0.379656 0.225661 0.200289 79 156 153
-0.274114 -0.409687 -0.404838 93 75 76
0.267018 0.611725 0.105716 162 205 141
-0.218154 0.299667 -0.427225 100 166 73
-0.615342 -0.703716 0.200569 49 38 153
-0.43613 -0.974039 0.0582275 72 3 135
-0.103827 -0.990692 0.0596518 114 1 135
0.400983 0.569685 0.258732 179 200 160
-0.0977723 0.578844 0.239234 115 201 158
0.151578 0.764984 0.115243 147 225 142
-0.266769 -0.744008 -0.515027 93 33 62
-0.291279 0.686841 -0.0492132 90 215 121
0.194674 0.104231 0.566347 152 141 200
-0.16117 0.733167 0.235836 107 221 158
0.183669 -0.959809 -0.508359 151 5 63
0.302497 -0.960273 -0.525708 166 5 60
0.0121243 -0.589007 0.360687 129 52 173
-0.336551 -0.346194 0.222473 85 83 156
-0.213114 0.110639 0.473268 100 142 188
0.290113 -0.469932 0.207706 164 68 154
0.222723 -0.802949 0.295665 156 25 165
-0.0875652 -0.626846 0.0292727 116 48 131
0.342766 -0.0304412 0.150004 171 124 147
-0.490426 0.177182 -0.141091 65 150 110
0.542476 -0.0722196 0.0826983 197 118 138
-0.350224 0.348383 -0.437192 83 172 72
-0.366289 0.318444 0.156722 81 168 147
-0.274604 0.445711 -0.0864044 92 184 116
0.521053 -0.260043 -0.0331564 194 94 123
-0.298279 0.668739 0.103862 89 213 141
0.289461 -0.0801585 0.432344 164 117 183
-0.41722 -0.790394 0.386169 74 27 177
0.0961884 -0.102659 0.631212 140 114 208
-0.431268 0.531307 -0.400528 73 195 76
-0.569102 -0.937525 0.22152 55 8 156
0.357329 0.207925 -0.238781 173 154 97
0.229532 -0.615936 -0.572808 157 49 54
0.10072 -0.0165212 0.379369 140 125 176
-0.303406 0.539868 0.225306 89 196 156
0.278229 0.265047 -0.444295 163 161 71
-0.0389937 0.271218 0.551877 123 162 198
0.0312667 -0.631804 0.351879 131 47 172
0.0336287 -0.99332 -0.385675 132 1 78
0.186885 -0.63343 0.318159 151 47 168
-0.451747 0.508281 -0.167452 70 192 106
-0.189182 -0.84342 0.389976 103 20 177
0.268231 -0.995227 -0.31274 162 1 88
0.0244952 0.830094 0.109651 131 233 141
0.37031 0.400633 -0.226167 175 179 99
0.462514 -0.939948 -0.366588 186 8 81
-0.450336 -0.703973 -0.169934 70 38 106
-0.363365 -0.989303 0.219437 81 1 155
-0.293138 0.209374 -0.270573 90 154 93
0.208227 -0.994048 -0.563327 154 1 56
-0.0987185 -0.02288 -0.293908 115 125 90
0.548394 -0.865194 0.366 197 17 174
0.342375 -0.319724 0.194523 171 87 152
-0.226469 0.373239 0.248767 99 175 159
-0.345775 -0.186121 -0.0328726 83 104 123
-0.0859797 -0.442857 0.331925 117 71 170
-0.15944 -0.991444 0.33105 107 1 170
-0.503855 -0.451617 0.138151 63 70 145
0.539552 -0.0527664 0.0215461 196 121 130
0.2547 -0.518052 0.248142 160 61 159
-0.168081 -0.0431091 0.297462 106 122 165
0.492036 0.326804 -0.0582397 190 169 120
0.467146 -0.392566 -0.267068 187 77 93
-0.374624 -0.107653 -0.27696 80 114 92
-0.0609189 -0.0471417 -0.290001 120 121 91
0.0402031 0.411134 0.409538 133 180 180
-0.468548 0.240246 0.196239 68 158 153
0.127514 -0.992926 -0.114946 144 1 113
0.133321 -0.775707 -0.59505 144 29 52
0.0531175 0.0942766 -0.293069 134 140 90
0.410517 0.499366 -0.225028 180 191 99
-0.444334 -0.339236 0.115295 71 84 142
0.438502 0.327992 0.142521 183 169 146
0.539723 0.291099 -0.0756953 196 165 118
-0.312763 0.523469 -0.151402 88 194 108
0.0809936 -0.720612 -0.636434 138 36 46
-0.46096 -0.0549525 0.0764447 69 120 137
-0.0846318 0.506796 0.150143 117 192 147
-0.342311 -0.935436 -0.384363 84 8 78
-0.466981 -0.407656 -0.0103855 68 76 126
0.188106 0.587396 0.146605 151 202 146
-0.311326 -0.989719 -0.155844 88 1 108
-0.300766 -0.361021 -0.374072 89 81 80
-0.417173 0.428204 0.0760001 74 182 137
-0.337709 0.0990792 -0.0294294 84 140 124
0.462742 -0.788404 0.346825 186 27 172
-0.243742 0.373547 -0.222966 96 175 99
-0.420544 0.102617 0.137181 74 141 145
-0.345175 0.637726 -0.175828 83 209 105
-0.241334 0.031265 -0.385988 97 131 78
-0.282024 -0.184413 -0.334215 92 104 85
-0.441676 -0.199235 0.175364 71 102 150
-0.410399 -0.981281 0.144736 75 2 146
-0.106381 -0.489279 0.208748 114 65 154
-0.212927 -0.0916968 0.358283 100 116 173
-0.430285 -0.881434 -0.0796348 73 15 117
0.274217 0.558393 -0.502447 162 199 63
-0.27339 0.367226 0.170311 93 174 149
-0.378393 -0.989226 0.278616 79 1 163
0.401078 0.108739 0.303813 179 141 166
0.341308 0.446611 -0.347022 171 184 83
0.197938 -0.993618 0.0882665 153 1 139
0.13938 0.328497 0.401941 145 169 179
-0.298663 0.0129229 0.119056 89 129 143
0.418506 0.329594 0.152189 181 170 147
0.127015 0.797877 0.27485 144 229 163
0.59808 -0.743895 0.0236717 204 33 131
0.198028 0.893383 0.0759738 153 241 137
0.484388 -0.221975 -0.190549 189 99 103
0.536228 -0.900922 -0.282933 196 13 91
-0.498108 -0.976351 0.209045 64 3 154
-0.507179 -0.964624 0.451036 63 5 185
0.111638 0.5423 -0.564334 142 197 56
0.0966429 0.180518 0.356489 140 151 173
-0.455018 -0.466853 -0.094147 69 68 115
0.512168 -0.111055 0.153594 193 113 147
-0.475866 -0.472072 0.186581 67 67 151
-0.441362 0.0938658 -0.0754239 71 139 118
-0.153126 -0.00174005 0.550813 108 127 198
-0.0588008 0.919845 0.164015 120 245 148
-0.205903 0.340135 -0.571761 101 171 55
0.540874 -0.611982 -0.0989474 196 49 115
0.506957 -0.385093 0.248095 192 78 159
-0.221663 -0.907525 0.387172 99 12 177
-0.354216 -0.86036 0.385255 82 18 177
0.435222 -0.11003 -0.305665 183 113 89
-0.358176 -0.852595 0.401217 82 19 179
-0.147151 -0.54887 0.205025 109 58 154
-0.236072 0.0955091 0.413131 97 140 180
-0.182251 -0.735033 -0.541958 104 34 58
0.142093 -0.235307 -0.165509 146 97 106
-0.517815 0.186468 -0.148327 61 151 109
0.246073 -0.8335 0.336414 159 21 170
-0.0704549 -0.151836 -0.437172 119 108 72
-0.429516 0.716135 -0.071397 73 219 118
0.172983 -0.545624 0.0164979 150 58 130
0.37019 -0.651971 0.233248 175 44 157
-0.24642 0.143013 0.372105 96 146 175
-0.404988 0.592244 -0.00608413 76 203 127
0.199068 -0.772872 -0.56042 153 29 56
-0.368987 -0.611801 0.251307 80 49 160
-0.168857 -0.442089 0.205164 106 71 154
0.309181 -0.0865131 -0.410679 167 116 75
-0.245991 0.322581 -0.409901 96 169 75
0.110313 0.314965 0.445537 142 168 184
-0.292407 0.488636 -0.315096 90 190 87
0.558001 -0.7015 0.0866066 199 38 139
0.399219 -0.997027 -0.4131 178 0 75
0.54534 -0.495871 -0.0459046 197 64 122
0.363817 -0.680838 0.223214 174 41 156
-0.357548 0.724815 -0.108895 82 220 114
-0.468114 0.354572 0.0249734 68 173 131
0.56362 -0.481453 0.163744 199 66 148
0.578938 -0.965884 0.226577 201 4 156
-0.0872302 0.410611 -0.455786 116 180 69
0.534713 0.507142 -0.149286 196 192 108
-0.0712899 -0.604895 0.0258113 118 50 131
-0.199594 -0.98984 0.0848205 102 1 138
-0.235315 0.884297 0.0903699 97 240 139
-0.532276 0.305751 -0.0419945 60 166 122
0.17549 -0.468551 -0.0349905 150 68 123
0.233514 0.853798 0.189211 157 236 152
-0.19077 0.27126 -0.375231 103 162 80
-0.288955 -0.0870103 -0.149186 91 116 108
0.35472 -0.667949 0.161557 173 42 148
0.373247 0.510782 -0.339599 175 193 84
-0.208712 -0.348285 0.229145 101 83 157
0.148432 -0.994601 -0.407271 146 1 76
0.309126 0.573019 0.078262 167 201 137
-0.0358956 0.529376 -0.557893 123 195 56
-0.382378 -0.514062 -0.361631 79 62 81
0.563465 -0.613755 -0.16174 199 49 107
0.130699 0.060772 0.593536 144 135 203
0.534179 -0.99595 -0.153778 196 1 108
0.259045 -0.907234 0.122331 161 12 143
-0.104132 -0.843562 -0.581977 114 20 53
-0.0334643 -0.432344 -0.0384363 123 72 123
0.60325 0.307481 -0.0756564 204 167 118
0.612656 -0.84208 0.0882214 206 20 139
-0.462491 -0.724025 -0.199153 69 35 102
-0.385644 0.385401 0.077627 78 177 137
0.411215 0.333477 -0.42743 180 170 73
0.525017 -0.359687 0.199553 194 82 153
-0.18971 -0.0333674 -0.308003 103 123 88
-0.0333593 -0.2989 0.29468 123 89 165
-0.0242941 0.293764 -0.584338 124 165 53
0.275486 -0.421994 0.340393 163 74 171
0.0425837 -0.965919 -0.608259 133 4 50
0.0595203 -0.17359 -0.206877 135 105 101
0.178679 -0.515123 0.332169 150 62 170
-0.104203 -0.234483 -0.179839 114 98 105
0.514641 -0.218206 -0.148448 193 100 109
0.501922 0.400361 -0.208456 191 179 101
-0.461514 -0.98873 0.340464 69 1 171
-0.305024 0.488262 -0.152169 89 190 108
0.28015 -0.765077 -0.587002 163 30 53
0.413363 0.569136 -0.157781 180 200 107
0.254681 0.557098 -0.517285 160 199 62
-0.0747957 -0.118069 -0.443349 118 112 71
0.538553 -0.203489 0.0512668 196 102 134
-0.203621 -0.647964 0.149637 102 45 147
0.465517 0.457058 -0.448657 187 186 70
0.195109 0.272281 0.459881 152 162 186
0.400018 0.144592 -0.334413 179 146 85
0.374242 -0.246357 0.0242343 175 96 131
0.305567 0.201929 0.289092 166 153 164
0.317121 -0.250294 -0.38385 168 96 79
-0.0732609 -0.942565 -0.588101 118 7 53
0.222954 -0.560839 0.271554 156 56 162
-0.456796 -0.685052 -0.179292 69 40 105
-0.182086 0.627788 0.0909991 104 208 139
0.542977 -0.965855 0.154457 197 4 147
-0.0666632 -0.250894 0.373515 119 96 175
0.419158 0.284548 0.159052 181 164 148
0.55568 -0.610366 0.0821637 198 50 138
0.278831 0.342873 0.388714 163 171 177
-0.317272 0.327071 -0.256757 87 169 95
0.261592 0.0727671 -0.464812 161 137 68
-0.253456 0.0938932 0.355076 95 139 173
-0.0663992 -0.886063 -0.563278 119 15 56
0.13454 -0.676538 0.339491 145 41 171
0.0283777 -0.81552 -0.615045 131 24 49
-0.263848 -0.164637 0.105899 94 107 141
0.378855 -0.33195 0.319428 176 85 168
-0.334036 0.757794 0.0568189 85 224 135
-0.453491 0.23822 0.121531 70 158 143
-0.160988 0.0855223 0.408399 107 138 180
-0.459405 0.345884 -0.0874575 69 172 116
-0.0764372 -0.594164 -0.539596 118 52 59
0.329754 -0.929468 -0.491959 170 9 65
-0.172571 -0.400408 -0.427166 105 76 73
-0.537142 -0.828614 0.315484 59 22 168
-0.197101 0.206248 0.255822 102 154 160
0.394036 0.702662 0.0674142 178 217 136
0.325957 -0.403555 -0.449751 169 76 70
-0.130207 -0.0828068 0.542439 111 117 197
-0.161529 -0.494898 0.084828 107 64 138
0.0572602 -0.49119 -0.551708 135 65 57
0.360442 -0.443226 0.292521 173 71 165
0.0145435 0.238696 0.561551 129 158 199
0.283587 -0.489669 0.27624 164 65 163
0.616822 0.120421 -0.0848676 206 143 117
0.0275376 -0.844641 -0.633397 131 20 47
-0.0593695 -0.288853 0.273772 120 91 162
-0.120484 -0.700687 0.121435 112 38 143
-0.373269 0.653456 0.071047 80 211 137
0.541367 0.476634 -0.0130057 197 188 126
0.34528 0.423996 0.0619314 172 182 135
-0.178139 0.58752 0.10299 105 202 141
0.29991 0.317344 0.214442 166 168 155
0.58479 -0.828444 0.330627 202 22 170
-0.456786 -0.929099 -0.0901018 69 9 116
-0.00118196 -0.244339 0.347372 127 96 172
-0.197848 0.889812 0.135405 102 241 145
-0.0487164 -0.0128451 -0.287789 121 126 91
0.278005 -0.0202707 0.520081 163 125 194
0.483163 0.366999 -0.0306642 189 174 124
0.329697 -0.995557 0.0329953 170 1 132
0.604599 -0.678019 0.00304168 205 41 128
-0.240039 0.199795 0.35515 97 153 173
-0.125104 -0.134913 0.25449 112 110 160
0.384205 -0.629197 -0.50811 176 47 63
0.0204233 -0.143423 -0.468433 130 109 68
-0.00285672 0.798341 0.274796 127 229 163
0.345891 0.55316 0.283546 172 198 164
0.0905585 -0.635936 0.352229 139 46 172
-0.444359 -0.824143 0.414067 71 22 180
0.109235 0.806986 0.249243 141 230 159
-0.127839 -0.609572 0.135101 111 50 145
-0.112069 0.0736164 0.564974 113 137 200
-0.437743 -0.925078 -0.16295 72 10 107
-0.34694 -0.985375 0.298372 83 2 166
0.0482122 0.2001 -0.317312 134 153 87
0.0966928 -0.101233 -0.243705 140 115 96
0.0921038 0.497723 0.343766 139 191 171
-0.0882499 0.795866 0.216944 116 229 155
-0.192542 -0.260642 -0.390359 103 94 78
0.0370048 -0.236482 -0.464551 132 97 68
0.372598 0.0445236 0.144029 175 133 146
-0.44544 0.348764 -0.0184596 71 172 125
-0.453882 0.395615 -0.133565 70 178 110
-0.459946 0.540654 0.0260501 69 196 131
-0.290153 -0.632983 -0.483704 91 47 66
-0.395818 -0.948875 -0.0481151 77 7 121
-0.406324 -0.12876 -0.0674775 76 111 119
-0.104736 -0.159733 0.26102 114 107 161
-0.00921543 -0.710313 0.236256 126 37 158
0.512663 0.146593 0.181502 193 146 151
-0.187944 0.365416 0.334175 104 174 170
-0.226876 0.504534 -0.443953 99 192 71
0.455567 0.151187 0.245948 186 147 159
0.296746 0.0397597 -0.449267 165 133 70
0.323014 -0.0661486 0.340134 169 119 171
0.0188549 0.982024 0.184507 130 253 151
-0.00360649 -0.991327 0.000379969 127 1 128
0.144863 -0.990588 0.352123 146 1 172
-0.0227917 -0.90595 -0.576096 125 12 54
-0.131704 0.846465 0.0770583 111 235 137
-0.180055 -0.991257 0.325613 105 1 169
-0.0321912 0.197422 0.561431 123 153 199
-0.0628926 0.288996 -0.520327 119 164 61
0.515629 -0.305361 0.167847 193 89 149
0.371183 0.734662 0.214778 175 221 155
-0.170104 0.0950609 -0.441302 106 140 71
0.321304 0.665811 0.185399 168 212 151
0.507809 0.175895 -0.1609 192 150 107
-0.233391 0.137824 0.420374 98 145 181
0.353893 0.431215 -0.3219 173 182 86
-0.0934036 -0.747198 0.302837 116 32 166
0.337379 -0.300881 0.00228935 171 89 128
-0.204912 0.742596 0.209805 101 222 154
-0.292309 -0.989273 0.0751257 90 1 137
0.502193 -0.745675 -0.445561 192 32 71
-0.0206923 -0.5716 0.356646 125 55 173
-0.39454 -0.631641 0.302321 77 47 166
-0.219579 -0.211212 -0.16259 100 101 107
0.324721 -0.809199 0.334501 169 24 170
-0.488292 -0.522036 0.0549001 65 61 134
0.322576 -0.282033 0.306357 169 92 167
-0.467423 0.473402 -0.121594 68 188 112
-0.456102 -0.07783 0.0777896 69 118 137
-0.476825 0.487113 -0.0600359 67 190 120
-0.350278 -0.7731 -0.492794 83 29 65
-0.254592 0.00149005 0.335655 95 128 170
0.239607 0.474827 0.29865 158 188 166
-0.268364 -0.689531 0.296813 93 40 165
0.297982 0.76544 0.0127164 165 225 129
0.531772 0.559582 -0.208725 195 199 101
0.452976 -0.996959 0.0951799 185 0 140
0.217428 -0.208462 0.323198 155 101 169
-0.520779 -0.988156 0.352435 61 2 172
-0.158202 -0.990031 0.0103266 107 1 129
0.126943 0.588888 0.166981 144 203 149
0.403719 -0.7919 -0.480643 179 27 66
-0.354781 0.63057 -0.231269 82 208 98
0.275764 -0.1285 0.344831 163 111 171
-0.231041 -0.089206 0.31494 98 116 168
0.173452 0.474504 0.322951 150 188 169
0.533318 -0.996039 0.327851 195 1 169
0.267087 0.81522 0.025116 162 231 131
0.386926 -0.99604 0.145056 177 1 146
0.241281 -0.189014 0.295564 158 103 165
0.227804 0.156809 0.342388 157 147 171
-0.00400207 -0.526186 -0.545035 127 60 58
0.439495 -0.0183589 0.025509 184 125 131
0.0757807 -0.57239 -0.595304 137 55 52
-0.127795 -0.0342257 -0.297647 111 123 90
-0.222147 -0.430918 -0.394158 99 73 77
-0.197917 -0.348242 -0.388773 102 83 78
-0.171822 0.302067 -0.226793 106 166 99
0.0856593 -0.767818 0.323472 138 30 169
-0.00917578 -0.183953 -0.450889 126 104 70
0.64809 -0.675297 -0.0378361 210 41 123
0.0361407 0.322583 0.604429 132 169 205
0.317747 -0.0504342 -0.277637 168 121 92
-0.177039 -0.108248 -0.284553 105 114 91
-0.162142 0.239825 0.458123 107 158 186
-0.411324 -0.305996 -0.166472 75 88 106
-0.18983 -0.989882 -0.0178712 103 1 125
-0.25928 0.818642 0.141383 94 232 146
-0.0542524 0.448374 0.19862 121 185 153
-0.288103 -0.914958 -0.502304 91 11 63
-0.152107 -0.0585381 0.314107 108 120 168
-0.331664 -0.234786 -0.0021998 85 98 127
-0.0210224 -0.934728 0.193841 125 8 152
0.301093 -0.417443 0.21185 166 74 155
0.221047 -0.118445 0.509357 156 112 192
-0.422929 0.643501 -0.352403 74 210 83
0.142094 -0.669001 -0.574191 146 42 54
-0.398876 -0.56685 -0.308981 77 55 88
-0.0322537 -0.774934 0.328662 123 29 169
-0.105236 0.369082 -0.409786 114 175 75
0.339489 0.433639 0.0372844 171 183 132
0.0512689 -0.612135 0.358575 134 49 173
-0.284691 -0.768209 -0.510101 91 30 62
-0.47796 -0.866765 0.478344 67 17 188
0.487158 -0.237226 0.236358 190 97 158
0.552801 -0.761239 0.261547 198 30 161
0.376735 -0.996366 -0.0596777 176 0 120
0.451133 -0.558158 -0.418848 185 56 74
-0.213625 0.422176 -0.364601 100 181 81
0.0113629 0.328875 0.599491 129 169 204
-0.37947 0.107571 -0.135078 79 141 110
0.617128 -0.620289 -0.0214411 206 48 125
0.430678 0.076681 0.142203 182 137 146
0.172566 0.869135 0.0795148 150 238 138
-0.183024 -0.782747 -0.575475 104 28 54
-0.329524 0.314309 -0.165337 85 168 106
0.48269 0.393094 -0.179929 189 178 105
-0.102351 -0.297977 0.332936 114 90 170
-0.347126 -0.514079 0.209065 83 62 154
-0.197034 -0.258731 0.173482 102 95 150
0.255077 -0.198031 -0.1775 160 102 105
-0.306024 0.0555758 0.306511 88 135 167
0.475692 -0.92095 -0.0112315 188 10 126
-0.114848 -0.991948 -0.366938 113 1 81
0.324222 -0.308019 0.212347 169 88 155
-0.269201 0.194616 -0.320906 93 152 87
-0.390569 0.735849 -0.0814359 78 221 117
-0.13636 0.481428 0.117 110 189 142
-0.337949 0.583479 -0.315751 84 202 87
0.56571 -0.8771 -0.0940725 200 16 116
0.173918 -0.463125 0.252217 150 68 160
0.446544 -0.0877424 0.252097 184 116 160
0.455421 0.239459 0.0176949 186 158 130
0.524519 -0.430051 0.128457 194 73 144
0.0752689 0.914286 0.180149 137 244 150
-0.463604 -0.0220457 0.0696724 68 125 136
-0.409097 0.615815 -0.388167 75 206 78
0.197533 -0.121753 -0.228352 153 112 98
0.0303371 0.67557 0.172224 131 214 149
-0.463057 -0.833383 0.0696937 68 21 136
-0.341256 -0.0965737 -0.0568751 84 115 120
-0.256919 0.57587 0.272233 95 201 162
0.338381 -0.390983 -0.436599 171 78 72
-0.140894 -0.990368 0.085877 110 1 138
0.229808 -0.358199 -0.476294 157 82 67
0.583258 -0.926354 -0.178654 202 9 105
0.118615 0.287531 -0.357386 143 164 82
0.2915 -0.174981 -0.396056 165 105 77
0.454366 -0.209312 -0.212014 185 101 100
0.195779 -0.333227 0.331788 152 85 170
0.217626 0.637154 0.131511 155 209 144
-0.0135557 -0.205996 -0.447888 126 101 70
0.338042 -0.0981179 -0.396007 171 115 77
0.0962102 0.518214 0.333006 140 194 170
-0.398762 -0.428301 -0.172219 77 73 106
-0.305295 0.578626 0.240387 89 201 158
0.00145174 0.472569 -0.519439 128 188 61
0.375508 0.00175876 0.231207 175 128 157
0.0313712 0.619629 0.192747 131 207 152
-0.206244 0.147514 0.281842 101 146 163
-0.0291834 0.180235 0.589752 124 150 203
0.566151 -0.772396 -0.214243 200 29 100
-0.0336107 -0.822862 0.339505 123 23 171
0.442842 -0.0736868 -0.264983 184 118 94
0.268512 -0.994772 -0.122461 162 1 112
-0.455475 -0.902136 -0.0925683 69 12 116
-0.447034 -0.510837 -0.141867 71 62 109
-0.441268 0.217268 0.0187514 71 155 130
-0.28387 -0.600449 -0.487137 91 51 65
0.45495 -0.99718 -0.317839 186 0 87
0.24568 -0.910653 -0.598284 159 11 51
0.491583 0.406705 -0.271832 190 179 93
0.283316 -0.26743 -0.103556 164 93 114
0.600233 -0.865309 -0.145497 204 17 109
0.297053 0.116611 0.521203 165 142 194
0.0443835 0.516332 0.333616 133 193 170
-0.570866 -0.695179 0.188831 55 39 152
-0.0745689 0.466347 0.174878 118 187 150
0.39412 -0.133022 -0.330224 178 111 85
0.386082 -0.0632933 -0.349463 177 119 83
-0.349036 0.0485092 0.245827 83 134 159
0.456348 -0.935172 -0.428509 186 8 73
0.344615 0.125473 0.394177 171 143 178
-0.122416 -0.536931 0.268164 112 59 162
0.300556 0.89758 0.111254 166 242 142
-0.129681 -0.991699 -0.214487 111 1 100
0.488811 -0.791313 -0.40857 190 27 75
-0.4538 0.247905 0.0314821 70 159 132
-0.422376 -0.17203 -0.00109257 74 106 127
0.223902 -0.797744 0.187749 156 26 151
-0.183351 -0.0067095 -0.42606 104 127 73
0.175586 -0.605003 -0.565521 150 50 55
-0.27621 0.1252 -0.171946 92 143 106
-0.233285 -0.659772 0.260352 98 43 161
0.0508525 -0.500767 0.382931 134 64 176
0.0986812 -0.994087 0.316252 140 1 168
0.378555 -0.125975 0.165298 176 111 149
-0.260577 0.0724924 0.212466 94 137 155
0.318231 0.24374 -0.266533 168 159 94
0.388829 0.0845988 0.326868 177 138 169
-0.113966 0.759663 0.241708 113 224 158
-0.319192 0.520161 -0.21168 87 194 101
-0.0873969 0.679121 0.142417 116 214 146
-0.246803 -0.990556 -0.167508 96 1 106
0.443611 0.0942606 0.258222 184 140 160
-0.281617 0.442793 -0.105129 92 184 114
-0.565337 -0.98829 0.378625 55 1 176
-0.404686 -0.57533 0.210516 76 54 154
0.0164508 0.723606 0.263553 130 220 161
0.266381 -0.67164 0.19358 161 42 152
0.398222 0.198813 0.196816 178 153 153
-0.391632 -0.982531 -0.144276 78 2 109
-0.00729568 -0.419439 0.38461 127 74 177
-0.45479 0.359853 0.0399098 70 173 133
0.515473 0.599459 0.0354682 193 204 132
-0.113526 -0.990332 -0.0300161 113 1 124
-0.00783771 0.227569 -0.31398 127 157 87
0.178967 -0.167703 0.3344 150 106 170
0.518655 -0.0210911 0.101298 194 125 140
-0.0908922 0.65278 0.149172 116 211 147
0.531073 -0.988046 0.165104 195 2 149
0.360056 -0.148439 -0.375119 173 109 80
0.244191 -0.192684 -0.44849 159 103 70
-0.30371 0.497564 -0.281184 89 191 92
0.510967 -0.389431 0.114596 193 78 142
-0.523271 -0.873598 0.492031 61 16 190
0.371297 -0.274816 0.156902 175 92 148
0.37233 0.236696 0.210517 175 158 154
0.210702 -0.0671783 0.58574 154 119 202
-0.389995 0.339973 0.0841901 78 171 138
0.488909 0.41562 -0.0812495 190 180 117
-0.402194 -0.94346 0.395766 76 7 178
0.0464181 0.369376 0.572451 133 175 200
0.260533 -0.611924 -0.561279 161 49 56
0.507138 -0.144931 -0.172419 192 109 106
0.534679 -0.650314 0.126419 196 45 144
-0.263489 -0.24893 -0.35218 94 96 83
0.100955 -0.662811 0.0265577 140 43 131
-0.265991 0.81491 0.0636101 94 231 136
-0.148814 0.93294 0.131567 109 246 144
0.146378 0.942571 0.207616 146 248 154
0.545393 0.19707 -0.184526 197 153 104
0.0281661 -0.482729 -0.0349499 131 66 123
-0.451295 -0.398168 0.059475 70 77 135
-0.240143 0.186731 0.36937 97 151 175
0.503912 0.435081 -0.0701649 192 183 119
-0.317809 -0.495745 0.211909 87 64 155
-0.567981 -0.911913 0.456988 55 11 186
0.527734 -0.932517 -0.338084 195 9 84
0.38358 0.500391 -0.311436 176 191 88
0.0252463 -0.609054 -0.592038 131 50 52
0.529721 -0.478083 0.0910274 195 67 139
0.386712 0.435706 0.205845 177 183 154
0.0101167 -0.263974 0.408882 129 94 180
0.165729 0.323431 0.406806 149 169 179
-0.384098 0.460058 -0.267743 79 186 93
0.247763 0.284295 -0.292614 159 164 90
-0.215001 0.404345 0.0402289 100 179 133
-0.255766 -0.245205 -0.0970742 95 96 115
-0.259585 -0.989452 0.035942 94 1 132
0.108832 -0.0442852 0.662629 141 122 212
0.48574 0.33251 -0.342289 189 170 84
-0.53507 -0.720291 0.151877 59 36 147
0.528747 -0.755617 0.290876 195 31 165
0.152314 -0.716534 -0.575558 147 36 54
-0.696874 -0.877038 0.364596 39 16 174
-0.232694 -0.864064 -0.471419 98 17 67
-0.443016 -0.475199 -0.125105 71 67 112
0.0485111 -0.357075 -0.0917046 134 82 116
0.0920291 -0.992954 0.153629 139 1 147
-0.0822846 -0.731068 0.193077 117 34 152
-0.353802 0.629966 -0.271619 82 208 93
0.238287 -0.995363 -0.43002 158 1 73
0.463129 0.35977 -0.231395 187 173 98
0.175038 -0.907705 0.378794 150 12 176
0.235651 -0.658588 0.175972 158 44 150
-0.371686 0.408436 -0.446845 80 180 71
-0.453107 0.609794 -0.231523 70 205 98
0.00745743 -0.307056 0.399824 128 88 178
0.39409 -0.410698 0.337934 178 75 171
0.172105 0.850062 0.0789604 149 236 138
-0.18837 0.413097 -0.604537 103 180 50
-0.594808 -0.988077 0.366514 52 2 174
-0.0798272 -0.200112 0.390447 117 102 177
0.538194 0.290605 0.0434187 196 165 133
-0.0465531 -0.991007 0.00151128 122 1 128
-0.269807 0.239829 0.0538997 93 158 134
0.393352 -0.160241 0.319479 178 107 168
0.158798 -0.744249 0.332621 148 33 170
0.208119 -0.194546 -0.445953 154 103 71
0.279677 0.266696 -0.279654 163 162 92
0.297468 -0.724693 -0.57721 165 35 54
-0.190413 0.714032 0.209589 103 219 154
-0.2746 -0.284861 -0.0322008 92 91 123
-0.163472 0.115867 -0.443021 107 142 71
0.158662 -0.160029 0.486535 148 107 190
0.543802 0.110239 0.0786473 197 142 138
0.305721 0.379044 0.200042 166 176 153
0.0454798 -0.250113 -0.469312 133 96 68
-0.00532686 -0.985526 -0.597421 127 2 51
-0.228317 0.317056 0.141226 98 168 146
-0.2834 -0.632764 0.275588 91 47 163
0.456327 -0.620367 0.179847 186 48 150
-0.233346 0.250859 -0.172539 98 159 106
-0.285731 -0.989597 0.110773 91 1 142
0.461488 -0.354034 0.264229 186 82 161
-0.414037 -0.837706 -0.226623 75 21 99
0.299235 -0.397488 -0.43667 166 77 72
0.135778 0.707616 0.144933 145 218 146
-0.24212 -0.89028 0.355508 97 14 173
-0.307279 -0.717443 -0.536946 88 36 59
0.0152747 -0.780672 0.237069 129 28 158
-0.5265 -0.687498 0.26687 60 40 162
-0.43955 0.517621 -0.0431666 71 193 122
-0.267366 -0.285517 -0.358033 93 91 82
0.391014 -0.555688 -0.472679 177 57 67
-0.0693327 -0.990989 -0.092758 119 1 116
0.216498 -0.11389 0.376496 155 113 176
0.02187 0.502654 0.336647 130 192 170
-0.418607 0.274132 0.0856251 74 162 138
-0.0513058 -0.660988 0.224779 121 43 156
-0.331828 -0.806562 0.413366 85 25 180
0.0195324 -0.137187 0.379176 130 110 176
0.210564 0.457145 -0.467817 154 186 68
-0.602536 -0.730426 0.22697 51 34 156
0.0566824 -0.934234 0.384009 135 8 176
-0.0878946 -0.255128 -0.158794 116 95 107
0.171054 0.622871 0.166696 149 207 149
