ply
format ascii 1.0
comment Created by Open3D
element vertex 1222
property double x
property double y
property double z
property uchar red
property uchar green
property uchar blue
end_header
0.39097 -0.920639 -0.632099 177 10 47
0.106234 -0.998456 -0.167113 141 0 106
-0.534733 -0.697981 -0.301406 59 39 89
0.637138 -0.430864 -0.186235 209 73 104
-0.364185 0.872603 -0.554699 81 239 57
0.266223 0.565324 0.336431 161 200 170
-0.0531716 -0.192851 -0.562211 121 103 56
-0.00338532 0.967406 -0.14488 127 251 109
-0.0747989 -0.999463 -0.173467 118 0 105
0.177814 -0.676781 0.30356 150 41 166
-0.451574 0.527829 -0.552809 70 195 57
0.569376 -0.373366 0.14067 200 80 145
-0.563622 0.421382 -0.514093 56 181 62
-0.701299 -0.999173 -0.121319 38 0 112
0.54874 -0.00457469 -0.439402 197 127 71
0.583507 -0.997173 0.619355 202 0 206
0.548148 -0.593818 -0.390774 197 52 78
0.0566257 0.689668 0.338948 135 215 171
0.177564 -0.996958 0.213166 150 0 155
-0.513063 -0.779971 0.296271 62 28 165
0.67789 -0.91566 -0.64534 214 11 45
-0.498928 -0.996411 0.316047 64 0 168
-0.326738 0.452688 -0.561819 86 185 56
-0.557026 -0.379746 -0.376746 56 79 79
0.301433 0.550782 -0.555522 166 198 57
-0.607306 -0.593304 0.0328007 50 52 132
0.322791 -0.321535 0.312376 169 87 167
-0.499591 -0.88685 0.468777 64 14 187
-0.181606 0.93987 -0.518962 104 247 61
0.608134 -0.997178 0.707945 205 0 218
-0.601227 0.390833 0.255275 51 177 160
-0.583272 0.301156 -0.491905 53 166 65
0.582054 -0.924071 0.428775 202 10 182
-0.340261 0.643664 -0.265841 84 210 94
0.297705 0.672381 0.300633 165 213 166
0.365066 -0.994827 -0.725752 174 1 35
0.497188 0.100928 0.310475 191 140 167
0.28681 0.685512 0.384214 164 215 176
0.545931 -0.610291 0.134212 197 50 145
-0.358337 0.666871 -0.317997 82 213 87
0.697158 -0.924724 0.406863 216 10 179
0.18137 0.807431 -0.371976 151 230 80
-0.564873 0.41678 -0.633021 55 181 47
0.326943 -0.996451 0.208121 169 0 154
-0.62223 0.370669 0.243633 48 175 159
-0.107169 0.873258 0.19032 114 239 152
0.147871 -0.92364 0.422096 146 10 181
0.548495 -0.00730584 -0.350709 197 127 83
0.462152 0.333845 -0.554187 186 170 57
0.392921 0.00653547 -0.557225 178 128 56
-0.551085 0.334973 -0.360945 57 170 81
0.310901 -0.191181 -0.559214 167 103 56
-0.0399202 -0.994518 0.58241 122 1 202
-0.627326 0.264292 0.217626 48 161 155
0.545559 -0.57781 0.180331 197 54 150
0.612743 -0.648395 -0.125915 206 45 111
-0.0248763 -0.573539 0.375106 124 54 175
-0.00869899 0.805912 -0.557378 126 230 56
-0.311479 -0.859133 0.297776 88 18 165
0.547806 0.234387 -0.0658589 197 157 119
-0.271226 0.698742 -0.630894 93 217 47
0.381215 0.296264 0.337253 176 165 170
0.727797 0.254063 0.385517 220 160 177
-0.285407 -0.431586 0.399478 91 72 178
0.439828 -0.723249 0.432012 184 35 183
0.146283 -0.997292 0.180442 146 0 151
0.0649483 0.922472 -0.394227 136 245 77
-0.423987 -0.459454 -0.568206 73 69 55
0.72204 -0.924778 0.625331 220 10 207
0.769376 -0.94123 0.668961 226 7 213
0.521065 0.458062 0.171874 194 186 149
-0.135061 0.845749 0.182132 110 235 151
0.544597 -0.780569 0.240835 197 28 158
-0.555453 0.333133 -0.259685 57 170 94
0.283587 -0.190761 0.316267 164 103 168
0.670678 0.320592 -0.0931624 213 168 116
0.633024 -0.512871 -0.20774 208 62 101
-0.524326 0.454938 -0.656922 61 186 44
0.0390267 -0.209592 -0.561436 132 101 56
0.5834 -0.434951 -0.200289 202 72 102
0.548605 0.178492 -0.359855 197 150 82
0.282348 0.182974 -0.556798 163 151 57
-0.382906 -0.0753965 -0.565292 79 118 55
0.548857 0.0915592 -0.444334 197 139 71
-0.660503 0.259265 -0.67682 43 161 41
-0.538405 -0.638434 0.325221 59 46 169
-0.537163 -0.725818 -0.0788678 59 35 117
0.110461 -0.924815 0.334662 142 10 170
-0.629644 0.260312 0.320956 47 161 168
0.47664 -0.996444 0.414853 188 0 180
0.169415 -0.92395 0.371318 149 10 175
-0.21133 0.866302 -0.537826 101 238 59
0.273752 -0.850682 -0.564016 162 19 56
0.7513 -0.927352 0.513517 223 9 193
0.343062 0.689089 0.18128 171 215 151
0.467654 -0.549056 0.306408 187 57 167
0.744271 -0.9973 0.265069 222 0 161
0.115821 -0.838766 0.301897 142 21 166
0.547631 -0.773183 -0.321999 197 29 86
-0.202121 -0.993391 0.613259 102 1 206
-0.301162 0.0613542 0.322808 89 135 169
-0.394612 -0.53524 -0.568309 77 59 55
0.178883 -0.116849 0.306963 150 113 167
0.601268 -0.922483 -0.0817984 204 10 117
0.0880445 -0.998157 -0.271478 139 0 93
-0.539862 -0.777509 0.212967 59 28 155
0.548749 -0.00425462 -0.483053 197 127 66
-0.120259 0.524542 0.274378 112 194 162
-0.0967141 0.881744 0.293474 115 240 165
0.547347 0.163556 0.0199485 197 148 130
0.739328 0.258928 -0.427389 222 161 73
0.29974 -0.995137 0.636897 166 1 209
-0.226813 -0.924871 -0.664546 99 10 43
-0.357191 -0.992696 0.602218 82 1 204
0.453493 -0.429929 0.30708 185 73 167
-0.68004 0.314755 0.162879 41 168 148
-0.336437 0.64991 0.0973671 85 210 140
0.248616 -0.905316 -0.574984 159 12 54
0.322182 -0.996313 0.0920261 169 0 139
-0.208991 -0.592187 0.470573 101 52 187
-0.774362 -0.977663 0.142615 29 3 146
0.187125 0.458097 0.340344 151 186 171
0.284393 0.339451 -0.555824 164 171 57
-0.060173 0.7558 -0.557819 120 224 56
0.31676 -0.996391 0.116656 168 0 142
-0.518043 0.465225 -0.515857 61 187 62
0.0811159 0.894737 -0.0196925 138 242 125
-0.379152 -0.714439 -0.569264 79 36 55
0.610138 -0.916711 -0.753898 205 11 31
-0.469768 -0.40805 0.444824 68 75 184
-0.534333 0.265538 -0.491397 59 161 65
-0.350821 0.961671 -0.388547 83 250 78
-0.451032 -0.996863 -0.517517 70 0 62
-0.463499 0.520494 0.411508 68 194 180
-0.426318 0.454425 0.418382 73 185 181
0.253066 -0.607702 -0.567683 160 50 55
-0.459742 -0.64112 0.601321 69 46 204
-0.0540383 0.912659 -0.553133 121 244 57
-0.515903 0.464727 -0.592655 62 187 52
-0.701029 0.29473 -0.241436 38 165 97
-0.257955 0.954425 -0.522404 95 249 61
-0.266022 0.957949 -0.440618 94 250 71
0.0701361 0.919517 -0.437948 136 245 72
-0.661314 -0.997479 -0.324673 43 0 86
0.101324 0.111222 0.315623 140 142 168
0.583114 -0.923101 0.00666476 202 10 128
0.544856 -0.496393 0.229666 197 64 157
-0.0253536 0.950577 -0.22735 124 249 99
-0.556984 -0.843606 0.586885 56 20 202
-0.216152 0.098059 -0.56215 100 140 56
0.548795 0.0430034 -0.470515 197 133 68
-0.532688 -0.997409 -0.280759 60 0 92
0.629824 0.373242 -0.550537 208 175 57
0.0761802 0.0576872 -0.559283 137 135 56
-0.263101 -0.395317 0.300288 94 77 166
0.545871 -0.9073 0.144115 197 12 146
0.000303488 -0.994738 0.576045 128 1 201
-0.287607 0.696817 -0.139953 91 216 110
-0.177849 0.373648 -0.560189 105 175 56
0.543131 0.119393 0.251632 197 143 160
0.0556258 -0.409819 0.454986 135 75 186
0.348437 -0.996293 0.331917 172 0 170
-0.0743902 -0.224355 0.302907 118 99 166
0.53446 -0.0440876 0.266602 196 122 161
-0.235897 -0.925606 0.330153 97 9 170
-0.0191629 0.955153 -0.273402 125 249 93
0.686333 0.307707 -0.180696 215 167 104
0.568161 -0.0477207 -0.0226544 200 121 125
0.134187 -0.996847 0.267135 145 0 162
-0.739914 -0.928794 -0.126889 33 9 111
-0.54149 -0.40727 0.229556 58 76 157
-0.125521 0.123193 -0.560954 111 143 56
-0.412721 -0.919357 0.709731 75 10 218
-0.281518 -0.999366 -0.0908923 92 0 116
0.546303 -0.750152 0.062247 197 32 135
-0.194339 0.739741 0.440797 103 222 184
0.714085 -0.994938 0.769697 219 1 226
-0.358381 0.514737 -0.587604 82 193 53
0.434944 -0.963303 0.772452 183 5 226
-0.44845 0.330646 -0.564001 70 170 56
0.442483 -0.638718 0.46745 184 46 187
0.361332 -0.37889 -0.560173 174 79 56
0.0335188 -0.993523 0.69336 132 1 216
0.264618 -0.996021 -0.472852 161 1 67
0.568435 -0.40441 -0.14787 200 76 109
0.626278 0.258687 -0.0374859 207 160 123
-0.572991 0.286397 -0.651934 54 164 44
-0.0278367 -0.21491 -0.562107 124 100 56
0.428139 -0.92279 0.42052 182 10 181
-0.557317 -0.451858 -0.373941 56 70 80
0.554729 0.449324 -0.650685 198 185 45
0.526955 -0.91813 -0.686068 195 10 40
0.579119 -0.997253 0.585164 201 0 202
-0.117544 -0.514015 0.300659 113 62 166
-0.170574 -0.99952 -0.140377 106 0 110
0.144569 0.0144856 -0.559001 146 129 56
0.548743 0.0142453 -0.428519 197 129 73
0.149086 0.626285 -0.556219 147 207 57
0.553656 0.438681 -0.227524 198 183 98
0.564151 -0.120927 -0.268994 199 112 93
-0.424317 -0.996293 -0.754041 73 0 31
0.0436059 -0.644576 -0.568626 133 45 55
0.547002 0.120058 0.0694077 197 143 136
-0.016767 -0.48891 0.407196 125 65 179
0.368849 -0.923343 0.42023 175 10 181
0.660557 0.325635 -0.11016 212 169 113
0.545679 0.191325 0.18846 197 152 152
0.0561714 -0.686347 -0.569548 135 40 55
0.492061 0.500562 -0.289725 190 191 91
-0.537869 -0.691001 -0.0303119 59 39 124
0.423226 -0.402432 0.328006 181 76 169
-0.534635 -0.788186 -0.292875 59 27 90
0.0283211 0.8647 -0.654724 131 238 44
0.548429 0.0957956 -0.299423 197 140 89
-0.714458 -0.997463 0.201295 36 0 153
0.106152 0.897794 0.145436 141 242 146
-0.256502 -0.550672 -0.567075 95 57 55
0.642263 0.250877 -0.338986 209 159 84
0.343119 -0.996239 0.086396 171 0 139
-0.2639 -0.735182 0.29867 94 34 166
0.331753 -0.700637 0.443837 170 38 184
0.666104 -0.994247 -0.177621 212 1 105
0.481734 -0.994332 -0.27457 189 1 92
0.490423 -0.99648 0.437863 190 0 183
-0.69049 -0.996545 -0.445404 39 0 71
0.0612095 -0.549456 -0.566886 135 57 55
-0.0758565 0.904483 0.0699963 118 243 136
-0.460452 0.0773441 0.299958 69 137 166
0.546756 0.0086381 0.0863362 197 129 139
-0.54058 -0.579704 0.378575 59 54 176
0.769881 -0.962846 0.622939 226 5 207
0.295596 -0.996647 -0.119575 165 0 112
-0.581538 -0.996769 -0.408453 53 0 75
0.561507 0.319077 0.137943 199 168 145
-0.392893 0.784425 -0.322924 77 228 86
-0.625459 0.369624 -0.00909103 48 175 126
0.160738 0.834394 -0.555759 148 234 57
0.0065886 -0.358747 0.404285 128 82 179
0.648191 -0.924522 0.451699 210 10 185
0.230729 0.764173 0.163074 157 225 148
-0.36733 0.950601 -0.309974 81 249 88
0.17227 -0.708051 0.539665 149 37 196
0.377616 0.111104 0.347751 176 142 172
0.274133 0.429977 0.335674 162 182 170
0.579613 -0.435674 0.0520651 201 72 134
0.489486 0.482219 -0.659821 190 189 43
0.553476 -0.119331 0.169603 198 112 149
0.483115 -0.699707 0.38084 189 38 176
0.163222 -0.99527 0.57523 148 1 201
0.581589 -0.645526 -0.182934 202 45 104
0.534713 -0.141396 0.288175 196 109 164
-0.413347 0.00658134 -0.565217 75 128 55
-0.585533 -0.997165 -0.32208 53 0 86
0.696232 -0.923988 0.0643581 216 10 136
-0.5578 -0.0239242 -0.216836 56 124 100
-0.119563 0.851154 0.439994 112 236 184
0.206313 -0.695454 0.303654 154 39 166
-0.251311 -0.9971 -0.702947 95 0 38
0.224288 -0.425417 0.308367 156 73 167
-0.539694 0.444708 -0.494409 59 184 64
0.298063 -0.995984 0.447497 166 1 185
-0.11287 -0.477704 -0.564318 113 67 56
0.548736 0.212949 -0.455495 197 155 69
0.0289375 -0.746783 0.301627 131 32 166
0.360189 -0.650345 -0.561996 173 45 56
0.336568 0.0360528 -0.557411 170 132 56
0.405107 -0.994645 -0.502488 179 1 63
-0.431941 0.707376 -0.546001 72 218 58
0.396218 -0.796084 -0.562445 178 26 56
0.647491 -0.567033 0.0103244 210 55 129
-0.30664 -0.99045 0.76132 88 1 225
-0.539787 0.118869 -0.109621 59 143 114
0.627461 -0.502655 -0.160784 208 63 107
-0.548037 -0.995357 0.393748 58 1 178
0.476987 0.419079 -0.555556 188 181 57
-0.521574 0.233281 -0.564986 61 157 55
-0.0765211 -0.72215 -0.569427 118 35 55
-0.53226 -0.998309 -0.154653 60 0 108
0.399279 -0.996083 0.506549 178 0 192
0.389916 0.592144 0.00195462 177 203 128
0.455972 0.537021 -0.324099 186 196 86
-0.13324 -0.996825 0.347965 111 0 172
0.465732 -0.919324 -0.67349 187 10 42
0.548472 -0.462449 -0.443548 197 69 71
0.565754 -0.132389 -0.0439639 200 111 122
-0.0820376 0.892763 -0.329308 117 241 86
-0.0552879 -0.114742 -0.561725 120 113 56
0.518641 -0.727148 0.474365 194 35 188
-0.67462 -0.994974 0.411734 41 1 180
-0.550803 -0.996956 0.243968 57 0 159
-0.554264 -0.687699 0.584286 57 40 202
0.676117 -0.488236 -0.104049 214 65 114
-0.0341768 0.945149 0.102483 123 248 141
-0.101679 0.875472 0.310832 115 239 167
-0.598869 -0.997862 0.0712272 51 0 137
-0.752779 -0.922496 0.495382 32 10 191
0.245659 0.743618 -0.377275 159 222 79
-0.222005 -0.0616797 0.320815 99 120 168
-0.0923601 0.881737 -0.36711 116 240 81
-0.458678 -0.921784 0.52744 69 10 195
-0.706267 0.212811 0.0207912 37 155 130
-0.131274 -0.73469 0.299932 111 34 166
-0.320356 0.592139 0.437539 87 203 183
-0.443602 -0.187344 0.319122 71 104 168
0.170255 0.806201 0.00651468 149 230 128
0.490085 -0.995811 0.0682279 190 1 136
-0.693522 0.301294 0.246353 39 166 159
-0.511207 -0.952359 0.770447 62 6 226
-0.390174 0.594878 -0.313869 78 203 87
-0.17337 -0.924908 -0.704842 105 10 38
0.548824 0.0923728 -0.475947 197 139 67
0.536075 -0.92366 0.627224 196 10 207
0.0673529 0.923839 -0.48782 136 245 65
-0.0427701 -0.99823 -0.409109 122 0 75
0.721084 0.229544 -0.0819873 219 157 117
-0.445298 -0.902367 0.63674 71 12 209
0.0891965 0.874478 -0.663227 139 239 43
-0.329016 -0.440678 0.394509 86 71 178
0.565568 -0.996654 0.331688 200 0 170
-0.212019 -0.359043 0.42873 100 82 182
0.46265 -0.996247 0.156889 186 0 148
-0.417379 0.5698 -0.179653 74 200 105
0.220091 -0.9976 -0.0748463 156 0 118
-0.400507 -0.997127 -0.516572 76 0 62
-0.147918 -0.995236 0.49566 109 1 191
0.381645 -0.995294 0.735074 176 1 221
0.127185 0.869459 0.0410445 144 238 133
-0.421101 0.556569 0.432335 74 198 183
0.548201 0.154502 -0.205685 197 147 101
-0.685491 0.311033 0.0898175 40 167 139
0.629222 -0.587815 0.083402 208 53 138
-0.541121 -0.363228 -0.250765 59 81 96
0.0189363 0.965621 -0.309448 130 251 88
0.211138 -0.975307 -0.772275 154 3 29
-0.440493 0.757067 -0.523032 71 224 61
-0.274793 -0.998118 -0.358627 92 0 82
-0.459504 -0.854441 0.376347 69 19 175
0.0766425 0.307625 -0.557811 137 167 56
-0.565714 -0.998039 0.0884712 55 0 139
-0.458845 -0.573607 0.374131 69 54 175
-0.542309 -0.0591699 0.183472 58 120 151
-0.713949 0.224076 -0.135241 36 156 110
0.266534 -0.399855 -0.560297 161 77 56
0.0515189 -0.994248 0.629652 134 1 208
-0.594927 -0.99724 0.195351 52 0 152
-0.708102 -0.927811 0.0439715 37 9 133
-0.010301 0.722492 -0.557408 126 220 56
0.545312 -0.438521 0.202705 197 72 153
0.16986 0.824802 0.118136 149 233 143
0.610133 -0.924235 0.290402 205 10 165
-0.412119 -0.997756 -0.307971 75 0 88
-0.128829 0.678846 0.328689 111 214 169
-0.765375 -0.920034 0.689977 30 10 215
0.687658 -0.991163 -0.455243 215 1 69
-0.538969 -0.331591 -0.061767 59 85 120
-0.564531 0.420298 0.427306 56 181 182
-0.514698 0.472367 -0.261977 62 188 94
0.482979 -0.977387 -0.771277 189 3 29
0.374143 0.497473 0.390454 175 191 177
0.740549 -0.997689 0.626883 222 0 207
0.0434766 -0.815125 -0.572297 133 24 55
-0.110803 -0.679917 -0.568362 113 41 55
0.771987 -0.951261 0.250727 226 6 159
-0.247771 0.628808 0.426009 96 208 182
-0.0184125 -0.160073 -0.561637 125 107 56
-0.509892 0.367446 -0.5972 62 174 51
-0.73285 -0.994882 0.402404 34 1 179
-0.435797 -0.757187 0.44101 72 31 184
0.246191 -0.996757 0.136844 159 0 145
-0.4342 -0.996716 0.299584 72 0 166
-0.0943647 -0.22488 -0.562866 115 99 56
-0.592951 -0.927331 0.0201751 52 9 130
0.645626 -0.45992 -0.186721 210 69 104
-0.666864 -0.992488 -0.765719 42 1 30
-0.532863 -0.40255 -0.551249 60 76 57
-0.118556 0.857954 -0.281966 112 237 92
-0.443395 -0.49024 0.297755 71 65 165
0.635531 -0.924373 0.23574 209 10 158
0.0212988 0.685265 -0.557123 130 215 56
-0.542402 0.133385 0.123474 58 145 143
0.546878 -0.681075 -0.0449617 197 41 122
-0.727347 0.242384 -0.369312 35 158 80
0.175829 0.609137 0.334926 150 205 170
-0.249511 0.958662 -0.406145 96 250 76
-0.248924 0.731852 0.360843 96 221 174
0.257494 0.715557 0.0304089 160 219 131
-0.129404 -0.999375 -0.186929 111 0 104
-0.625254 -0.550253 -0.0684271 48 57 119
-0.422568 0.566185 0.0667637 74 200 136
0.149537 -0.789129 0.491224 147 27 190
-0.21346 0.444848 0.325824 100 184 169
-0.438789 0.877856 -0.483388 72 239 66
-0.285648 -0.506762 -0.567019 91 63 55
-0.532481 -0.639061 -0.501413 60 46 64
0.545411 -0.620603 0.193613 197 48 152
-0.532896 -0.473837 -0.49437 60 67 64
0.290203 0.710028 -0.62118 165 218 48
-0.09502 -0.999375 -0.202799 115 0 102
0.0450009 -0.925398 0.320777 133 10 168
0.0137268 0.0462604 0.312571 129 133 167
-0.377775 -0.384503 0.299278 79 78 166
-0.29158 0.588153 0.329299 90 202 169
0.227687 0.596982 0.335757 157 204 170
-0.598647 0.342031 0.431639 51 171 183
0.438664 -0.778537 0.424512 183 28 182
0.385389 -0.638358 0.445985 177 46 184
0.588547 0.460688 -0.492927 203 186 65
0.0842916 0.931746 0.0123637 138 246 129
0.370043 -0.624965 0.476226 175 48 188
-0.186546 -0.92104 0.691737 104 10 216
-0.1353 -0.528723 -0.565181 110 60 55
-0.330502 0.643523 -0.574549 85 210 54
0.355219 -0.994822 -0.613772 173 1 49
-0.49891 -0.998044 0.0747196 64 0 137
-0.232212 0.0565969 -0.562554 98 135 56
-0.100778 -0.435846 0.446911 115 72 184
-0.561254 -0.100158 -0.0194541 56 115 125
-0.468373 -0.873973 0.296201 68 16 165
0.705511 0.213584 0.000301214 217 155 128
-0.436202 -0.717191 0.441283 72 36 184
0.761724 -0.995275 0.273032 225 1 162
0.579373 -0.645563 0.110833 201 45 142
-0.377136 0.606294 0.28982 79 205 164
-0.720291 -0.920706 0.574653 36 10 201
0.170221 -0.868213 0.30234 149 17 166
0.523906 -0.639792 0.330816 194 46 170
-0.305879 -0.993692 0.556368 89 1 198
0.0610931 -0.200902 0.34636 135 102 172
-0.0734178 -0.949129 -0.773246 118 6 29
-0.578349 -0.968462 0.770406 54 4 226
0.647108 -0.919159 -0.407976 210 10 75
0.54511 0.285378 0.237376 197 164 158
0.242578 0.356089 -0.556094 158 173 57
-0.288824 -0.989433 -0.772125 91 1 29
-0.603678 -0.627041 -0.0930596 51 48 116
0.569574 -0.262203 -0.36068 200 94 82
0.773132 -0.940158 -0.128942 226 8 111
-0.195643 -0.921867 0.638515 103 10 209
-0.540171 0.299137 -0.102383 59 166 114
0.00542212 -0.0342508 0.30448 128 123 166
0.622022 0.358282 0.396898 207 173 178
-0.389502 -0.998234 -0.255298 78 0 95
0.227813 -0.815609 0.53215 157 24 195
0.396107 -0.544506 0.375365 178 58 175
0.301727 0.523504 -0.55526 166 194 57
0.263173 -0.555262 0.331327 161 57 170
0.331004 -0.995205 -0.737127 170 1 34
0.652856 -0.971649 -0.770724 211 4 29
0.548216 0.280523 -0.123084 197 163 112
0.512577 -0.274865 -0.558505 193 92 56
0.549512 -0.923797 0.58034 198 10 201
-0.292116 0.691234 -0.224258 90 216 99
-0.541332 -0.0201984 0.0644519 58 125 136
-0.0721138 0.906828 -0.132734 118 243 111
-0.530144 -0.993959 0.488606 60 1 190
0.20384 -0.292854 0.330101 153 90 170
0.767 -0.99411 0.112445 225 1 142
0.0695654 -0.998115 -0.3006 136 0 89
-0.452122 -0.998132 0.0717928 70 0 137
-0.378864 -0.92358 -0.686168 79 10 40
0.321997 0.654705 0.139608 169 211 145
-0.0206023 0.74106 -0.557506 125 222 56
0.0578015 0.915285 0.0653119 135 244 136
-0.397357 0.954597 -0.571184 77 249 55
0.240878 -0.0302943 0.30796 158 124 167
-0.765609 -0.933804 -0.0311618 30 8 124
-0.548531 -0.427749 -0.425518 58 73 73
0.668209 0.37247 -0.444387 213 175 71
-0.528104 -0.683494 0.656889 60 40 211
0.431737 0.554209 -0.117198 183 198 113
-0.165904 -0.548349 0.447716 106 58 185
-0.767573 -0.981545 -0.622298 30 2 48
-0.555444 -0.922836 -0.757853 57 10 31
0.102927 -0.994067 0.679406 141 1 214
-0.542351 0.211236 0.0900923 58 154 139
0.190982 -0.996369 0.3764 152 0 175
-0.309128 -0.858431 0.540648 88 18 196
0.739096 -0.946333 -0.769534 222 7 29
-0.418052 -0.705878 0.660573 74 38 212
0.178676 -0.997416 0.0806793 150 0 138
0.547952 -0.65714 -0.3721 197 44 80
0.42311 -0.470903 0.436572 181 67 183
-0.56919 0.363705 0.432436 55 174 183
0.647625 -0.498377 -0.0348138 210 64 123
0.546534 -0.878599 -0.00191059 197 15 127
0.547335 -0.783698 -0.23046 197 28 98
0.694757 -0.993363 -0.258405 216 1 95
0.173463 -0.342785 -0.561422 150 84 56
-0.366718 -0.209185 0.315141 81 101 168
-0.482888 -0.642824 0.463491 66 46 187
0.304219 -0.921821 -0.663517 166 10 43
-0.669695 0.224974 -0.123774 42 156 112
0.0430231 0.941918 -0.306315 133 248 88
-0.542831 -0.149369 0.243991 58 108 159
-0.5022 -0.880148 0.373887 63 15 175
0.0608269 0.831559 -0.620544 135 234 48
-0.32458 0.666762 -0.545344 86 213 58
0.769032 -0.948897 0.754665 226 7 224
0.651524 -0.924523 0.344601 211 10 171
0.230957 -0.0865204 -0.559022 157 116 56
-0.532037 -0.732279 -0.505609 60 34 63
-0.100294 0.877905 0.343274 115 239 171
-0.184708 -0.101558 -0.563056 104 115 56
0.275386 -0.891602 0.303193 163 14 166
-0.0867391 -0.501179 -0.564937 116 64 55
0.177938 -0.921596 0.742759 150 10 222
-0.276807 -0.924232 -0.750483 92 10 32
-0.466373 -0.37518 0.299127 68 80 166
0.277229 0.711176 -0.301516 163 218 89
-0.540491 -0.628545 -0.149804 59 47 108
0.589121 0.393169 0.249829 203 178 159
0.725544 0.234622 0.247061 220 157 159
-0.345543 0.849814 -0.553105 83 236 57
-0.554314 0.312264 -0.640079 57 167 46
0.462618 -0.995564 -0.0612108 186 1 120
-0.549529 0.334609 -0.435945 57 170 72
0.548121 -0.0853458 -0.264142 197 117 94
-0.280908 0.597158 0.390707 92 204 177
0.548414 0.267758 -0.453585 197 162 70
-0.676293 0.218249 0.0886498 41 155 139
0.0862986 -0.353999 0.440344 139 82 184
0.652236 0.247997 -0.606316 211 159 50
0.556243 0.467179 -0.50875 198 187 63
0.308281 -0.921629 -0.741101 167 10 33
-0.000458136 0.598012 0.244218 127 204 159
-0.0671451 0.630642 -0.558111 119 208 56
-0.537998 -0.0603339 -0.203123 59 120 102
-0.295885 0.15659 -0.562801 90 147 56
-0.547294 -0.354051 0.391931 58 82 177
0.547395 -0.247396 -0.108644 197 96 114
-0.0180717 0.954585 -0.344999 125 249 84
0.113708 0.726139 -0.55662 142 220 57
-0.410652 0.198299 -0.564146 75 153 56
0.142809 -0.899921 0.596015 146 13 203
0.438876 -0.855464 0.461435 183 18 186
-0.54084 -0.358783 0.141771 59 82 146
0.299824 -0.994938 0.730159 166 1 221
-0.0287022 -0.776349 -0.571506 124 29 55
-0.536156 -0.035979 -0.329561 59 123 85
-0.66392 -0.995308 0.386266 43 1 177
-0.356462 -0.629394 0.444012 82 47 184
0.384243 0.616977 -0.59382 176 206 52
0.572173 -0.402727 0.0640594 200 76 136
-0.543052 -0.922759 -0.690631 58 10 39
-0.586818 -0.996216 -0.511985 53 0 62
-0.124995 0.597588 -0.558856 112 204 56
0.729706 -0.920285 -0.300902 221 10 89
-0.541321 -0.634864 0.255185 58 47 160
-0.441255 0.789476 -0.404508 71 228 76
-0.736727 0.25475 -0.221982 34 160 99
-0.560764 -0.0904818 0.0808664 56 116 138
0.640628 -0.924259 0.705102 209 10 217
0.340271 0.274134 -0.555746 171 162 57
0.437808 -0.849529 0.403431 183 19 179
0.547596 -0.0167781 -0.538293 197 125 59
0.0324203 -0.925087 0.360685 132 10 173
0.253717 0.527074 -0.555756 160 195 57
0.685806 0.198837 0.37583 215 153 175
0.728235 0.273764 -0.509532 220 162 63
0.62888 -0.479387 -0.164207 208 66 107
-0.11281 0.436185 0.260418 113 183 161
-0.616721 0.377742 0.0904181 49 176 139
-0.124322 -0.998413 -0.434519 112 0 72
-0.24179 -0.997883 -0.463958 97 0 68
0.323501 -0.995267 -0.627281 169 1 48
-0.215088 -0.778607 0.298911 100 28 166
0.548233 0.123767 -0.496046 197 143 64
0.169437 0.328606 -0.556857 149 169 57
-0.288536 0.696695 0.0908804 91 216 139
-0.406224 0.709388 -0.320123 76 218 87
-0.686484 -0.54757 -0.183475 40 58 104
0.458495 -0.996008 0.756071 186 1 224
-0.00611858 -0.993823 0.647534 127 1 210
-0.765165 -0.994965 0.211958 30 1 155
0.5981 -0.525976 0.0929464 204 60 139
0.72949 -0.995329 -0.0534952 221 1 121
-0.695764 0.300055 -0.222756 39 166 99
-0.540617 -0.318727 0.401205 59 87 179
-0.126965 -0.256744 0.32171 111 95 169
-0.0064597 0.377302 0.326986 127 176 169
0.548049 0.0112286 -0.183545 197 129 104
0.0304519 0.935956 0.311677 131 247 167
0.608088 -0.6511 0.0482089 205 44 134
-0.559175 0.318614 -0.580725 56 168 53
-0.533346 -0.327575 -0.526362 59 86 60
0.597342 0.279948 0.322392 204 163 169
0.416843 -0.996569 0.270787 181 0 162
-0.577265 -0.631994 -0.246866 54 47 96
-0.558094 -0.207686 -0.210266 56 101 101
0.0391738 -0.353793 0.378542 132 82 176
-0.0112612 -0.999209 -0.115151 126 0 113
0.158329 -0.994729 0.635534 148 1 209
0.214372 0.150476 0.307686 155 147 167
0.548587 0.0663518 -0.368482 197 136 81
0.569476 -0.279874 -0.3414 200 92 84
0.54638 -0.0194672 0.122744 197 125 143
-0.20814 0.38781 0.325689 101 177 169
0.387274 -0.995961 0.559001 177 1 199
-0.703625 0.222103 -0.567822 38 156 55
-0.0385191 0.835451 0.34886 123 234 172
-0.208923 0.500316 -0.560129 101 191 56
0.197732 0.771134 0.297111 153 226 165
-0.472978 -0.270898 -0.567603 67 93 55
0.162952 0.827372 -0.411764 148 233 75
-0.222705 0.760843 0.114852 99 225 142
0.415833 -0.918241 0.306413 181 10 167
0.195213 0.793225 -0.342761 152 229 84
-0.740502 0.249236 0.190416 33 159 152
-0.562181 -0.459667 -0.334529 56 69 85
0.0930144 0.578738 -0.556689 139 201 57
0.163876 0.647846 -0.55594 148 210 57
-0.54211 -0.444809 0.26697 58 71 162
-0.219111 0.421018 0.325599 100 181 169
-0.461507 -0.871591 0.550888 69 16 198
-0.541884 -0.157345 0.173389 58 107 150
-0.184515 0.797546 0.175373 104 229 150
0.593445 -0.996701 0.302762 203 0 166
-0.273774 -0.993561 0.581318 93 1 202
-0.33265 -0.87926 0.297518 85 15 165
0.189574 -0.973025 -0.772344 152 3 29
-0.0991999 0.871844 -0.471634 115 239 67
-0.124699 0.852681 -0.115747 112 236 113
0.730533 -0.996941 0.192322 221 0 152
-0.0801623 0.900186 0.124745 117 242 143
-0.240365 -0.43104 0.300293 97 73 166
-0.0156501 0.347972 -0.558474 126 172 56
-0.649374 -0.450186 -0.167157 45 70 106
-0.771456 -0.9674 -0.260466 29 4 94
-0.225589 -0.921715 0.634638 99 10 208
-0.10545 -0.997908 -0.560137 114 0 56
-0.452602 0.534479 0.274355 70 196 162
-0.460605 -0.810201 0.542522 69 24 197
-0.464584 0.523425 -0.240151 68 194 97
0.0571809 0.932582 -0.446498 135 246 71
0.566153 -0.290085 -0.234134 200 91 98
0.461432 -0.922749 0.721794 186 10 220
0.275926 0.699552 0.145466 163 217 146
0.236045 -0.526447 0.307085 158 60 167
-0.537144 -0.439047 -0.236075 59 72 97
-0.044307 -0.686767 -0.568935 122 40 55
-0.428453 -0.139482 -0.566271 73 110 55
-0.537984 -0.852252 0.0338175 59 19 132
0.151821 0.845325 -0.622114 147 235 48
0.36167 0.632663 -0.427005 174 208 73
-0.381177 -0.876256 0.352041 79 16 172
-0.537129 -0.526586 0.292639 59 60 165
-0.399886 0.587814 0.115692 77 202 142
0.149445 0.636193 0.333165 147 209 170
0.437198 -0.102761 -0.557746 183 114 56
-0.538195 0.275262 -0.239341 59 163 97
-0.260726 0.716196 0.432605 94 219 183
-0.328683 0.540238 -0.651291 86 196 44
0.664462 -0.511285 -0.224686 212 62 99
-0.116496 0.864029 -0.0476488 113 238 121
0.547798 0.0522092 -0.101182 197 134 115
0.475936 -0.107405 0.309123 188 114 167
-0.310337 -0.552477 0.298168 88 57 166
0.531874 -0.749425 0.399092 195 32 178
-0.687071 -0.989766 0.677052 40 1 214
-0.342497 0.875406 -0.326212 84 239 86
-0.557931 -0.927206 -0.0785978 56 9 117
-0.126079 -0.0655429 -0.562139 111 119 56
-0.418322 -0.997899 -0.27486 74 0 92
0.0418085 0.948531 -0.466752 133 248 68
0.177095 -0.923457 -0.66016 150 10 43
0.548241 -0.0185254 -0.268991 197 125 93
-0.56209 -0.169552 0.0706667 56 106 137
0.38438 -0.558813 0.37511 177 56 175
-0.130202 -0.486485 0.301306 111 65 166
0.428444 -0.996281 0.189685 182 0 152
-0.131571 0.839207 -0.498191 111 234 64
-0.775439 -0.947029 0.349539 29 7 172
-0.123965 0.739036 -0.634455 112 222 47
-0.164322 -0.514834 0.409925 107 62 180
0.522525 0.477365 -0.527078 194 188 60
0.722161 0.230891 -0.52439 220 157 61
0.546477 -0.847844 0.0430162 197 19 133
0.532185 -0.918872 0.4384 195 10 183
-0.438279 0.960689 -0.458793 72 250 69
-0.227424 0.756299 0.0802289 99 224 138
-0.617118 -0.922838 0.477131 49 10 188
0.728352 0.267641 -0.376611 220 162 79
-0.267364 -0.921992 0.600486 93 10 204
-0.209966 0.887297 -0.509075 101 241 63
-0.479917 -0.994712 0.453424 66 1 185
0.0993418 0.430663 0.30738 140 182 167
0.22886 0.785068 0.167411 157 228 149
-0.368675 -0.116282 0.319582 80 113 168
0.172126 -0.484346 -0.566342 149 66 55
0.226756 -0.996288 -0.364561 156 0 81
0.547731 0.0901656 -0.0556517 197 139 120
-0.367783 -0.364511 0.438844 81 81 183
0.114003 0.289155 0.331745 142 164 170
0.711954 0.278367 -0.114865 218 163 113
-0.613342 0.37781 0.282304 49 176 163
-0.0488827 0.928942 0.314743 121 246 168
0.430894 0.400586 0.337034 182 179 170
0.199827 -0.997274 -0.222422 153 0 99
-0.130236 -0.923386 0.557241 111 10 199
-0.53083 0.0507011 0.299092 60 134 166
-0.402724 -0.719976 0.661724 76 36 212
-0.300341 0.951929 -0.569078 89 249 55
0.398903 -0.464036 0.468098 178 68 187
0.547657 -0.923937 0.508035 197 10 192
0.0239562 0.82672 -0.556928 131 233 56
-0.506908 -0.0406787 0.299169 63 122 166
0.485452 -0.218132 0.308682 189 100 167
0.126992 0.0680439 -0.558784 144 136 56
0.497546 -0.462693 -0.559884 191 69 56
-0.322148 -0.997065 -0.629613 86 0 47
-0.69777 -0.919401 0.642515 39 10 209
0.316573 -0.995315 -0.749346 168 1 32
0.380182 -0.474279 0.472962 176 67 188
0.190921 -0.995726 0.499661 152 1 191
-0.0526569 0.808926 -0.621448 121 231 48
-0.274661 0.194084 -0.562333 92 152 56
-0.533129 -0.379341 -0.507614 60 79 63
0.657337 -0.991848 -0.447386 211 1 70
0.337491 -0.921267 -0.683102 171 10 40
-0.0120562 -0.997642 -0.602776 126 0 51
-0.776923 -0.965906 0.570325 28 4 200
0.306349 -0.656899 0.320965 167 44 168
0.557641 0.421943 0.314738 199 181 168
-0.658114 -0.992303 0.55546 44 1 198
0.692253 0.203319 0.0344762 216 153 132
0.123323 0.853439 -0.031566 143 236 123
0.386759 0.380975 0.337799 177 176 171
0.282551 0.69824 -0.0590264 164 217 120
0.638535 0.34491 0.234407 209 171 157
-0.772086 -0.985022 0.618903 29 2 206
-0.369549 -0.735372 0.583206 80 34 202
-0.739083 0.254894 0.249278 33 160 159
0.533853 -0.759584 0.460205 196 31 186
0.200783 0.426727 0.334209 153 182 170
0.426005 -0.995922 0.635618 182 1 209
0.354804 0.622989 0.133455 173 207 145
0.223693 0.762421 -0.384167 156 225 79
-0.658729 0.328754 -0.571414 44 169 55
-0.0771119 0.903097 -0.00638666 118 243 127
0.548529 0.282797 -0.191978 197 164 103
0.548487 -0.481187 -0.470661 197 66 67
0.0227987 -0.997262 0.278391 130 0 163
0.548675 -0.0894643 -0.430364 197 116 73
0.238962 0.757322 -0.537046 158 224 59
0.760016 -0.921643 -0.401544 224 10 76
0.443078 -0.995274 -0.162444 184 1 107
0.495199 0.408707 0.448064 191 180 185
-0.5239 -0.567056 0.338865 61 55 171
0.217769 0.427405 -0.555985 155 182 57
0.0908434 0.90958 0.0387709 139 243 132
-0.351955 0.630759 0.0276274 83 208 131
0.649661 -0.556597 -0.0971978 210 57 115
-0.36571 -0.741829 0.684511 81 33 215
-0.540468 -0.874212 0.257085 59 16 160
0.112861 0.856996 0.219894 142 237 156
0.440943 -0.69675 0.305732 184 39 166
0.660122 -0.562378 0.0229046 212 56 130
0.0214837 -0.923866 0.507208 130 10 192
0.547463 -0.861832 -0.316045 197 18 87
0.310329 -0.688359 0.537244 167 40 196
-0.181597 0.94002 -0.495877 104 247 64
-0.667348 -0.995364 -0.599035 42 1 51
0.0545042 0.916322 0.0231055 134 244 130
0.208892 -0.64576 0.507256 154 45 192
0.510988 -0.0425014 0.309884 193 122 167
-0.571301 -0.991507 0.61962 55 1 207
0.148428 0.846126 -0.54454 146 235 58
-0.512863 -0.994715 0.446237 62 1 184
-0.641309 0.34981 0.367237 46 172 174
0.394475 -0.481663 0.347922 178 66 172
0.61166 -0.91962 -0.390904 205 10 78
0.587768 -0.991457 -0.614492 202 1 49
0.60846 -0.922824 -0.0382297 205 10 123
0.0409367 -0.261242 0.345769 133 94 172
0.443878 -0.163837 -0.55818 184 107 56
0.0582517 -0.998875 -0.143747 135 0 109
0.54876 -0.180253 -0.460956 197 105 69
-0.542967 0.182794 0.171664 58 151 149
-0.438502 0.950122 -0.575105 72 249 54
0.0257196 -0.996056 0.441673 131 1 184
0.688751 0.312134 -0.45426 215 167 70
-0.0584158 0.442833 -0.558477 120 184 56
-0.25466 0.726639 -0.25883 95 220 94
0.12626 0.738243 0.355568 144 222 173
-0.55465 -0.342067 -0.126728 57 84 111
0.457634 -0.535599 0.306375 186 59 167
0.229764 -0.579352 0.430968 157 54 182
0.548533 -0.187572 -0.397783 197 104 77
0.562698 -0.391197 -0.0209665 199 78 125
0.224083 -0.994597 0.736361 156 1 221
0.056989 0.236254 -0.558407 135 158 56
-0.564428 -0.693317 0.608294 56 39 205
-0.191864 0.776287 -0.604534 103 226 50
-0.13617 0.728094 -0.616998 110 220 49
-0.22209 0.582446 -0.560143 99 202 56
0.0881221 0.756475 0.334315 139 224 170
0.20198 -0.149503 0.331881 153 108 170
-0.131993 -0.999329 -0.210111 111 0 101
-0.165232 0.702859 -0.659374 106 217 43
0.462699 0.525852 0.12292 186 195 143
0.0970587 -0.997773 -0.335428 140 0 85
-0.678038 -0.990373 0.645497 41 1 210
0.0193927 -0.43726 -0.56584 130 72 55
-0.539597 0.0223087 -0.105662 59 130 114
0.0545955 -0.881246 -0.573434 134 15 54
0.371645 -0.653756 0.311478 175 44 167
0.499929 -0.868627 0.305521 191 17 166
-0.541352 0.0934621 0.0242881 58 139 131
0.362167 -0.617905 -0.561794 174 49 56
-0.00845062 0.828588 -0.557403 126 233 56
-0.221526 -0.925251 -0.596505 99 10 51
-0.541927 -0.0805843 0.151494 58 117 147
-0.528013 -0.997766 -0.241363 60 0 97
-0.0206862 -0.998106 -0.454624 125 0 70
-0.330525 0.655573 -0.0810891 85 211 117
0.658692 -0.483755 0.0331898 211 66 132
0.10701 -0.997485 0.177184 141 0 150
0.180117 -0.24788 0.326734 150 96 169
-0.119067 0.646979 0.353193 112 210 173
0.00320405 0.560794 0.231575 128 199 157
-0.342526 -0.33349 0.319736 84 85 168
0.693948 0.340579 -0.0580884 216 171 120
0.241281 -0.996903 0.103027 158 0 141
0.256019 -0.667003 0.513022 160 42 193
-0.542431 -0.591781 0.284568 58 52 164
0.633587 -0.994428 -0.179435 208 1 105
-0.774002 -0.985423 0.446041 29 2 184
-0.117334 0.863687 0.0442007 113 238 133
0.13239 0.55137 -0.556455 144 198 57
-0.310612 0.675162 -0.0507155 88 214 121
-0.773996 -0.957808 0.143742 29 5 146
0.509763 -0.42463 0.308762 192 73 167
0.589489 0.397702 0.0013115 203 178 128
0.378016 0.605366 -0.0642383 176 205 119
-0.0635125 -0.0825713 -0.561578 119 117 56
0.60818 -0.996782 0.346887 205 0 172
0.142981 -0.640804 0.481616 146 46 189
-0.539521 -0.744366 0.158575 59 33 148
0.0587812 -0.92278 0.600173 135 10 204
-0.262065 -0.924887 -0.627174 94 10 48
-0.00356756 -0.993507 0.675903 127 1 214
-0.349839 -0.600905 0.396257 83 51 178
0.544764 -0.0969911 0.239869 197 115 158
0.195622 -0.906148 0.548044 152 12 197
0.0630177 0.905716 0.243897 136 243 159
0.192192 0.701645 -0.581258 152 217 53
0.776512 -0.969051 -0.618072 227 4 49
-0.278089 -0.922195 0.580386 92 10 201
-0.558625 -0.437041 -0.102446 56 72 114
0.432572 0.549378 0.0668167 183 198 136
-0.451891 0.531503 -0.384582 70 195 78
-0.533939 0.233368 -0.541028 59 157 59
0.41368 -0.311269 -0.559366 180 88 56
0.34013 -0.99512 0.751511 171 1 223
-0.0759291 -0.516394 0.301583 118 62 166
-0.716638 -0.989637 0.670869 36 1 213
0.659629 0.233839 -0.340589 212 157 84
-0.765108 -0.928035 0.393209 30 9 178
-0.354273 0.631516 -0.15658 82 208 108
-0.0544831 -0.573637 0.383096 121 54 176
-0.162719 -0.57444 0.319207 107 54 168
-0.405418 -0.980472 -0.774608 76 2 29
0.548668 0.125713 -0.395659 197 144 77
0.141578 -0.997433 0.152626 146 0 147
0.499054 -0.996505 0.490292 191 0 190
0.1882 -0.996711 -0.684211 151 0 40
-0.0283902 -0.739929 0.30095 124 33 166
-0.642533 0.251194 0.0370694 46 160 132
0.249654 0.142039 0.308046 159 146 167
0.414167 -0.994195 -0.668745 180 1 42
0.67442 0.308162 0.320069 213 167 168
0.332785 -0.71703 0.549099 170 36 198
-0.535391 0.242264 -0.417401 59 158 74
-0.432567 -0.923547 -0.663479 72 10 43
0.265344 0.705372 0.163292 161 217 148
0.563185 -0.145424 -0.166741 199 109 106
0.120359 0.695453 -0.556389 143 216 57
-0.47716 0.406416 0.373515 67 179 175
-0.221259 -0.599779 0.400001 99 51 179
0.568444 -0.176405 -0.212308 200 105 100
0.77725 -0.967615 -0.725818 227 4 35
-0.554127 -0.762318 0.564842 57 30 200
0.548625 -0.35829 -0.444567 197 82 71
-0.737902 -0.99782 0.17168 33 0 149
-0.643466 0.243627 -0.459447 45 159 69
0.494067 -0.996484 0.376586 190 0 176
-0.683298 -0.988838 0.739729 40 1 222
0.569733 -0.311938 -0.295612 200 88 90
-0.47452 -0.878428 0.375928 67 16 175
0.548117 0.202189 -0.147289 197 153 109
0.522257 -0.992801 -0.606397 194 1 50
-0.540948 -0.0997448 -0.32686 59 115 86
0.668649 0.210563 0.274207 213 154 162
0.591786 0.297506 -0.203945 203 165 101
-0.0984103 0.676302 0.341062 115 214 171
-0.151775 0.829858 -0.0204213 108 233 125
-0.250399 -0.599625 -0.566323 96 51 55
-0.289827 0.322525 -0.561846 91 169 56
0.0141529 -0.924902 -0.68269 129 10 40
-0.677809 -0.922789 -0.603148 41 10 51
0.675324 -0.917319 -0.511287 214 11 62
-0.0895719 0.878133 -0.548686 116 239 58
0.53414 -0.996701 0.666177 196 0 212
0.68272 0.302444 0.192446 215 166 152
0.278648 0.656647 0.44669 163 211 184
0.547999 -0.377776 0.00128703 197 79 128
-0.371096 -0.310809 0.311485 80 88 167
-0.558671 -0.184985 -0.163724 56 104 107
0.546426 -0.886994 0.0299295 197 14 131
-0.272716 0.711986 -0.0633437 93 218 119
-0.233 0.498342 0.324483 98 191 169
-0.170187 -0.992863 0.663878 106 1 212
0.695611 -0.505105 -0.224678 216 63 99
-0.159089 0.408692 0.349872 107 180 172
-0.167028 0.275775 0.32635 106 163 169
0.533386 -0.780921 0.461794 196 28 186
0.636481 -0.924264 0.685826 209 10 215
-0.698418 -0.994102 0.461152 38 1 186
-0.546348 0.302487 0.303183 58 166 166
-0.540635 -0.550451 0.203463 59 57 153
-0.578939 0.414504 -0.102884 54 180 114
0.726421 -0.986695 -0.73978 220 2 33
0.614801 -0.992139 -0.479745 206 1 66
0.242508 0.167972 0.308116 158 149 167
0.672649 0.351296 -0.0091104 213 172 126
-0.484882 -0.423464 0.445988 66 74 184
0.714885 -0.995686 0.00612949 219 1 128
0.39423 0.23747 0.325496 178 158 169
0.548737 -0.261501 -0.478837 197 94 66
-0.363832 -0.997449 -0.470495 81 0 68
-0.471678 0.0198211 -0.565999 67 130 55
0.473749 -0.555686 0.332916 188 57 170
0.380507 0.139897 0.309405 176 145 167
0.548515 0.0704477 -0.335884 197 136 85
-0.278125 0.150548 -0.562625 92 147 56
0.134004 -0.996725 0.326949 145 0 169
0.546706 -0.0389908 0.0906067 197 123 139
0.546899 0.270903 0.0796927 197 162 138
-0.18948 -0.997737 -0.571809 103 0 55
0.668285 -0.989041 -0.69222 213 1 39
0.697459 0.205849 0.123495 216 154 143
0.085909 -0.368575 0.386352 138 81 177
0.545874 -0.632813 -0.551804 197 47 57
0.525401 -0.99392 -0.310006 194 1 88
0.663997 -0.991168 -0.490748 212 1 65
0.142567 -0.482756 0.331235 146 66 170
-0.11014 -0.974614 0.771283 113 3 226
0.599682 0.362875 -0.659468 204 174 43
-0.00577837 0.139655 0.350183 127 145 172
0.194847 0.788192 -0.179679 152 228 105
-0.511556 -0.631158 0.568934 62 47 200
-0.310307 -0.799256 -0.569147 88 26 55
0.56772 -0.247686 -0.0418845 200 96 122
0.28296 0.707863 0.0143265 164 218 129
0.679767 -0.551204 -0.182803 214 57 104
0.333274 -0.549006 0.331192 170 58 170
-0.465267 -0.703217 0.297098 68 38 165
0.675625 -0.997315 0.512505 214 0 193
0.618646 0.264042 0.0867508 206 161 139
0.6578 0.23334 -0.240492 211 157 97
0.0141851 -0.437507 0.433263 129 72 183
-0.447091 -0.574919 0.306993 70 54 167
0.229692 0.764988 0.082207 157 225 138
-0.308267 -0.730179 0.298331 88 34 166
0.745199 -0.92592 0.235499 223 9 158
-0.327553 0.643579 -0.63908 86 210 46
-0.413151 -0.454398 0.298509 75 70 166
0.673009 -0.53804 0.00946552 213 59 129
-0.70931 -0.99654 0.28431 37 0 164
-0.663318 0.231099 -0.0109891 43 157 126
-0.774869 -0.954914 0.272201 29 6 162
-0.491271 -0.997529 -0.277748 65 0 92
-0.563379 0.429478 -0.0798129 56 182 117
-0.611773 -0.994736 -0.754688 49 1 31
0.017455 0.952758 -0.663426 130 249 43
-0.449935 0.539618 0.0617084 70 196 135
-0.447445 -0.998652 -0.0556611 70 0 120
-0.124909 0.26495 -0.56013 112 161 56
-0.0438411 -0.998891 0.0558668 122 0 135
0.425772 -0.920272 -0.617376 182 10 49
0.500408 -0.173359 -0.557901 191 105 56
0.0343785 0.516021 -0.557385 132 193 56
-0.558822 -0.389533 -0.34589 56 78 83
0.681478 0.299392 0.422678 214 166 181
-0.505065 -0.435025 0.310481 63 72 167
0.569956 0.428067 -0.414065 200 182 75
-0.412764 -0.7224 0.514864 75 35 193
-0.543053 0.270624 0.144043 58 162 146
-0.538348 -0.233597 -0.164834 59 98 106
-0.36584 0.359191 0.323308 81 173 169
-0.214122 -0.390472 0.300843 100 78 166
0.400662 0.580707 0.0528556 179 202 134
-0.282725 -0.863178 0.351931 91 17 172
-0.704323 -0.917832 0.713484 38 10 218
-0.58966 0.301808 0.115987 52 166 142
-0.155936 0.681317 0.32831 108 214 169
0.654481 -0.997469 0.639948 211 0 209
-0.283659 -0.955765 0.770666 91 6 226
0.257911 -0.812728 0.531699 160 24 195
0.344409 0.644439 -0.265582 171 210 94
0.497257 -0.99149 0.769628 191 1 226
0.364782 -0.45447 0.467385 174 70 187
0.652445 -0.449104 -0.0843592 211 70 117
0.5294 0.45957 -0.127316 195 186 111
0.545189 0.272831 0.223755 197 162 156
-0.073122 0.136157 -0.560283 118 145 56
0.012465 -0.985723 0.769782 129 2 226
0.585651 -0.446374 -0.243681 202 71 96
-0.605157 0.285036 -0.272523 50 164 93
0.33855 -0.92336 0.354253 171 10 173
0.162407 0.505091 0.3584 148 192 173
-0.614753 0.378448 -0.238878 49 176 97
-0.356853 0.629742 -0.0866419 82 208 116
-0.176048 -0.995476 0.46673 105 1 187
-0.0204943 0.95648 -0.15967 125 249 107
-0.495595 0.494597 -0.129385 64 191 111
-0.263789 0.956115 -0.487145 94 249 65
-0.558914 0.422921 -0.614294 56 181 49
0.209378 -0.923813 0.532711 154 10 195
0.545728 0.316732 0.185339 197 168 151
0.398534 0.319808 -0.554854 178 168 57
-0.486385 0.502488 -0.22669 65 192 99
0.489216 0.492633 0.142837 190 190 146
0.769474 -0.973359 0.658325 226 3 211
-0.327841 -0.56419 0.297676 86 56 165
0.0314841 -0.304889 -0.563097 132 89 56
-0.0938049 -0.325809 -0.563581 116 86 56
-0.125639 0.854782 0.196394 111 236 153
0.0125205 0.143108 0.306511 129 146 167
-0.456543 -0.996208 -0.690835 69 0 39
0.548618 0.101732 -0.376867 197 140 79
-0.537727 -0.72141 -0.0343915 59 36 123
-0.534123 -0.0382124 -0.515279 59 123 62
0.510359 -0.771172 0.475783 193 29 188
-0.532008 -0.826694 -0.485397 60 22 66
-0.180632 -0.625651 0.357395 104 48 173
0.0447316 -0.340334 0.345484 133 84 172
0.756943 -0.923996 -0.252723 224 10 95
0.544885 -0.854259 0.235135 197 19 157
0.533889 -0.657193 0.416295 196 44 181
0.369467 -0.996204 0.029934 175 0 131
-0.396157 0.893552 -0.555886 77 241 57
-0.627738 -0.50826 -0.207805 47 63 101
0.255277 -0.997275 -0.034498 160 0 123
0.147597 0.830609 -0.0652832 146 233 119
0.678929 -0.919549 -0.352886 214 10 83
-0.314222 0.56404 -0.666543 87 199 43
0.719596 -0.924865 0.515423 219 10 193
0.18716 0.520643 0.352467 151 194 172
-0.551167 -0.926996 0.120432 57 9 143
-0.159442 -0.999571 -0.0684795 107 0 119
0.143636 -0.692254 0.526963 146 39 195
-0.0693984 -0.295416 -0.563114 119 90 56
-0.282143 -0.920911 0.755745 92 10 224
0.620471 -0.924097 0.134904 207 10 145
0.437456 -0.867664 0.426881 183 17 182
0.548778 0.0332083 -0.439645 197 132 71
-0.447561 -0.990241 0.754574 70 1 224
0.126188 -0.796175 -0.572163 144 26 55
-0.530502 -0.541581 -0.561622 60 58 56
-0.086693 -0.0569346 -0.561647 116 120 56
-0.414767 0.45731 -0.658886 75 186 43
-0.271624 0.606381 0.377924 93 205 176
0.56821 -0.160854 -0.0508903 200 107 121
-0.126265 -0.189152 -0.562964 111 103 56
0.171781 -0.202024 0.306665 149 102 167
0.4183 0.0409386 0.32679 181 133 169
-0.38436 -0.731081 0.718166 78 34 219
0.443258 -0.00873731 0.309236 184 126 167
0.480358 -0.810671 -0.56193 189 24 56
0.21219 -0.783256 -0.572442 155 28 55
-0.455032 -0.91176 0.378462 69 11 176
-0.0145757 0.963288 0.0753969 126 250 137
-0.466827 -0.915078 -0.571226 68 11 55
-0.531292 -0.879407 -0.553321 60 15 57
0.709731 -0.996354 0.107451 218 0 141
0.205516 -0.923098 -0.666842 154 10 42
-0.543702 -0.033183 0.282786 58 123 164
0.351796 -0.43213 0.390453 172 72 177
0.548132 -0.3584 -0.220347 197 82 99
0.497986 -0.923963 0.75676 191 10 224
0.590924 -0.499422 0.0815691 203 64 138
0.435808 -0.923265 0.524284 183 10 194
0.770618 -0.967024 0.464492 226 4 187
0.568517 -0.511581 -0.187772 200 62 104
0.417716 -0.468671 0.420845 181 68 181
0.42566 0.589553 -0.270652 182 203 93
-0.418661 -0.997844 0.152485 74 0 147
0.149672 0.818086 0.400248 147 232 179
0.348838 0.429358 -0.554817 172 182 57
0.0915519 -0.866481 -0.573348 139 17 54
0.224919 0.0274025 0.333989 156 131 170
-0.0448974 0.934644 0.156036 122 247 147
-0.696918 -0.921593 -0.722539 39 10 35
0.295047 -0.996522 0.203416 165 0 153
-0.556805 -0.180844 -0.40366 57 104 76
-0.561646 -0.234716 0.0670598 56 98 136
0.464363 0.512555 0.312982 187 193 167
0.495664 -0.99617 0.168913 191 0 149
0.107495 -0.0502136 0.330797 141 121 170
0.469067 -0.67875 0.306162 187 41 167
0.562152 0.346597 0.448489 199 172 185
-0.532438 -0.631493 -0.527086 60 47 60
-0.238984 -0.158951 -0.564043 97 107 56
0.00202978 -0.497529 -0.565475 128 64 55
-0.289807 -0.925403 0.323058 91 10 169
0.239901 0.381759 -0.555997 158 176 57
-0.389288 -0.998915 -0.126544 78 0 111
0.0114461 0.969232 -0.0459434 129 251 122
-0.140353 -0.00733971 0.323085 110 127 169
0.306456 0.315332 -0.555776 167 168 57
0.465664 -0.322418 0.389073 187 86 177
0.427993 0.546653 0.169922 182 197 149
0.137194 0.853013 -0.41816 145 236 74
0.420841 0.555417 0.372836 181 198 175
-0.538114 0.448779 -0.409897 59 185 75
-0.0143023 0.960982 0.34521 126 250 172
0.15097 -0.997537 -0.294254 147 0 90
0.547493 0.256115 0.016784 197 160 130
-0.664274 0.20925 -0.563282 43 154 56
-0.545903 -0.59254 0.424711 58 52 182
-0.029319 -0.395643 0.302637 124 77 166
-0.467671 -0.997103 -0.364824 68 0 81
-0.0356432 0.0960725 -0.560133 123 140 56
0.682675 -0.541184 -0.138506 215 58 110
0.426857 -0.922642 0.67325 182 10 213
0.515051 -0.550162 0.356696 193 57 173
-0.511698 0.357387 -0.647121 62 173 45
0.3948 -0.85954 -0.563452 178 18 56
0.576647 -0.993237 -0.407462 201 1 76
0.574039 -0.924125 0.338088 201 10 171
0.562968 0.417073 0.35568 199 181 173
-0.140191 0.0855597 0.306017 110 138 167
-0.376781 -0.948159 -0.774222 79 7 29
0.589414 -0.460073 -0.0429152 203 69 122
-0.043699 0.701458 0.327695 122 217 169
-0.328255 0.522014 -0.561909 86 194 56
-0.358913 -0.445133 0.396635 82 71 178
0.0175716 0.0571618 0.34608 130 135 172
0.544706 -0.812894 0.237823 197 24 158
-0.539055 -0.762974 0.116813 59 30 142
0.260947 0.44972 0.335536 161 185 170
-0.348939 0.312761 -0.562649 83 167 56
-0.00785774 -0.309564 -0.564576 126 88 56
-0.154048 -0.999535 -0.128978 108 0 111
-0.144026 0.834318 0.35785 109 234 173
0.0534692 -0.924707 -0.676563 134 10 41
0.104675 0.554428 0.35158 141 198 172
-0.637755 0.252832 -0.308095 46 160 88
-0.436441 -0.265919 0.318936 72 94 168
0.253952 -0.424134 0.331205 160 73 170
0.4638 -0.923557 0.501818 187 10 191
-0.733688 0.262561 0.222846 34 161 156
-0.0342213 -0.992811 0.742951 123 1 222
0.0835539 0.410739 0.271424 138 180 162
-0.492703 -0.996521 -0.535095 65 0 59
0.562987 -0.992969 -0.4917 199 1 65
-0.570933 0.317662 0.284999 55 168 164
-0.377266 -0.0638671 0.310201 79 119 167
-0.676182 0.218561 0.00929103 41 155 129
-0.214789 0.651933 -0.657024 100 211 44
-0.177027 -0.99839 0.143546 105 0 146
0.570464 -0.53385 0.137286 200 59 145
0.766936 -0.956571 -0.768265 225 6 30
0.621731 0.266657 -0.156217 207 161 108
-0.00493281 -0.564818 0.301397 127 55 166
-0.628885 0.366243 0.0461501 47 174 133
-0.654063 -0.996095 -0.512322 44 0 62
0.536382 0.443885 0.291046 196 184 165
0.673124 0.321639 -0.230941 213 169 98
0.606028 0.397161 -0.558124 205 178 56
0.564187 -0.145395 0.0638152 199 109 136
-0.182562 -0.920769 0.710207 104 10 218
0.315063 -0.995493 -0.435706 168 1 72
-0.656473 -0.927487 -0.174492 44 9 105
0.0736928 -0.312099 0.437393 137 88 183
-0.152828 -0.998263 0.166381 108 0 149
0.568894 -0.421593 -0.253797 200 74 95
0.367997 -0.555185 0.336482 174 57 170
-0.031291 -0.998242 -0.344278 124 0 84
-0.478346 -0.689264 -0.570203 67 40 55
-0.619259 0.259721 -0.668273 49 161 42
-0.215164 0.795029 -0.543182 100 229 58
0.00491803 -0.199006 0.303854 128 102 166
0.331168 -0.53626 0.394095 170 59 178
0.422783 -0.445075 0.331084 181 71 170
0.523002 -0.166861 -0.557685 194 106 56
-0.0272808 0.216578 0.305167 124 155 166
0.25282 -0.996657 0.201896 160 0 153
0.738152 -0.925301 0.214165 222 10 155
-0.527177 -0.711956 0.403274 60 37 179
0.581516 -0.919102 -0.492381 202 10 65
0.037365 -0.588417 0.472509 132 52 188
-0.237386 -0.574896 0.321395 97 54 168
0.523291 -0.464731 0.398118 194 68 178
0.543411 0.440489 0.112878 197 184 142
-0.693343 0.294938 -0.60875 39 165 50
-0.463265 -0.990593 0.718908 68 1 219
0.0893503 -0.443835 -0.565122 139 71 55
0.54826 0.267323 -0.470288 197 162 68
0.546331 0.432968 0.379509 197 183 176
-0.5813 -0.926922 -0.207296 53 9 101
-0.160891 0.809771 -0.384423 107 231 78
0.351311 -0.995091 0.727123 172 1 220
0.240017 0.725583 0.304773 158 220 166
0.102212 -0.99848 -0.0615894 141 0 120
0.564747 -0.9885 -0.763542 200 1 30
0.200987 0.648516 -0.555606 153 210 57
-0.643607 0.23021 -0.57403 45 157 54
0.569222 -0.274868 -0.375657 200 92 80
-0.0492264 -0.62239 -0.567623 121 48 55
0.520251 -0.468369 0.30754 194 68 167
-0.35305 0.534485 0.433945 82 196 183
-0.135464 -0.515013 0.44818 110 62 185
-0.129382 -0.925332 -0.669098 111 10 42
0.552131 -0.644275 -0.199581 198 45 102
-0.421547 0.552311 -0.660751 74 198 43
-0.303486 0.386591 0.324235 89 177 169
0.533984 -0.699541 0.298303 196 38 166
0.0385665 0.944018 -0.231501 132 248 98
0.709218 0.217491 0.0940607 218 155 139
-0.533706 -0.668655 -0.393214 59 42 77
