ply
format ascii 1.0
comment Created by Open3D
element vertex 1215
property double x
property double y
property double z
property uchar red
property uchar green
property uchar blue
end_header
0.242311 0.777198 0.191186 158 227 152
0.467409 0.557493 0.1505 187 199 147
0.6103 -0.516619 0.0854026 205 62 138
0.671477 -0.549168 -0.261414 213 57 94
0.106072 0.923668 0.0203049 141 245 130
0.655202 -0.532893 -0.173322 211 60 105
-0.0120493 -0.915343 -0.573437 126 11 54
-0.573897 -0.418973 -0.297046 54 74 90
0.630791 0.3622 -0.0232551 208 174 125
0.606379 -0.511119 -0.207537 205 62 101
-0.264303 -0.0690723 0.318344 94 119 168
-0.589792 -0.429795 -0.134302 52 73 110
0.549419 -0.126033 -0.0312238 198 111 124
-0.540176 -0.638677 0.630596 59 46 208
0.570588 -0.500345 -0.1994 200 64 102
-0.614203 -0.516619 0.00493703 49 62 128
0.468046 -0.572344 0.386479 187 55 177
0.622653 -0.420497 -0.215674 207 74 100
0.356178 0.614454 0.0284422 173 206 131
-0.557243 -0.536632 -0.305184 56 59 89
-0.275949 -0.842108 0.53295 92 20 195
-0.0608726 -0.345738 -0.567797 120 83 55
0.038425 0.939942 -0.0285184 132 247 124
0.22393 -0.574344 0.410891 156 54 180
0.207655 0.65514 0.335991 154 211 170
0.614516 -0.646645 -0.240086 206 45 97
0.378537 0.596582 0.313245 176 204 167
-0.549106 -0.362012 -0.170021 57 81 106
-0.289425 -0.475933 0.402754 91 67 179
0.336524 0.630728 0.305107 170 208 166
-0.606066 -0.63054 -0.237773 50 47 97
-0.658419 -0.557305 -0.297046 44 56 90
0.679614 -0.516619 -0.0663801 214 62 119
0.278378 0.687689 0.305107 163 215 166
0.280617 -0.215542 0.329519 163 100 170
0.541281 0.334851 0.329519 197 170 170
-0.459596 -0.705161 0.671282 69 38 213
-0.475871 -0.66827 0.581773 67 42 202
-0.581654 -0.394824 -0.00410673 53 77 127
-0.407281 -0.654952 0.630596 76 44 208
0.547832 -0.663089 -0.5493 197 43 57
0.345988 -0.532893 0.468487 172 60 187
0.3704 0.619034 -0.264498 175 206 94
0.468046 -0.321326 0.38936 187 87 177
-0.239211 -0.42711 0.435303 97 73 183
-0.516557 -0.42711 0.298592 62 73 166
-0.27244 0.70569 0.29697 93 217 165
-0.654889 -0.492207 -0.182084 44 65 104
-0.353812 -0.565442 0.453435 82 55 185
0.116341 0.891119 0.142363 142 241 146
-0.589792 -0.505534 0.00403052 52 63 128
-0.313126 -0.444769 0.402754 88 71 179
-0.117833 -0.0121117 0.320304 112 126 168
0.2181 0.752786 0.313245 155 223 167
0.598242 -0.418973 0.0113752 204 74 129
0.671477 -0.470326 -0.231949 213 68 98
-0.310182 -0.166719 0.305107 88 106 166
-0.597929 -0.451521 -0.0904503 51 70 116
0.760986 -0.996346 0.524812 225 0 194
-0.101559 0.861769 -0.655084 115 237 44
-0.0852843 -0.571617 0.44344 117 55 184
-0.549106 -0.329463 -0.175341 57 85 105
-0.540968 -0.0517378 -0.297046 59 121 90
0.590105 0.397044 0.00403052 203 178 128
0.378537 -0.63054 0.475869 176 47 188
0.446298 0.533082 0.174912 184 195 150
0.256479 -0.825833 -0.57096 160 22 55
-0.240595 -0.557305 0.410891 97 56 180
-0.443322 -0.921437 0.378342 71 10 176
-0.597929 -0.524756 -0.131742 51 61 111
-0.574111 -0.492207 0.0447166 54 65 133
-0.117833 -0.361622 0.313245 112 81 167
0.539866 0.354063 -0.5493 196 173 57
0.175107 -0.654952 0.303469 150 44 166
-0.21548 0.763587 -0.321458 100 225 87
-0.538458 -0.256228 -0.142439 59 95 109
0.660037 -0.508482 0.0121677 212 63 129
0.476183 -0.92317 0.378342 188 10 176
0.671477 -0.552392 -0.0447928 213 57 122
0.232067 -0.28064 0.30813 157 92 167
0.577204 -0.459659 -0.166851 201 69 106
-0.638615 -0.436109 -0.0203811 46 72 125
0.687751 -0.559289 -0.207537 215 56 101
-0.540968 -0.119714 -0.0854789 59 112 117
0.345988 -0.919527 0.687557 172 10 215
-0.581654 -0.402585 -0.297046 53 76 90
-0.602538 -0.492207 -0.248223 51 65 96
0.402949 0.493883 -0.557437 179 190 56
0.57383 0.419161 0.0734836 201 181 137
0.630791 -0.497719 -0.1994 208 64 102
0.536613 -0.443384 0.256284 196 71 160
0.0447228 0.931805 -0.05293 133 246 121
-0.174794 0.614454 0.327497 105 206 169
-0.535903 -0.516619 -0.427242 59 62 73
-0.288374 -0.532893 0.44344 91 60 184
-0.397445 -0.638677 0.565498 77 46 200
-0.532831 -0.711912 0.60007 60 37 204
0.3704 0.621883 -0.516751 175 207 62
-0.36195 0.621571 0.0284422 81 207 131
0.443635 -0.516619 0.427824 184 62 182
-0.435184 -0.581717 0.466972 72 53 187
0.105387 0.891119 0.126089 141 241 144
0.321576 0.677942 -0.655084 169 214 44
-0.28606 0.687689 -0.5493 91 215 57
-0.524326 -0.752598 0.378342 61 32 176
0.560253 -0.142307 -0.174988 199 109 105
0.353598 -0.48407 0.44344 173 66 184
-0.532416 0.118084 -0.557437 60 143 56
0.556519 -0.150444 -0.231949 198 108 98
0.191381 -0.654952 0.303627 152 44 166
-0.540968 -0.0446606 -0.20301 59 122 102
0.484321 0.533082 -0.467104 189 195 68
0.419223 -0.445146 0.402754 181 71 179
-0.597929 -0.537341 -0.223811 51 59 99
-0.427047 -0.695638 0.647032 73 39 210
0.101872 0.76227 0.337656 140 225 171
-0.590956 -0.500345 -0.272635 52 64 93
0.199518 -0.768873 0.476945 153 29 188
0.22393 0.642743 0.435303 156 209 183
-0.174794 -0.159914 0.313245 105 107 167
0.0806311 -0.475933 0.386479 138 67 177
-0.256166 -0.863369 0.362068 95 17 174
-0.524694 0.183181 -0.56488 61 151 55
0.536776 -0.459659 0.256284 196 69 160
-0.468296 -0.00397457 0.313245 68 127 167
-0.603366 -0.475933 -0.248223 51 67 96
0.435497 0.557493 0.123244 183 199 143
0.264616 -0.711912 -0.56193 161 37 56
0.0286368 0.85857 -0.555985 131 237 57
-0.264303 -0.591846 0.386479 94 52 177
-0.540896 -0.557305 0.288833 59 56 164
0.470597 0.427298 -0.557437 188 182 56
-0.557243 -0.917376 0.630596 56 11 208
0.42736 0.552144 0.158638 182 198 148
-0.56538 -0.459342 -0.329595 55 69 85
-0.533427 0.337788 0.321382 59 171 168
-0.679301 -0.549168 -0.203234 41 57 102
-0.540968 -0.0873737 -0.264498 59 116 94
-0.579932 0.411023 -0.248223 54 180 96
0.673235 -0.996715 0.768929 213 0 226
0.549419 0.34434 -0.419105 198 171 74
-0.528612 0.451709 -0.118028 60 185 112
0.492458 -0.572803 0.321382 190 54 168
0.158832 0.823327 0.0772655 148 232 137
0.598242 -0.516619 -0.184269 204 62 104
0.638928 -0.541031 -0.180647 209 59 104
-0.288135 -0.516619 0.44344 91 62 184
0.142558 -0.915343 0.630918 146 11 208
0.533144 0.445792 0.313245 195 184 167
-0.56538 -0.508482 -0.28614 55 63 91
-0.0236953 0.956217 -0.0366555 124 249 123
0.191381 -0.895247 0.671282 152 13 213
-0.223617 -0.417541 0.435303 99 74 183
0.590105 -0.435247 -0.22936 203 72 98
-0.191068 0.0719351 0.305107 103 137 166
-0.126203 -0.92348 -0.565575 111 10 55
0.0204995 0.232005 0.305856 130 157 166
0.736574 -0.92348 -0.76879 221 10 29
0.647065 0.342457 -0.05293 210 171 121
-0.524694 0.248279 -0.564854 61 159 55
0.0411145 0.964354 0.060991 133 250 135
-0.239891 -0.418973 0.40574 97 74 179
0.565693 -0.493259 -0.126165 200 65 111
0.583427 -0.524756 -0.191263 202 61 103
0.641558 -0.508482 -0.158714 209 63 107
0.459909 -0.922759 0.378342 186 10 176
-0.532831 -0.565442 0.296216 60 55 165
0.349935 0.647003 -0.0610672 172 210 120
-0.524694 0.166907 -0.564679 61 149 56
0.0892276 0.411023 0.353931 139 180 173
0.118146 -0.109758 0.307985 143 114 167
-0.524694 0.126221 -0.565038 61 144 55
0.549419 -0.109758 -0.0101484 198 114 126
0.126283 -0.463262 0.313245 144 68 167
0.686647 -0.565442 -0.183125 215 55 104
0.598242 0.402922 -0.524888 204 179 61
0.0693228 0.581303 0.256284 136 202 160
0.158832 0.820272 -0.101753 148 232 115
0.126283 -0.418973 0.305367 144 74 166
-0.673348 -0.549168 -0.313321 42 57 88
-0.481174 0.50867 -0.126165 66 192 111
-0.410773 -0.695638 0.646721 75 39 210
-0.516557 -0.703775 0.674151 62 38 213
0.145661 -0.866519 0.638733 146 17 209
0.207655 -0.890931 0.658487 154 14 211
-0.339788 -0.711912 0.557361 84 37 199
0.339778 0.630728 0.0284422 171 208 131
0.525007 -0.817696 0.475703 194 23 188
-0.663027 -0.451521 -0.147192 43 70 109
-0.0852843 0.591389 0.329519 117 203 170
-0.0483816 0.826021 0.337656 121 233 171
0.354125 -0.502957 0.467852 173 63 187
0.158832 -0.135069 0.321382 148 110 168
-0.296852 -0.572902 0.419028 90 54 181
-0.639877 -0.508482 -0.174988 46 63 105
-0.439071 -0.736324 0.703831 72 34 217
-0.0666167 -0.418973 0.427166 119 74 182
0.175107 -0.858382 0.633935 150 18 208
-0.491828 -0.646814 0.581773 65 45 202
0.679614 -0.92348 -0.768863 214 10 29
0.679614 -0.490324 -0.240086 214 65 97
0.0693228 0.926484 -0.655084 136 246 44
-0.267637 -0.166719 0.305107 93 106 166
0.606379 0.408586 0.0121677 205 180 129
-0.611412 -0.451521 -0.126165 50 70 111
-0.362563 -0.500345 0.402754 81 64 179
0.687751 -0.500345 -0.174305 215 64 105
-0.658599 -0.565442 -0.354007 44 55 82
-0.0120493 0.859836 0.435303 126 237 183
-0.459123 -0.646814 0.573636 69 45 201
0.663339 -0.549168 -0.183883 212 57 104
-0.567906 -0.435247 -0.142439 55 72 109
0.264616 -0.728187 -0.562343 161 35 56
0.117442 -0.272503 0.321382 142 93 168
0.526656 0.467984 0.0772655 195 187 137
0.117532 -0.288777 0.321382 142 91 168
-0.540968 -0.223679 -0.17789 59 99 105
-0.540968 -0.313478 -0.0366555 59 88 123
0.00422514 0.232005 0.305627 128 157 166
-0.150382 0.713507 -0.655084 108 218 44
0.598242 -0.459659 -0.265143 204 69 94
-0.125134 0.492396 0.256284 112 190 160
-0.606066 -0.451402 -0.158714 50 70 107
0.541281 -0.39541 -0.557437 197 77 56
-0.31458 0.663277 0.29697 87 212 165
-0.638615 -0.51168 0.00403052 46 62 128
-0.581654 -0.48407 0.00109662 53 66 128
0.451772 0.445825 -0.557437 185 184 56
-0.540968 -0.020249 -0.0585935 59 125 120
0.606379 -0.474218 -0.158714 205 67 107
0.346564 -0.443384 0.459714 172 71 186
0.0937345 0.568811 0.337656 139 200 171
-0.516557 -0.785147 0.370805 62 27 175
-0.532831 -0.575478 0.378342 60 54 176
-0.520188 -0.57358 0.313245 61 54 167
0.199518 -0.671207 0.516675 153 42 193
0.557444 -0.0690723 -0.0692044 199 119 119
0.346205 -0.459659 0.459714 172 69 186
-0.21548 0.767698 0.0203049 100 225 130
0.645418 -0.541031 -0.0447928 210 59 122
-0.56538 -0.540527 -0.362144 55 59 81
-0.191068 0.791644 0.0203049 103 228 130
0.656545 -0.451521 0.0528538 211 70 134
0.655202 -0.513584 -0.0773416 211 62 118
-0.582802 -0.443384 -0.10989 53 71 113
-0.0310487 0.166907 0.362068 124 149 174
0.0530484 0.695826 0.330672 134 216 170
0.362262 -0.462782 0.419028 174 68 181
-0.532206 0.21573 -0.557437 60 155 56
-0.451444 0.956217 -0.378419 70 249 79
-0.597929 -0.435247 -0.362715 51 72 81
0.175107 -0.671223 0.516675 150 42 193
-0.540968 -0.111892 -0.280772 59 113 92
0.558586 0.484258 0.0772655 199 189 137
-0.0120493 0.947945 -0.655084 126 248 44
0.671477 -0.457514 -0.215674 213 69 100
0.313439 0.0204371 0.334765 167 130 170
-0.686349 0.272691 -0.655084 40 162 44
-0.386361 0.0692604 0.315974 78 136 168
0.118146 0.899256 0.0632599 143 242 136
-0.0120493 -0.394561 -0.568746 126 77 55
-0.630478 -0.492207 -0.0642213 47 65 119
-0.339574 0.533082 0.321382 84 195 168
0.532557 -0.785147 0.467852 195 27 187
0.598242 -0.493235 0.109814 204 65 142
-0.449841 0.923668 -0.419105 70 245 74
0.207655 -0.862045 0.64687 154 18 210
-0.174794 -0.61685 0.386479 105 49 177
0.0204995 -0.92348 -0.566581 130 10 55
-0.352427 0.630728 -0.313321 83 208 88
0.289028 0.698075 0.191186 164 217 152
-0.304989 -0.0609351 0.314265 89 120 168
0.313439 -0.580824 0.419028 167 53 181
0.630791 -0.557305 -0.260925 208 56 94
-0.490665 -0.687501 0.5004 65 40 191
0.43308 0.565631 -0.508614 183 200 63
-0.415101 -0.0690723 0.305107 75 119 166
-0.275482 -0.842108 0.362068 92 20 174
-0.62234 -0.557305 -0.167547 48 56 106
0.248342 -0.190396 0.321382 159 103 168
0.0611856 0.118084 0.305798 135 143 166
0.240204 -0.614266 0.48527 158 49 189
-0.0852843 0.866707 -0.662514 117 238 43
0.22393 -0.614266 0.485274 156 49 189
-0.27244 -0.922697 0.549224 93 10 198
0.150695 -0.817696 0.510341 147 23 193
-0.606066 -0.629943 -0.191263 50 47 103
-0.451459 -0.417756 0.435303 70 74 183
0.534755 0.329651 0.264421 196 170 161
-0.589792 -0.48407 -0.304438 52 66 89
0.345988 -0.589854 0.482419 172 52 189
0.565693 0.435435 -0.46938 200 183 68
0.248342 0.740467 0.109814 159 222 142
0.0937345 -0.565442 0.330876 139 55 170
-0.402636 0.242245 0.313245 76 158 167
-0.62234 -0.532893 -0.117003 48 60 113
-0.207342 0.915531 -0.324521 101 244 86
-0.500282 -0.42711 0.36041 64 73 173
-0.199205 0.778112 0.166775 102 227 149
-0.432886 0.541219 0.435303 72 197 183
0.679614 0.347736 -0.05293 214 172 121
-0.654889 -0.524756 -0.230318 44 61 98
-0.536563 -0.451521 -0.248223 59 70 96
-0.21548 0.90739 -0.557437 100 243 56
-0.776334 -0.98044 0.663145 29 2 212
0.0123623 -0.402698 0.446544 129 76 184
0.671477 0.314902 -0.10989 213 168 113
-0.569159 -0.467796 0.0284422 55 68 131
0.332859 -0.492207 0.427166 170 65 182
0.142558 -0.565442 0.331095 146 55 170
0.603336 0.435435 0.0447166 204 183 133
-0.289138 -0.565442 0.427166 91 55 182
0.597383 -0.48407 -0.207537 204 66 101
0.0286368 0.109946 0.312061 131 142 167
-0.585029 -0.492207 0.0203049 53 65 130
0.172991 0.80161 0.0854026 150 230 138
-0.616927 -0.565442 -0.101753 49 55 115
0.412499 -0.565442 0.345793 180 55 172
0.671477 0.361331 -0.0285184 213 174 124
0.0123623 -0.915343 -0.573069 129 11 54
0.150695 -0.73564 0.565498 147 34 200
0.0902814 0.899256 0.0447166 139 242 133
-0.288715 0.591126 0.329519 91 203 170
0.663339 -0.92348 -0.7684 212 10 30
-0.614203 -0.508482 -0.181097 49 63 104
0.533144 0.467984 0.106522 195 187 141
0.0774601 0.118084 0.305946 137 143 167
0.557556 -0.101621 -0.131908 199 115 111
-0.240312 -0.451521 0.402754 97 70 179
-0.353812 -0.573341 0.394617 82 54 178
-0.606066 -0.420971 -0.126165 50 74 111
-0.363074 -0.516619 0.402754 81 62 179
-0.117833 -0.0365234 0.32137 112 123 168
-0.612966 0.378475 -0.264498 49 176 94
-0.313126 -0.554202 0.44344 88 57 184
-0.630478 -0.459659 -0.320081 47 69 87
0.394811 0.580677 0.313245 178 202 167
-0.0885052 0.573768 0.321382 116 201 168
0.484321 -0.915343 0.385555 189 11 177
0.200697 0.769061 -0.10989 153 226 113
0.655202 0.377242 -0.0122439 211 176 126
0.630791 -0.532893 -0.138419 208 60 110
-0.71185 0.282795 0.280696 37 164 163
0.510743 0.467984 0.313245 193 187 167
0.654497 -0.532893 -0.264498 211 60 94
0.110009 0.915531 0.00354594 142 244 128
0.0530484 0.922606 -0.0285184 134 245 124
0.523653 -0.915343 0.386479 194 11 177
-0.321263 0.65613 -0.248223 87 211 96
-0.183117 0.915531 -0.533026 104 244 60
-0.21548 -0.920138 0.362068 100 10 174
-0.516557 0.466228 0.158638 62 187 148
-0.532359 0.191319 -0.557437 60 152 56
-0.54039 -0.654952 0.288833 59 44 164
-0.345675 0.102529 0.313245 83 141 167
0.175107 -0.57358 0.337581 150 54 171
0.419223 -0.573075 0.370205 181 54 175
0.51687 -0.646584 0.378342 193 45 176
0.362262 0.622591 -0.119801 174 207 112
0.264616 0.727268 0.0447166 161 220 133
0.609359 -0.443384 -0.10989 205 71 113
-0.304989 0.240142 0.30314 89 158 166
-0.36195 -0.573577 0.459714 81 54 186
0.134421 -0.922019 0.638733 145 10 209
0.630791 -0.430455 -0.223811 208 73 99
0.590105 -0.437123 -0.00410673 203 72 127
0.525007 -0.77701 0.474814 194 28 188
0.525007 -0.565442 0.306533 194 55 167
-0.0145591 -0.418973 0.435303 126 74 183
0.116267 -0.126033 0.321382 142 111 168
0.615404 0.386612 -0.500477 206 177 64
-0.533796 -0.410835 -0.435379 59 75 72
-0.214127 -0.42711 0.402754 100 73 179
-0.150382 0.0981839 0.305107 108 140 166
-0.370087 -0.663089 0.611184 80 43 205
0.0367739 -0.92348 -0.567055 132 10 55
0.541281 0.459847 -0.464721 197 186 68
0.411086 -0.454933 0.427166 180 69 182
0.126283 0.850433 0.0576263 144 236 135
0.720609 0.272691 -0.150577 219 162 108
0.0536447 0.956217 -0.0692044 134 249 119
0.590105 -0.532893 0.0543922 203 60 134
-0.542228 -0.524756 -0.288909 58 61 91
-0.306099 0.565631 -0.663221 88 200 43
-0.64415 -0.451521 -0.0285184 45 70 124
0.0774601 -0.475933 0.333547 137 67 170
0.42736 0.469848 -0.557437 182 187 56
-0.109696 -0.0121117 0.303584 114 126 166
-0.538984 -0.516619 0.435303 59 62 183
0.435497 0.59979 -0.313321 183 204 88
-0.288715 -0.83688 0.362068 91 21 174
0.50765 0.476121 0.0365793 192 188 132
0.386674 0.605097 -0.280772 177 205 92
0.215793 -0.565442 0.331524 155 55 170
0.308707 0.695826 0.0365793 167 216 132
0.28089 0.703963 0.172113 163 217 149
-0.403825 0.573768 -0.5493 76 201 57
0.646799 0.354063 -0.467928 210 173 68
-0.158519 0.819432 -0.25636 107 232 95
-0.428658 -0.638677 0.638733 73 46 209
0.51687 0.504963 -0.49234 193 192 65
-0.27244 0.242013 0.313245 93 158 167
-0.434942 -0.882794 0.44344 72 15 184
-0.0283238 -0.915343 -0.572698 124 11 54
-0.508419 0.475237 0.29697 63 188 165
-0.532243 0.256416 -0.557437 60 160 56
-0.657867 -0.459659 -0.0936161 44 69 116
0.126283 0.866707 0.0846874 144 238 138
0.572858 -0.459659 0.109814 201 69 142
0.143098 -0.638677 0.467852 146 46 187
-0.510193 -0.720049 0.58991 62 36 203
-0.605418 -0.532893 -0.272635 50 60 93
0.638928 -0.492207 0.0104202 209 65 129
-0.216392 0.785335 -0.329595 100 228 85
0.272753 -0.190114 0.321382 162 103 168
-0.540968 -0.359869 -0.142439 59 82 109
-0.540143 -0.671226 0.288833 59 42 164
0.671477 -0.557305 -0.200185 213 56 102
-0.378224 0.501818 0.427166 79 191 182
-0.598435 -0.418973 -0.288909 51 74 91
-0.573517 -0.496737 -0.280772 54 64 92
0.297165 0.689953 0.174912 165 215 150
-0.264303 -0.915343 0.542271 94 11 197
-0.304989 -0.107953 0.313245 89 114 167
0.166969 -0.565442 0.331252 149 55 170
0.0171613 0.980628 -0.0366555 130 253 123
0.0892395 0.882982 0.109814 139 240 142
0.435497 -0.917357 0.435303 183 11 183
0.417111 0.549356 0.305107 181 198 166
-0.411985 0.0367115 0.313245 75 132 167
0.549419 -0.101621 0.146822 198 115 146
-0.313126 0.241769 0.313245 88 158 167
0.50754 0.467984 0.44344 192 187 184
0.0131051 -0.443384 0.394617 129 71 178
0.256479 -0.861809 0.64687 160 18 210
-0.581654 -0.48407 -0.163464 53 66 107
-0.549106 -0.320155 -0.231949 57 87 98
0.0622265 0.939942 0.101677 135 247 140
0.435497 0.248279 0.334091 183 159 170
-0.199205 0.427298 0.326001 102 182 169
0.28089 -0.565442 0.331529 163 55 170
0.0855972 0.67537 0.337656 138 214 171
0.43832 0.435435 0.345793 183 183 172
-0.443322 0.962786 -0.40283 71 250 76
-0.181024 -0.565442 0.29697 104 55 165
0.339626 0.695826 0.174912 171 216 150
0.557556 -0.388256 -0.10989 199 78 113
-0.199205 -0.92348 -0.566003 102 10 55
-0.554719 -0.467796 -0.166851 57 68 106
-0.427047 0.551067 -0.5493 73 198 57
0.0123623 0.964354 -0.0334062 129 250 123
0.549419 -0.126033 -0.317863 198 111 87
-0.166656 0.379823 0.329519 106 176 170
0.647065 -0.541 -0.0936161 210 59 116
0.248342 -0.573437 0.337656 159 54 171
-0.313126 0.0692604 0.31406 88 136 168
0.394811 0.598072 -0.305184 178 204 89
-0.549506 -0.532893 0.0691282 57 60 136
-0.621189 -0.508482 -0.248223 48 63 96
0.285792 -0.516619 0.321382 164 62 168
0.345988 -0.744461 0.467372 172 33 187
0.508732 0.474885 0.0772655 192 188 137
-0.248028 0.915531 -0.325532 96 244 86
0.728852 0.30524 -0.142439 220 166 109
0.0367739 0.613484 0.337656 132 206 171
-0.523616 0.467984 0.0121677 61 187 129
-0.532831 -0.907205 0.550477 60 12 198
0.560937 -0.345738 0.00403052 199 83 128
-0.451459 -0.643421 0.58991 70 45 203
-0.174794 -0.626175 0.362068 105 48 174
-0.240866 -0.435247 0.402754 97 72 179
-0.409775 -0.638677 0.638733 75 46 209
0.417139 0.565631 0.126089 181 200 144
-0.484008 -0.423154 0.370205 66 74 175
0.655202 -0.501781 0.0284422 211 64 131
0.7756 -0.98044 -0.508614 226 2 63
-0.532831 -0.679363 0.295715 60 41 165
-0.378224 -0.256228 0.319525 79 95 168
0.305302 -0.565442 0.331598 166 55 170
-0.606066 -0.48407 -0.235196 50 66 98
-0.687438 0.30033 0.288833 40 166 164
-0.524694 -0.915343 -0.567774 61 11 55
0.541281 -0.378286 -0.557431 197 79 56
0.362262 -0.639013 0.44344 174 46 184
-0.223617 0.777198 -0.548833 99 227 58
-0.0916605 0.874845 0.44344 116 239 184
-0.549106 -0.671226 0.567434 57 42 200
-0.111304 0.0122998 0.313245 113 129 167
-0.564866 0.427298 0.0121677 55 182 129
-0.539551 -0.0853467 -0.0692044 59 117 119
0.191381 0.783703 0.0854026 152 227 138
-0.532212 0.329651 -0.557437 60 170 56
-0.263543 -0.272503 0.313245 94 93 167
-0.166656 -0.0690723 0.314572 106 119 168
-0.56517 0.427298 0.0284422 55 182 131
-0.00391211 -0.786441 -0.589986 127 27 52
0.329714 -0.573381 0.337656 170 54 171
0.532808 -0.744461 0.467852 195 33 187
0.0693228 0.939942 -0.0539687 136 247 121
-0.0143183 -0.532893 0.44344 126 60 184
0.525007 -0.720049 0.473652 194 36 188
0.598242 -0.499966 -0.150577 204 64 108
0.624926 -0.435247 0.0121677 207 72 129
0.240204 -0.858382 0.634575 158 18 208
-0.450741 0.956217 -0.394693 70 249 77
-0.630478 -0.443384 -0.116272 47 71 113
-0.467733 -0.57358 0.3308 68 54 170
0.183244 -0.584445 0.419028 151 53 181
0.57383 -0.435247 0.0657068 201 72 136
-0.0364609 -0.345738 -0.576653 123 83 54
-0.557243 -0.663089 0.587914 56 43 202
-0.0289545 0.980628 -0.0122439 124 253 126
0.0855972 0.111028 0.313245 138 142 167
-0.557243 -0.703775 0.508936 56 38 192
-0.443322 -0.890931 0.468113 71 14 187
-0.690146 0.297102 -0.25636 40 165 95
-0.280577 -0.48407 0.396583 92 66 178
0.0855972 0.892758 -0.101753 138 241 115
0.581967 -0.443384 -0.236456 202 71 97
0.386674 0.516807 -0.65566 177 193 44
0.289028 -0.894852 0.671282 164 13 213
0.0123623 0.970328 0.060991 129 251 135
0.655202 -0.514615 -0.158714 211 62 107
0.559309 -0.345738 -0.134302 199 83 110
0.547005 -0.3376 -0.5493 197 84 57
0.289028 -0.858382 0.63453 164 18 208
-0.597929 -0.534611 -0.288909 51 59 91
-0.626533 -0.459659 -0.191263 48 69 103
0.542459 0.321514 0.256284 197 168 160
0.0367739 0.599336 0.321382 132 204 168
0.207655 0.769061 0.125742 154 226 144
-0.524694 0.280828 -0.564161 61 163 56
-0.538379 -0.532893 0.435303 59 60 183
0.249405 0.736512 -0.386556 159 221 78
0.557556 -0.287115 0.00403052 199 91 128
-0.264303 0.712671 0.0284422 94 218 131
0.142558 0.842296 0.190955 146 235 152
-0.138431 0.842296 0.158638 110 235 148
-0.370087 -0.637806 0.459714 80 46 186
0.508732 -0.915343 0.384203 192 11 176
0.134421 0.850433 0.144248 145 236 146
0.0774601 -0.508482 0.333943 137 63 170
-0.532831 -0.695638 0.295503 60 39 165
-0.239891 -0.565442 0.447963 97 55 185
0.305302 -0.656146 0.313245 166 44 167
-0.41891 0.541276 -0.671358 74 197 42
-0.394498 -0.256228 0.319283 77 95 168
-0.0145192 -0.516619 0.44344 126 62 184
0.117237 -0.256228 0.321382 142 95 168
-0.486529 -0.646814 0.606184 65 45 205
-0.451459 -0.659389 0.622459 70 43 207
0.229059 0.736512 0.166775 157 221 149
-0.443322 0.962382 -0.419105 71 250 74
-0.508419 0.359188 -0.663221 63 173 43
0.0897843 0.882982 0.0203049 139 240 130
0.732244 0.248279 0.174912 221 159 150
-0.497666 0.370337 -0.663221 64 175 43
0.126283 -0.404425 0.305107 144 76 166
0.0693228 0.908697 -0.101753 136 243 115
0.675207 -0.475933 -0.0854789 214 67 117
-0.614203 -0.409586 0.00403052 49 75 128
-0.540968 -0.0804101 -0.1994 59 117 102
-0.353812 0.149736 0.305107 82 147 166
0.541281 -0.296914 -0.557204 197 90 56
0.0286368 0.166907 0.305873 131 149 166
0.548155 -0.117896 -0.272635 197 112 93
0.565693 0.394749 0.449108 200 178 185
0.648431 -0.57358 0.0772655 210 54 137
0.118146 0.891119 0.0209314 143 241 130
0.0123623 0.968892 -0.10989 129 251 113
-0.386632 -0.57358 0.394617 78 54 178
0.313439 -0.573181 0.337656 167 54 171
-0.630478 -0.500909 -0.183125 47 64 104
-0.077147 0.685151 0.345793 118 215 172
-0.576406 -0.508482 0.0447166 54 63 133
-0.540968 -0.256228 -0.0736638 59 95 118
0.173925 0.581905 0.337656 150 202 171
0.612924 -0.532893 -0.207537 206 60 101
-0.0718914 0.891119 -0.655084 118 241 44
-0.69427 0.297102 0.0203049 39 165 130
0.638928 -0.468261 -0.142439 209 68 109
-0.484008 -0.3636 0.362068 66 81 174
0.679614 -0.57358 -0.168138 214 54 106
0.323275 -0.264365 0.321382 169 94 168
0.0530484 -0.42711 -0.571619 134 73 55
-0.353812 -0.492207 0.449073 82 65 185
0.166969 0.809747 0.120491 149 231 143
0.643522 -0.516619 0.00403052 210 62 128
0.0188315 0.842296 0.435303 130 235 183
-0.328372 0.647003 0.435303 86 210 183
-0.62234 0.218405 -0.655084 48 155 44
0.769123 -0.990263 -0.0610672 226 1 120
0.557556 0.451709 -0.510014 199 185 62
0.0286368 -0.451521 0.343885 131 70 171
0.775191 -0.98044 -0.524888 226 2 61
0.549419 -0.124575 -0.207537 198 112 101
-0.0690098 -0.915343 -0.573266 119 11 54
0.248342 0.72927 0.0447166 159 220 133
0.150695 -0.718501 0.549224 147 36 198
0.541281 -0.313189 -0.556858 197 88 57
-0.183954 0.915531 -0.5493 104 244 57
-0.0527354 0.833253 0.44344 121 234 184
-0.436884 0.541219 0.29697 72 197 165
-0.630478 0.355572 -0.541163 47 173 59
0.559569 -0.48407 -0.0936161 199 66 116
-0.402636 -0.110218 0.313245 76 113 167
-0.321263 -0.42711 0.445185 87 73 184
-0.34656 0.533082 0.427166 83 195 182
0.191381 0.78817 -0.101753 152 228 115
0.45076 0.516807 0.305107 185 193 166
0.0855972 0.902153 -0.00410673 138 243 127
-0.0527354 0.612886 0.337656 121 206 171
0.337851 -0.464445 0.386479 171 68 177
-0.492145 -0.711912 0.501107 65 37 191
0.0286368 0.949684 -0.0447928 131 249 122
0.590105 -0.495873 -0.223811 203 64 99
-0.0527354 0.925154 0.29697 121 245 165
0.158832 -0.199268 0.307305 148 102 167
0.549419 -0.283653 -0.126165 198 91 111
-0.417668 0.557493 0.435303 74 199 183
-0.606066 0.379165 -0.541163 50 176 59
0.42736 -0.549168 0.308877 182 57 167
-0.426255 -0.720049 0.64687 73 36 210
0.00422514 -0.572701 0.44344 128 54 184
0.305302 0.670138 0.183049 166 213 151
0.549419 0.426802 0.44344 198 182 184
-0.668925 0.321514 0.0203049 42 168 130
-0.638615 -0.443384 -0.232651 46 71 98
0.142558 -0.597991 0.474252 146 51 188
0.622653 0.391277 -0.00410673 207 177 127
0.0937345 0.052986 0.336787 139 134 170
0.7203 0.282301 -0.142439 219 163 109
-0.432968 -0.882794 0.419028 72 15 181
-0.559199 -0.524756 -0.321458 56 61 87
0.411086 0.564912 0.29697 180 200 165
-0.321263 -0.92348 0.302851 87 10 166
-0.728124 0.266609 0.280696 35 161 163
0.51687 0.466334 0.109814 193 187 142
0.22393 -0.418662 0.313245 156 74 167
-0.467733 -0.922867 0.370205 68 10 175
0.506925 0.467984 0.166775 192 187 149
-0.248028 -0.475933 0.448996 96 67 185
0.313439 -0.117896 0.307925 167 112 167
-0.524694 0.297102 -0.563798 61 165 56
-0.182931 0.94808 -0.466101 104 248 68
-0.71185 0.264554 -0.64286 37 161 46
0.263632 0.703963 0.166775 161 217 149
0.630791 0.366685 0.0284422 208 174 131
0.57383 -0.443384 -0.0161888 201 71 125
0.565693 -0.135576 0.0854026 200 110 138
-0.540968 0.337788 -0.670759 59 171 42
0.101872 0.881024 0.0365793 140 240 132
0.647065 0.370337 -0.471015 210 175 67
0.337851 -0.565442 0.331662 171 55 170
-0.468985 -0.3376 0.305107 68 84 166
0.679614 0.317388 -0.280772 214 168 92
-0.62234 -0.437357 -0.207537 48 72 101
-0.368884 -0.418973 0.419028 80 74 181
0.638928 0.383432 -0.410967 209 176 75
-0.394498 -0.557305 0.450841 77 56 185
0.321576 0.581905 -0.656467 169 202 44
-0.531483 0.272691 -0.557437 60 162 56
-0.630478 -0.414389 -0.207537 47 75 101
-0.36195 -0.42711 0.439569 81 73 184
-0.597929 -0.614266 0.0354947 51 49 132
-0.442934 0.915531 -0.508614 71 244 63
0.687751 -0.57358 -0.100437 215 54 115
-0.635334 0.345926 -0.394693 46 172 77
0.329714 -0.890931 0.659365 170 14 212
-0.508419 -0.648248 0.581773 63 45 202
-0.573517 -0.492207 0.0876907 54 65 139
-0.0132178 0.0773976 0.313245 126 137 167
-0.0201865 -0.822907 -0.630672 125 23 47
0.0693228 -0.492207 0.343918 136 65 171
0.598242 -0.534281 -0.223811 204 59 99
-0.475871 0.507336 0.427166 67 192 182
0.440441 -0.654952 0.419028 184 44 181
-0.191068 0.953519 -0.500477 103 249 64
-0.589792 -0.472799 -0.166851 52 67 106
-0.231562 0.101809 0.313245 98 140 167
-0.584115 0.394749 -0.394693 53 178 77
0.321528 -0.0853467 0.313245 168 117 167
-0.674479 -0.48407 -0.183125 42 66 104
-0.264303 0.61509 0.329519 94 206 170
-0.573517 -0.430929 -0.0610672 54 73 120
0.557556 -0.388301 -0.126165 199 78 111
-0.532831 -0.744461 0.295362 60 33 165
-0.109696 0.563635 0.329519 114 199 170
0.484321 -0.572166 0.386479 189 55 177
-0.367516 -0.736324 0.687557 81 34 215
-0.0608726 -0.92348 -0.568221 120 10 55
-0.625853 -0.467796 0.0203049 48 68 130
0.568205 -0.435247 -0.0854789 200 72 117
0.60512 -0.541031 -0.1994 205 59 102
0.547131 -0.239954 -0.5493 197 97 57
-0.337538 -0.92348 0.302602 84 10 166
0.0204995 0.966527 -0.378419 130 251 79
-0.54754 -0.695638 0.663145 58 39 212
0.0367739 0.954708 -0.0773416 132 249 118
0.324169 -0.443384 0.313245 169 71 167
0.0175131 0.980628 -0.05293 130 253 121
-0.652504 0.337788 -0.118028 44 171 112
0.214586 -0.296914 0.321382 155 90 168
0.00422514 -0.572487 0.427166 128 55 182
-0.337786 0.638865 0.29697 84 209 165
0.525007 0.191319 0.310871 194 152 167
-0.337538 -0.711912 0.515357 84 37 193
0.606868 0.378475 -0.10989 205 176 113
-0.0201865 0.957376 0.29697 125 250 165
-0.735986 0.240142 0.280696 34 158 163
0.556235 0.337788 -0.427242 198 171 73
0.769123 -0.987592 -0.500477 226 2 64
0.248342 -0.662198 0.313245 159 43 167
-0.313126 -0.418973 0.406567 88 74 179
-0.0228073 0.956217 -0.00410673 125 249 127
-0.627734 -0.532893 -0.183125 47 60 104
-0.561806 -0.687501 0.64687 56 40 210
0.433755 0.533082 0.305107 183 195 166
-0.549106 -0.3376 -0.231281 57 84 98
0.110009 0.524151 0.264421 142 194 161
0.581967 0.463711 0.0691282 202 187 136
-0.36195 -0.63054 0.46774 81 47 187
-0.59765 0.386612 0.0203049 51 177 130
-0.483743 -0.663089 0.573636 66 43 201
-0.630478 -0.508482 -0.114005 47 63 113
-0.539904 -0.109758 -0.435379 59 114 72
-0.0514896 -0.57358 0.313245 121 54 167
0.630791 0.248279 0.443564 208 159 184
0.118146 0.118084 0.306625 143 143 167
0.522785 0.240142 0.313245 194 158 167
-0.71185 0.248279 -0.642415 37 159 46
-0.112532 0.85857 0.166775 113 237 149
0.548752 -0.0934839 -0.0854789 197 116 117
0.614516 -0.521731 -0.158714 206 61 107
0.547225 -0.402698 -0.5493 197 76 57
0.118146 0.874845 0.0350618 143 239 132
-0.614203 -0.490156 -0.166851 49 65 106
0.532401 -0.728187 0.467852 195 35 187
0.345988 -0.575858 0.467852 172 54 187
-0.555178 -0.00397457 -0.215674 57 127 100
-0.484008 0.492957 -0.533026 66 190 60
-0.532831 -0.785147 0.294919 60 27 165
0.664415 -0.459659 -0.1994 212 69 102
0.268638 -0.671226 0.386479 162 42 177
0.601544 -0.492207 0.126089 204 65 144
-0.410454 -0.288777 0.305107 75 91 166
0.625943 -0.459659 -0.1994 207 69 102
0.359131 0.606317 0.305107 173 205 166
-0.223617 -0.894783 0.362068 99 13 174
-0.497495 0.492396 0.166775 64 190 149
-0.613418 -0.622403 -0.231949 49 48 98
0.256479 -0.907205 -0.572146 160 12 55
-0.625092 -0.508482 -0.0773416 48 63 118
-0.475871 -0.695638 0.68658 67 39 215
0.704026 0.289503 -0.516751 217 164 62
-0.557243 -0.264365 -0.126291 56 94 111
-0.410434 -0.272503 0.305107 75 93 166
-0.573517 -0.664479 0.606184 54 43 205
-0.192869 0.671414 -0.655084 103 213 44
0.303615 0.687689 0.0447166 166 215 133
-0.626782 -0.524756 -0.0773416 48 61 118
-0.630478 -0.541838 -0.0610672 47 58 120
0.435497 -0.48407 0.419993 183 66 181
0.614516 -0.435247 -0.0762243 206 72 118
-0.678153 0.313377 -0.118028 41 167 112
-0.616567 0.370337 -0.118028 49 175 112
0.622653 -0.549168 0.0497803 207 57 134
-0.539621 -0.752598 0.288833 59 32 164
-0.556787 -0.264365 -0.183125 57 94 104
-0.189888 0.777198 -0.386556 103 227 78
-0.589792 -0.413596 -0.05293 52 75 121
-0.150382 0.360454 0.329519 108 173 170
0.150695 -0.579183 0.427166 147 54 182
0.0204995 0.18146 0.362068 130 151 174
-0.130992 0.65514 0.329519 111 211 170
0.667021 -0.549168 -0.240086 213 57 97
0.435497 -0.923344 0.313245 183 10 167
0.598242 -0.508482 0.0872584 204 63 139
0.581689 -0.410835 -0.215674 202 75 100
0.322816 -0.248091 0.321382 169 96 168
0.28089 0.685968 0.166775 163 215 149
-0.443322 -0.919543 0.524812 71 10 194
-0.532831 -0.907205 0.646559 60 12 210
-0.213284 -0.508482 0.44344 100 63 184
0.101872 0.0448487 0.331729 140 133 170
0.558476 -0.28064 -0.134302 199 92 110
0.477605 0.541219 -0.394693 188 197 77
0.558552 -0.451521 -0.134302 199 70 110
0.557556 -0.248091 -0.133417 199 96 110
0.183244 0.786893 0.0284422 151 228 131
0.330929 -0.541031 0.394617 170 59 178
-0.581654 -0.516619 -0.306951 53 62 88
-0.590687 -0.451521 -0.248223 52 70 96
-0.540282 -0.0365234 -0.0366555 59 123 123
0.638928 -0.567198 -0.0366555 209 55 123
-0.540968 -0.0609351 -0.0133941 59 120 126
0.484321 0.498631 0.101677 189 191 140
0.289028 -0.532893 0.32859 164 60 169
0.378537 0.51785 -0.557437 176 194 56
0.634818 -0.443384 0.0772655 208 71 137
0.188528 0.785335 0.126089 152 228 144
0.0611856 0.962345 -0.0366555 135 250 123
-0.620818 -0.492207 -0.1994 48 65 102
0.323733 -0.28064 0.321382 169 92 168
0.22393 0.756723 -0.101753 156 224 115
0.175107 -0.809559 0.500157 150 24 191
-0.173526 0.80161 0.166775 105 230 149
-0.626004 -0.435247 -0.05293 48 72 121
0.0774601 0.950952 -0.0366555 137 249 123
0.135368 0.834159 0.0284422 145 234 131
-0.557062 -0.728187 0.557361 56 35 199
-0.60628 -0.451521 -0.191263 50 70 103
0.695888 0.280828 0.445256 216 163 184
-0.0137576 0.093672 0.313245 126 139 167
-0.532831 0.443933 -0.533026 60 184 60
0.052619 0.923668 -0.0447928 134 245 122
0.57383 -0.557764 0.109814 201 56 142
-0.41891 -0.628326 0.565498 74 47 200
0.679614 0.321514 -0.0206993 214 168 125
-0.191068 0.952613 -0.516751 103 249 62
0.532086 0.223867 0.305107 195 156 166
0.501802 0.484258 -0.248223 191 189 96
-0.537269 -0.0934839 -0.427242 59 116 73
0.240204 0.0122998 0.312909 158 129 167
-0.378224 -0.663089 0.579046 79 43 201
-0.435184 0.557493 -0.540519 72 199 59
0.500595 -0.571802 0.386479 191 55 177
-0.467331 -0.321326 0.313245 68 87 167
-0.112325 0.329651 0.329519 113 170 170
-0.20965 0.760924 -0.248223 101 225 96
-0.470867 -0.329463 0.386479 67 85 177
-0.312646 -0.565442 0.410891 88 55 180
0.101559 0.874845 0.174912 140 239 150
-0.296852 -0.262939 0.313245 90 94 167
-0.687438 -0.548208 -0.183125 40 58 104
0.149612 0.826021 0.1505 147 233 147
0.565693 -0.565442 0.115637 200 55 142
0.297165 0.670423 0.166775 165 213 149
0.663339 0.327465 -0.0610672 212 169 120
-0.540968 -0.631512 -0.280772 59 47 92
-0.528417 -0.915343 0.459714 60 11 186
0.0611856 0.311955 0.337656 135 167 171
-0.459596 -0.915343 0.378274 69 11 176
-0.540968 -0.362012 0.441787 59 81 184
-0.191068 0.784077 -0.427242 103 227 73
-0.589792 0.280828 -0.67059 52 163 42
0.647065 -0.444538 -0.0773416 210 71 118
-0.565044 -0.508482 0.0772655 55 63 137
0.51687 -0.915343 0.478983 193 11 189
-0.474333 -0.378286 0.305107 67 79 166
0.45019 -0.492207 0.419028 185 65 181
0.0520046 0.923668 0.0691282 134 245 136
-0.207342 -0.646814 0.303753 101 45 166
-0.135966 0.0773976 0.305107 110 137 166
0.73407 0.248279 0.158638 221 159 148
0.57383 -0.435247 -0.199752 201 72 102
-0.449624 0.533082 -0.386556 70 195 78
-0.614203 0.374686 -0.40283 49 175 76
0.0530484 0.924689 -0.101753 134 245 115
0.544663 -0.915343 0.24001 197 11 158
0.0693228 0.695826 0.33322 136 216 170
-0.450696 0.956217 -0.443516 70 249 71
0.476183 0.495239 0.0284422 188 191 131
0.665128 -0.500345 0.0528538 212 64 134
-0.287347 -0.492207 0.44344 91 65 184
-0.549106 -0.386424 -0.42653 57 78 73
0.0286368 0.303074 0.337656 131 166 171
-0.12597 0.853712 -0.118028 111 236 112
0.728437 -0.988577 0.774501 220 1 226
-0.56538 0.313377 -0.669932 55 167 42
-0.55653 -0.248091 -0.183125 57 96 104
-0.207342 -0.207405 0.314782 101 101 168
-0.665511 0.321514 -0.25636 43 168 95
-0.459596 -0.418973 0.425566 69 74 182
-0.735646 0.256416 0.419028 34 160 181
0.666888 -0.557305 0.0284422 213 56 131
0.532123 0.15877 0.305107 195 148 166
0.484321 -0.360691 0.378342 189 82 176
-0.427047 -0.370149 0.303159 73 80 166
0.0449112 -0.915343 -0.573365 133 11 54
-0.497044 0.484258 -0.118028 64 189 112
0.0367739 0.467984 0.222848 132 187 156
-0.378224 -0.417553 0.435303 79 74 183
0.160622 0.703963 0.435303 148 217 183
0.207655 -0.778729 0.492263 154 28 190
0.540622 -0.92348 0.264421 196 10 161
0.411086 -0.418973 0.447729 180 74 185
0.22393 0.752786 0.175238 156 223 150
0.22393 -0.654952 0.304755 156 44 166
0.712163 0.328086 -0.223811 218 169 99
0.362262 -0.436445 0.467852 174 72 187
0.0232655 0.175044 0.313245 130 150 167
0.679614 0.312666 -0.134302 214 167 110
-0.62234 -0.512413 -0.191263 48 62 103
0.0449112 0.944227 -0.0610672 133 248 120
-0.0120493 -0.781912 -0.630672 126 28 47
0.0367739 0.939942 0.0418543 132 247 133
-0.53573 -0.638677 -0.240086 59 46 97
-0.0120493 -0.810118 -0.589986 126 24 52
-0.0633494 -0.42711 0.402754 119 73 179
-0.00391211 -0.623485 0.386479 127 48 177
-0.500282 -0.915343 0.375289 64 11 175
-0.557243 -0.121213 0.0121677 56 112 129
-0.150382 0.824471 0.0284422 108 233 131
-0.0364609 0.703963 0.330937 123 217 170
0.565693 -0.11755 -0.0285184 200 113 124
0.0611856 0.913555 0.0121677 135 244 129
-0.540968 -0.0289308 -0.272635 59 124 93
0.663339 -0.515326 0.0528538 212 62 134
0.614516 -0.415069 -0.248223 206 75 96
-0.638615 -0.508482 -0.091722 46 63 116
0.484321 -0.646814 0.306609 189 45 167
0.647065 -0.532287 -0.183125 210 60 104
-0.581654 -0.531722 0.0284422 53 60 131
0.0204995 0.826021 0.33361 130 233 170
-0.552393 -0.418973 -0.126165 57 74 111
0.426106 0.565631 -0.305184 182 200 89
0.614516 -0.442543 -0.183125 206 71 104
-0.285077 -0.557305 0.402754 91 56 179
-0.589792 -0.395565 -0.0203811 52 77 125
-0.670919 0.191319 -0.638809 42 152 46
-0.00391211 0.962774 -0.378419 127 250 79
0.671477 -0.557621 -0.150577 213 56 108
-0.549106 -0.353875 -0.229955 57 82 98
0.297165 -0.126033 0.308281 165 111 167
-0.280577 -0.0690723 0.301583 92 119 166
0.142558 0.118084 0.306802 146 143 167
-0.43775 -0.785147 0.459714 72 27 186
0.419322 -0.00397457 0.313245 181 127 167
-0.231754 -0.571601 0.427166 98 55 182
-0.532831 -0.809559 0.295021 60 24 165
0.632506 -0.500345 -0.158714 208 64 107
-0.62163 -0.549168 -0.0285184 48 57 124
-0.339998 -0.687501 0.5004 84 40 191
-0.36195 -0.0772095 0.319445 81 118 168
0.256479 0.713332 -0.10989 160 218 113
-0.540968 0.00369376 -0.207537 59 128 101
0.655573 0.248279 -0.655084 211 159 44
0.606379 -0.48407 -0.166873 205 66 106
0.610311 -0.557305 -0.280772 205 56 92
0.215793 -0.423126 0.321382 155 74 168
0.419223 0.573004 -0.516751 181 201 62
0.581967 -0.418973 -0.00626063 202 74 127
-0.539559 -0.817696 0.288833 59 23 164
-0.557243 -0.907205 0.555156 56 12 198
0.581967 0.4049 0.0121677 202 179 129
-0.549106 -0.0853467 -0.319564 57 117 87
0.557556 -0.348536 -0.0285184 199 83 124
0.402949 0.573768 0.161434 179 201 148
0.638928 -0.557305 -0.182085 209 56 104
0.541281 -0.248091 -0.556266 197 96 57
-0.402636 -0.312103 0.313245 76 88 167
0.394811 0.638077 0.166775 178 209 149
0.134421 -0.922794 0.598047 145 10 204
0.0693228 0.898352 0.0284422 136 242 131
-0.378224 -0.109758 0.313896 79 114 168
-0.614203 -0.53253 0.0203049 49 60 130
-0.53805 -0.126033 -0.435379 59 111 72
-0.495985 0.484258 -0.394693 64 189 77
0.77536 -0.98044 -0.5493 226 2 57
0.207655 -0.19113 0.312386 154 103 167
0.487765 0.50867 -0.419105 190 192 74
-0.654889 -0.458959 -0.0773416 44 69 118
-0.36195 -0.671226 0.598771 81 42 204
0.66613 0.313377 0.0284422 212 167 131
-0.394498 -0.672217 0.614322 77 42 206
0.33578 -0.915343 0.565498 170 11 200
-0.304989 -0.308235 0.305107 89 88 166
0.679614 -0.475933 -0.109357 214 67 114
-0.419609 0.565631 0.288833 74 200 164
0.769123 -0.992375 0.0447166 226 1 133
0.647065 -0.457695 -0.183125 210 69 104
0.388519 0.622591 -0.191263 177 207 103
-0.573517 -0.48747 -0.183125 54 65 104
-0.377115 0.598179 0.435303 79 204 183
0.323902 -0.313189 0.321382 169 88 168
0.42736 -0.92281 0.44344 182 10 184
-0.427047 -0.890421 0.386479 73 14 177
-0.0273899 0.939942 0.305107 124 247 166
0.166969 -0.801422 0.49503 149 25 191
-0.532831 -0.922818 0.435303 60 10 183
-0.589792 0.30524 -0.665428 52 166 43
-0.671164 0.204116 -0.557437 42 154 56
0.22393 -0.13417 0.312435 156 110 167
0.525007 -0.57358 0.460158 194 54 186
0.337851 -0.48407 0.435831 171 66 183
0.0923055 0.939942 -0.0203811 139 247 125
0.557556 -0.638677 0.114424 199 46 142
-0.573517 0.414461 -0.40283 54 180 76
-0.162918 0.80161 -0.524888 107 230 61
-0.549589 -0.0446606 -0.142439 57 122 109
0.248342 -0.13417 0.312448 159 110 167
0.606379 0.386612 0.0044098 205 177 128
0.134421 0.011143 0.313245 145 129 167
0.118146 -0.313189 0.312446 143 88 167
0.289028 -0.199268 0.328824 164 102 169
0.549419 0.427982 0.166775 198 182 149
-0.182931 0.792458 -0.394693 104 229 77
0.734738 0.248279 0.0447166 221 159 133
0.565693 -0.459659 -0.0832938 200 69 117
-0.182931 0.786818 -0.10989 104 228 113
0.525007 0.150632 0.310565 194 147 167
-0.549106 -0.127357 -0.231949 57 111 98
0.544838 0.321514 0.231872 197 168 157
-0.0201865 -0.321326 -0.570494 125 87 55
0.167465 0.809747 0.158638 149 231 148
-0.443322 -0.724714 0.598047 71 35 204
0.344457 -0.48407 0.459714 171 66 186
-0.394498 0.581244 0.435303 77 202 183
-0.13114 0.842296 0.305107 111 235 166
0.32089 -0.0446606 0.313245 168 122 167
0.0152948 0.0122998 0.337656 129 129 171
-0.00391211 0.957864 0.305107 127 250 166
0.429661 0.541219 0.0284422 182 197 131
-0.182931 -0.92348 -0.568279 104 10 55
-0.516557 -0.83397 0.37258 62 21 175
0.638928 -0.557305 -0.0965509 209 56 115
-0.654271 0.21573 -0.671358 44 155 42
0.280077 0.7121 -0.516751 163 218 62
-0.728124 0.256416 -0.531189 35 160 60
0.525007 0.45924 0.0854026 194 186 138
0.57383 0.419161 0.0342699 201 181 132
-0.158519 -0.572815 0.410891 107 54 180
-0.459596 -0.370149 0.386486 69 80 177
-0.450352 0.956217 -0.427242 70 249 73
0.0693228 0.923668 -0.038116 136 245 123
0.297165 -0.915343 0.542407 165 11 197
-0.150382 0.242382 0.313245 108 158 167
-0.459596 0.511284 0.435303 69 193 183
-0.581654 -0.433356 -0.126165 53 72 111
-0.530725 -0.720049 0.655008 60 36 211
0.134421 0.73721 0.44344 145 221 184
0.291233 0.695826 -0.386556 165 216 78
0.614516 -0.544397 -0.223811 206 58 99
0.468046 0.56476 -0.410967 187 200 75
-0.37706 -0.744461 0.711968 79 33 218
-0.12597 0.738401 0.329519 111 222 170
0.704026 0.297102 -0.0672203 217 165 119
0.0367739 0.931982 0.0284422 132 246 131
0.468046 0.501368 0.305107 187 191 166
0.0849389 0.899256 0.109814 138 242 142
-0.467733 0.242649 0.313245 68 158 167
0.382338 0.638865 0.174912 176 209 150
-0.523702 -0.565442 0.321382 61 55 168
0.549419 0.34629 -0.451654 198 172 70
-0.231754 0.0367115 0.317365 98 132 168
-0.606066 0.272691 -0.665807 50 162 43
0.570792 -0.451521 -0.0366555 200 70 123
0.3704 -0.663089 0.305169 175 43 166
-0.540968 -0.42214 -0.166851 59 74 106
-0.56538 -0.426168 -0.321458 55 73 87
0.769123 -0.988577 0.561623 226 1 199
-0.351158 -0.711912 0.581773 83 37 202
-0.0527354 0.703963 0.330335 121 217 170
-0.16329 0.7121 -0.663221 107 218 43
-0.443322 -0.728187 0.611564 71 35 205
-0.484008 -0.641862 0.305107 66 46 166
-0.549106 -0.0934839 0.0566178 57 116 135
-0.555462 -0.109758 -0.427242 57 114 73
-0.549106 -0.020249 -0.259344 57 125 94
0.557556 -0.0677421 -0.0854789 199 119 117
-0.451459 0.531422 -0.118028 70 195 112
0.641175 -0.500345 -0.183125 209 64 104
0.167924 0.80161 -0.10989 149 230 113
0.549419 -0.475933 -0.133712 198 67 110
-0.460839 -0.394561 0.386479 69 77 177
0.146807 -0.768873 0.581773 146 29 202
-0.594867 -0.516619 -0.288909 52 62 91
0.272753 0.697802 -0.10989 162 216 113
0.150695 0.721739 0.44344 147 220 184
0.329714 -0.524756 0.410931 170 61 180
0.150695 -0.796844 0.598047 147 26 204
0.354125 0.64393 -0.183125 173 210 104
0.215793 0.760924 0.169994 155 225 149
-0.606066 -0.538112 -0.297046 50 59 90
0.728437 0.240142 0.435083 220 158 183
-0.496927 0.492396 0.1505 64 190 147
0.0178788 -0.801422 -0.589986 130 25 52
-0.482174 -0.728187 0.663145 66 35 212
-0.475871 -0.574132 0.313245 67 54 167
0.291526 0.679552 -0.10989 165 214 113
-0.62234 -0.432732 -0.142439 48 72 109
-0.573838 -0.410835 -0.0773416 54 75 118
0.0298715 0.972491 0.0121677 131 251 129
-0.549106 -0.527517 0.117951 57 60 143
0.329714 0.647003 0.154234 170 210 147
0.0774601 0.052986 0.338241 137 134 171
-0.467733 0.514507 -0.25636 68 193 95
-0.443322 -0.727541 0.663145 71 35 212
-0.508419 0.46848 -0.533026 63 187 60
0.00422514 -0.638622 0.459714 128 46 186
-0.56538 -0.426803 -0.305184 55 73 89
0.500595 -0.92348 0.308631 191 10 167
-0.56538 -0.545436 0.0447166 55 58 133
-0.534896 -0.638677 -0.305184 59 46 89
0.662718 0.313377 0.305107 212 167 166
-0.626536 -0.48407 0.0203049 48 66 130
0.679614 -0.527283 -0.183125 214 60 104
-0.606284 0.370337 -0.533026 50 175 60
-0.540968 -0.632069 -0.297046 59 47 90
-0.174794 0.0330825 0.305107 105 132 166
-0.630478 -0.510425 -0.0447928 47 62 122
0.51687 -0.345738 0.458742 193 83 186
-0.614203 -0.401027 -0.0610672 49 76 120
0.175107 -0.382122 0.321382 150 79 168
-0.540968 -0.0772095 -0.125654 59 118 111
0.443635 0.555931 -0.410967 184 198 75
0.313439 -0.0365234 0.308549 167 123 167
-0.62234 -0.42711 -0.187588 48 73 104
0.310574 0.671414 0.166775 167 213 149
-0.0766997 0.581905 0.248147 118 202 159
0.097009 0.443572 0.248147 140 184 159
0.319311 0.00416268 0.321382 168 128 168
0.671477 0.31983 -0.0936161 213 168 116
0.232067 0.73751 -0.10989 157 222 113
-0.475871 -0.370149 0.338891 67 80 171
0.0204995 -0.638521 0.459714 130 46 186
0.354125 -0.614266 0.475469 173 49 188
-0.280577 -0.599905 0.378342 92 51 176
0.394861 0.598179 -0.516751 178 204 62
-0.21548 -0.92348 0.390801 100 10 177
-0.437028 -0.492207 0.402754 72 65 179
0.339507 -0.565442 0.451577 171 55 185
0.541812 0.451709 -0.516751 197 185 62
0.402949 -0.48407 0.394393 179 66 178
-0.452392 0.533082 0.0203049 70 195 130
0.142558 0.630728 0.336942 146 208 170
-0.680583 0.30524 -0.394693 41 166 77
0.555777 0.427298 -0.10989 198 182 113
-0.394498 0.580434 0.29697 77 202 165
0.329714 0.565869 -0.557437 170 200 56
-0.551496 -0.459659 -0.174988 57 69 105
-0.524694 0.321514 -0.563182 61 168 56
-0.638615 -0.475933 -0.180534 46 67 104
0.541281 -0.166719 -0.556006 197 106 57
0.699633 -0.565442 -0.10989 217 55 113
0.606379 -0.49057 0.0691282 205 65 136
0.0286368 0.703963 0.33244 131 217 170
0.305302 -0.621945 0.492263 166 48 190
-0.589792 -0.403373 -0.0692044 52 76 119
0.118146 0.753381 0.44344 143 224 184
0.253791 0.7121 0.305107 160 218 166
-0.506855 0.476121 -0.25636 63 188 95
0.476183 0.524944 0.10362 188 194 141
-0.53917 -0.83397 0.288833 59 21 164
0.10737 0.866707 0.0528538 141 238 134
-0.630771 -0.475933 -0.0610672 47 67 120
0.397705 0.606317 -0.313321 178 205 88
-0.249276 0.622591 -0.663221 96 207 43
0.3704 0.65514 0.176246 175 211 150
-0.353812 -0.667721 0.5004 82 42 191
-0.708014 0.240142 -0.655084 37 158 44
0.557556 -0.0853467 -0.0860832 199 117 117
0.459909 -0.569973 0.353931 186 55 173
0.545204 0.321514 0.215598 197 168 155
-0.0892672 -0.532893 0.44344 116 60 184
0.272342 -0.329463 0.321382 162 85 168
0.371033 0.606317 0.174912 175 205 150
0.150695 -0.422257 0.313245 147 74 167
0.384113 0.614454 -0.183125 176 206 104
-0.0364609 0.826615 -0.565575 123 233 55
-0.296852 -0.215542 0.319513 90 100 168
0.0855972 0.897648 -0.240086 138 242 97
0.546838 -0.223679 -0.5493 197 99 57
0.598242 0.402886 -0.511791 204 179 62
0.594471 -0.524756 0.0854026 203 61 138
-0.158519 0.810719 -0.10989 107 231 113
0.508732 -0.475933 0.326735 192 67 169
0.557556 -0.243437 -0.0936161 199 96 116
-0.459596 -0.370149 0.301287 69 80 166
0.337851 -0.459659 0.442074 171 69 184
-0.549106 -0.126033 -0.28621 57 111 91
-0.475871 0.504646 0.158638 67 192 148
-0.540968 -0.117896 0.0290065 59 112 131
-0.581654 0.402784 -0.541163 53 179 59
-0.638615 -0.565442 -0.363729 46 55 81
-0.574001 -0.443384 -0.0773416 54 71 118
0.44392 -0.646814 0.467852 184 45 187
0.492458 -0.640691 0.313245 190 46 167
-0.207342 0.770588 -0.354007 101 226 82
0.11723 0.85857 -0.248223 142 237 96
0.0734611 0.899256 0.0854026 137 242 138
-0.199205 0.771591 -0.516751 102 226 62
0.597848 -0.459659 -0.0854789 204 69 117
0.57383 -0.516619 0.0710346 201 62 137
-0.573517 -0.453917 0.0935399 54 70 139
0.0286368 -0.565442 0.342828 131 55 171
0.51111 0.484258 0.0854026 193 189 138
0.679614 -0.565442 -0.197106 214 55 102
0.647065 -0.549719 -0.240086 210 57 97
0.638928 -0.57358 -0.0690618 209 54 119
-0.546957 -0.370149 0.435303 58 80 183
0.264616 -0.622087 0.492263 161 48 190
0.0530484 0.948339 0.060991 134 248 135
-0.282791 0.695826 -0.10989 91 216 113
-0.606066 -0.48407 -0.270193 50 66 93
0.0774601 0.826021 -0.662409 137 233 43
0.419223 -0.48407 0.402519 181 66 179
-0.549106 -0.545886 -0.378419 57 58 79
0.647065 -0.463263 -0.0447928 210 68 122
-0.219411 -0.915343 0.541087 100 11 196
-0.191068 -0.307307 0.313245 103 88 167
-0.540419 -0.215542 -0.142439 59 100 109
-0.540968 0.441745 -0.25636 59 184 95
-0.443322 -0.71742 0.622459 71 36 207
0.734078 0.248279 -0.516751 221 159 62
-0.70697 0.280828 -0.394693 37 163 77
0.142634 -0.874656 0.64687 146 16 210
-0.109696 0.671414 0.33341 114 213 170
0.638928 -0.443384 0.065162 209 71 136
-0.231285 0.744649 -0.10989 98 222 113
0.0204995 -0.353875 -0.570577 130 82 55
-0.639075 -0.48407 -0.272635 46 66 93
0.451772 -0.549168 0.455113 185 57 186
0.703291 -0.524756 -0.223811 217 61 99
